# .PCD v0.7 - Point Cloud Data file format
VERSION 0.7
FIELDS x y z
SIZE 4 4 4
TYPE F F F
COUNT 1 1 1
WIDTH 3357
HEIGHT 1
VIEWPOINT 0 0 0 1 0 0 0
POINTS 3357
DATA ascii
2500 -1509 -38
2805 -1870 88
2415 -1566 37
2542 -1552 -136
2654 -1543 -130
2665 -1514 121
2664 -1518 71
2595 -1517 65
2549 -1549 -86
2523 -1505 -35
2682 -1540 -129
2660 -1536 69
2676 -1549 -79
2667 -1535 119
2466 -1632 32
2789 -1878 83
2820 -1885 33
2565 -1555 57
2456 -1638 -159
2542 -1548 6
2607 -1661 -5
2682 -1533 -76
2556 -1519 11
2478 -1544 0
2487 -1519 -40
2531 -1582 -142
2501 -1569 48
2538 -1561 -88
2715 -1561 -30
2681 -1521 -28
2440 -1543 -48
2428 -1563 -97
2573 -1589 -141
2524 -1554 3
2589 -1550 60
2714 -1534 21
2697 -1545 19
2371 -1509 -92
2803 -1889 -187
2308 -1452 -86
2444 -1567 41
2429 -1535 -140
2428 -1569 -146
2479 -1573 44
2425 -1577 -100
2460 -1538 -46
2607 -1543 63
2607 -1170 42
2665 -1202 -3
2735 -1539 74
2592 -1216 -49
2852 -1568 -74
2821 -1540 -22
2655 -1203 91
2580 -1267 -53
2592 -1317 -105
2599 -1239 -50
2847 -1547 29
2771 -1539 78
2587 -1252 -51
2804 -1511 134
2629 -1205 -4
2602 -1187 41
2577 -1285 -54
2703 -1210 -48
2826 -1549 81
2585 -1307 -56
2727 -1528 -26
2744 -1518 -24
2653 -1207 -48
2793 -1314 42
2799 -1529 132
2598 -1200 -48
2599 -1301 -104
2658 -1491 122
2772 -1284 43
2860 -1547 84
2644 -1035 47
2670 -1013 141
2799 -1034 -42
2660 -1155 44
2636 -1043 93
2667 -1025 47
2634 -1072 -90
2644 -1021 140
2674 -1034 2
2735 -1135 0
2694 -1129 -44
2689 -1136 0
2697 -1021 -89
2645 -1155 -1
2701 -1112 -44
2698 -1041 -90
2603 -1150 42
2864 -1128 2
2766 -1080 -43
2825 -1063 -43
2687 -1055 -90
2641 -1039 139
2701 -1019 48
2659 -1180 -2
2677 -1016 2
2806 -1125 1
2657 -1033 94
2678 -1150 0
2807 -1116 -44
2646 -1009 94
2689 -1002 3
2636 -1056 139
2768 -1129 1
2635 -1091 -91
2618 -1047 -88
2544 -685 89
2569 -719 90
2713 -711 -85
2495 -704 44
2657 -710 -84
2629 -755 47
2540 -745 -80
2629 -705 4
2437 -678 3
2523 -710 -36
2449 -695 3
2539 -758 -80
2677 -729 -84
2635 -688 46
2613 -714 4
2576 -680 90
2546 -681 131
2600 -704 -37
2547 -699 89
2549 -695 132
2394 -677 -75
2526 -686 45
2508 -658 129
2673 -776 94
2581 -712 -37
2530 -674 45
2389 -697 -34
2542 -772 -80
2471 -714 4
2417 -696 -76
2395 -686 -34
2610 -676 91
2582 -717 -81
2512 -695 45
2671 -743 138
2620 -747 92
2482 -638 127
2689 -688 47
2648 -672 92
2712 -632 93
2824 -629 96
2687 -674 47
2569 -647 131
2894 -585 98
2672 -650 92
2729 -670 48
2632 -649 134
2619 -605 133
2883 -597 97
2698 -670 93
2710 -645 93
2655 -641 135
2748 -626 94
2836 -611 143
2892 -614 98
2650 -626 135
2617 -591 132
2900 -631 99
2673 -590 135
2665 -303 -41
2587 -325 -83
2852 -302 0
2633 -287 -41
2787 -323 0
2562 -399 -82
2569 -285 -83
2609 -419 0
2602 -405 0
2603 -432 1
2659 -302 41
2750 -271 42
2587 -398 -39
2666 -330 -41
2590 -424 -39
2753 -258 132
2661 -276 128
2698 -299 87
2554 -253 -40
2660 -316 -41
2656 -262 128
2776 -280 0
2717 -315 88
2662 -289 128
2561 -411 -82
2770 -287 43
2699 -366 -87
2625 -369 -84
2574 -311 -83
2557 -271 -82
2556 -240 -40
2662 -303 129
2580 -268 -40
2579 -388 -82
2582 -410 -39
2677 -291 41
2701 -286 87
2550 -257 -82
2766 -265 0
2581 -384 -39
2560 -373 -82
2552 -245 -82
2835 -314 0
2668 -402 0
2571 -298 -83
2754 -258 42
2706 -273 87
2604 -340 -84
2829 -152 135
2704 -67 -43
2771 -107 132
2711 -233 86
2768 -121 132
2706 -206 86
2766 -45 87
2680 -224 128
2788 -117 -90
2741 -65 130
2676 -183 128
2674 -40 -42
2763 -93 131
2724 -37 130
2673 -54 -42
2677 -197 128
2779 -247 42
2683 -211 128
2703 -219 86
2585 -222 -83
2748 -79 131
2787 -59 88
2768 -134 132
2718 -247 87
2740 -101 -89
2656 -237 -41
2552 -232 -82
2737 -51 130
2883 165 0
2677 -27 -42
2729 -4 86
2635 57 -85
2688 -14 -42
2807 102 -90
2698 11 -42
2865 178 0
2889 126 -45
2788 49 -1
2726 30 130
2813 56 43
2726 -23 130
2791 28 42
2732 -31 86
2699 38 -42
2793 37 88
2873 150 0
2833 14 43
2740 23 87
2811 70 43
2744 9 87
2683 64 -42
2750 -10 131
2792 88 -90
2797 116 -90
2730 -17 86
2682 -1 -42
2828 35 -1
2890 122 0
2867 135 0
2872 97 -45
2819 77 -1
2730 3 130
2859 143 44
2884 112 -45
2697 25 -42
2801 45 134
2814 42 43
2700 16 129
2812 63 -1
2900 290 47
2799 244 1
2811 231 0
2778 270 1
2845 205 0
2805 405 95
2840 380 -40
2775 284 1
2830 394 96
2850 396 -40
2871 322 2
2860 192 0
2880 338 2
2851 410 -40
2892 275 47
2800 300 2
2789 257 1
2829 218 0
2870 369 -41
2881 436 -88
2891 423 -89
2847 541 148
2812 465 98
2779 484 142
2790 447 96
2822 477 144
2817 520 146
2795 432 96
2837 444 -86
2799 419 96
2801 503 144
2897 474 148
2870 428 -40
2873 715 156
2900 705 157
2842 769 157
2807 791 156
2814 777 156
2413 -2239 261
2661 -2022 240
2430 -2290 262
2382 -2217 147
2580 -2023 232
2542 -2256 457
2460 -2015 438
2628 -2020 290
2519 -2271 453
2430 -2293 379
2602 -2064 343
2533 -2050 227
2513 -1993 278
2384 -2185 149
2450 -2005 381
2602 -2305 407
2677 -2333 294
2557 -1884 175
2680 -2345 236
2495 -2051 223
2670 -2328 417
2418 -2251 436
2420 -2248 378
2718 -2342 177
2455 -2280 322
2451 -2245 441
2491 -2008 275
2349 -2256 423
2569 -1985 175
2714 -2329 423
2588 -1938 177
2708 -2324 358
2438 -2235 211
2619 -1992 178
2612 -2039 344
2553 -2297 399
2382 -2217 204
2512 -2260 331
2571 -2245 461
2639 -2346 169
2476 -2263 326
2543 -1996 172
2729 -2305 425
2620 -2046 290
2529 -2312 395
2454 -2009 325
2421 -2283 317
2581 -2330 163
2459 -1982 325
2392 -2262 431
2581 -1992 232
2615 -1512 429
2540 -1547 423
2539 -1494 418
2802 -1956 364
2424 -1423 162
2591 -1850 178
2574 -1516 373
2447 -1409 211
2440 -1385 162
2488 -1704 427
2488 -1424 260
2643 -1767 236
2526 -1565 422
2817 -1967 308
2428 -1447 212
2450 -1387 211
2561 -1533 424
2476 -1641 421
2477 -1669 423
2599 -1557 379
2427 -1401 161
2802 -1924 363
2544 -1844 229
2545 -1846 174
2485 -1619 421
2553 -1792 229
2507 -1579 421
2422 -1446 162
2494 -1598 421
2556 -1822 230
2461 -1434 259
2571 -1776 231
2440 -1429 212
2597 -1765 232
2546 -1160 390
2587 -1381 265
2604 -1145 347
2564 -1403 218
2564 -1172 346
2540 -1179 391
2549 -1234 350
2566 -1196 348
2623 -1467 375
2612 -1435 371
2571 -1388 364
2571 -1397 265
2581 -1469 371
2566 -1428 220
2689 -1475 434
2555 -1260 352
2606 -1123 346
2638 -1421 424
2563 -1335 359
2566 -1367 311
2500 -1395 165
2671 -1491 434
2551 -1353 359
2577 -1301 307
2729 -1171 412
2572 -1346 310
2643 -1502 431
2555 -1141 390
2548 -1210 348
2506 -1410 261
2586 -1329 310
2594 -1285 308
2533 -1401 263
2606 -1343 265
2582 -1158 346
2772 -1440 441
2559 -879 320
2658 -1035 202
2568 -848 318
2738 -1073 303
2555 -895 321
2660 -1020 153
2642 -1057 294
2558 -784 266
2597 -975 284
2631 -1097 297
2556 -800 267
2549 -983 237
2549 -831 269
2710 -1140 407
2582 -893 277
2535 -860 270
2615 -1068 293
2552 -816 268
2671 -1062 205
2765 -1075 357
2689 -1026 203
2784 -1060 357
2625 -1109 346
2718 -1120 406
2612 -921 281
2568 -831 317
2633 -1090 345
2529 -935 232
2884 -1077 216
2555 -919 277
2536 -958 234
2565 -864 319
2647 -1037 153
2752 -1084 257
2638 -1055 154
2538 -844 269
2563 -942 279
2584 -923 326
2525 -800 310
2540 -788 311
2727 -1078 403
2634 -1011 290
2519 -701 302
2588 -541 209
2521 -745 349
2588 -550 168
2607 -601 172
2401 -542 319
2638 -645 130
2583 -775 268
2459 -553 241
2518 -728 347
2509 -570 205
2562 -645 213
2566 -638 172
2821 -754 192
2400 -577 280
2575 -766 312
2482 -604 247
2461 -601 330
2586 -712 132
2586 -736 311
2633 -591 172
2511 -586 206
2698 -676 363
2795 -782 193
2633 -612 128
2694 -594 129
2516 -711 346
2472 -635 334
2606 -590 126
2588 -753 312
2464 -569 243
2457 -583 243
2427 -553 281
2434 -540 281
2573 -624 171
2515 -661 126
2412 -565 281
2468 -665 336
2519 -603 208
2836 -731 238
2458 -679 336
2812 -734 190
2490 -677 297
2554 -640 127
2629 -698 312
2610 -570 170
2652 -633 130
2462 -648 334
2480 -637 124
2573 -782 313
2578 -610 171
2531 -621 210
2543 -684 129
2568 -530 165
2381 -567 318
2429 -533 321
2726 -689 321
2379 -551 317
2502 -413 236
2514 -474 241
2504 -443 238
2499 -427 237
2876 -549 133
2643 -299 158
2477 -415 277
2664 -308 115
2550 -518 205
2498 -389 278
2541 -485 202
2617 -509 167
2505 -458 239
2569 -515 165
2474 -349 314
2491 -402 278
2536 -500 203
2842 -559 133
2505 -375 278
2700 -213 159
2642 -254 157
2803 -65 297
2719 -131 334
2838 -137 116
2693 -205 112
2626 -265 240
2781 -118 114
2688 -189 112
2770 -87 112
2748 -212 341
2876 -164 307
2830 -130 301
2771 -102 113
2632 -112 323
2646 -284 158
2619 -272 197
2607 -81 319
2619 -256 197
2782 -166 343
2736 -167 246
2691 -187 199
2690 -256 245
2810 -159 163
2818 -97 299
2835 -243 305
2694 -183 157
2611 -52 319
2701 -236 114
2702 -168 157
2806 -81 297
2608 -66 319
2614 -96 321
2658 -262 113
2701 -157 199
2647 -269 158
2701 -173 200
2756 -228 342
2771 -72 112
2830 -185 350
2693 -198 158
2678 -294 115
2816 -113 299
2792 -80 160
2886 -181 309
2623 -280 240
2698 -220 113
2676 -279 114
2619 -287 198
2853 -154 351
2839 -146 303
2836 -145 164
2801 -96 161
2713 27 154
2771 19 111
2646 37 322
2734 100 197
2742 180 288
2648 16 234
2707 57 153
2735 4 110
2819 151 343
2797 165 340
2735 116 332
2722 59 286
2635 72 277
2646 117 278
2775 117 200
2690 148 283
2711 164 285
2737 84 197
2652 52 323
2795 142 246
2741 -26 110
2818 181 343
2732 12 155
2670 67 325
2690 92 237
2687 83 327
2620 60 231
2621 -7 320
2797 112 247
2719 123 240
2721 131 331
2635 22 321
2742 -10 110
2803 -33 296
2721 42 154
2739 -56 111
2723 69 196
2610 -37 319
2636 75 232
2668 132 280
2712 100 330
2624 7 320
2836 159 250
2798 195 340
2740 -41 110
2612 -22 319
2637 31 233
2637 87 277
2638 102 277
2624 45 232
2695 260 328
2716 248 331
2784 272 293
2752 206 335
2743 220 334
2729 245 197
2865 206 252
2663 286 325
2759 228 243
2760 430 339
2641 312 322
2727 234 332
2614 365 320
2821 246 297
2799 229 294
2800 259 294
2644 298 323
2687 236 237
2627 339 321
2634 325 322
2869 204 301
2831 216 297
2620 352 320
2609 379 320
2617 394 321
2677 273 326
2790 288 294
2864 558 256
2636 499 281
2782 449 111
2787 493 111
2715 632 292
2737 533 292
2635 442 280
2721 648 293
2783 677 348
2864 620 307
2875 658 166
2886 609 309
2606 465 277
2863 670 165
2728 634 340
2884 490 164
2853 545 209
2718 616 338
2867 533 164
2835 512 162
2858 530 209
2781 463 111
2725 648 340
2823 440 112
2886 526 116
2600 450 277
2719 618 292
2723 604 292
2743 638 247
2878 504 164
2782 478 111
2736 622 247
2603 479 277
2867 574 257
2717 603 245
2887 645 166
2796 775 162
2826 738 164
2811 902 356
2811 917 357
2832 708 164
2826 677 163
2838 725 164
2822 691 163
2776 739 161
2569 968 328
2602 951 332
2846 992 312
2836 972 311
2605 998 332
2579 957 329
2536 989 232
2485 -2112 -513
2474 -2070 -510
2457 -2122 -509
2355 -2100 -489
2664 -2154 -425
2703 -2115 -492
2833 -2147 -513
2512 -2015 -632
2344 -2128 -543
2611 -2241 -357
2530 -2110 -464
2497 -2093 -572
2545 -2029 -521
2868 -2076 -576
2828 -2114 -572
2602 -2103 -475
2546 -1976 -635
2526 -2017 -573
2530 -2110 -404
2346 -2097 -543
2524 -2268 -343
2342 -2121 -487
2512 -2036 -515
2533 -2055 -576
2841 -2085 -511
2424 -2119 -446
2372 -2133 -610
2489 -2049 -512
2636 -2164 -420
2595 -2199 -414
2433 -2135 -504
2590 -2147 -656
2541 -2086 -465
2547 -2254 -347
2636 -2096 -480
2499 -1972 -626
2429 -2356 -323
2533 -2481 -528
2544 -2480 -467
2507 -2481 -459
2524 -2434 -526
2483 -2403 -579
2519 -2299 -341
2615 -2471 -481
2576 -2472 -473
2458 -2430 -386
2507 -2351 116
2475 -2395 48
2488 -2357 168
2773 -2377 144
2335 -2279 207
2623 -2317 132
2613 -2342 129
2381 -2223 164
2413 -2284 335
2338 -2313 264
2549 -2271 358
2426 -2297 220
2687 -2321 318
2509 -2270 352
2398 -2182 116
2386 -2194 166
2480 -2364 52
2427 -2296 280
2388 -2296 331
2435 -2250 116
2672 -2347 252
2828 -2387 149
2336 -2314 205
2456 -2140 69
2445 -2163 66
2363 -2269 271
2448 -2249 226
2355 -2296 268
2435 -2269 282
2428 -2264 339
2728 -2373 140
2459 -2365 164
2387 -2227 218
2645 -1817 203
2741 -1868 101
2823 -2044 161
2679 -1783 206
2807 -2001 161
2555 -1898 196
2503 -1844 88
2748 -2021 156
2621 -2065 312
2568 -1998 195
2440 -2013 344
2446 -1987 345
2650 -2028 257
2545 -1978 247
2876 -2391 154
2591 -2073 309
2709 -1875 99
2513 -1881 88
2489 -2028 186
2530 -1822 194
2478 -2013 295
2534 -2000 245
2568 -1978 144
2541 -1859 195
2674 -2015 260
2645 -1996 202
2538 -1799 195
2869 -2014 165
2539 -2006 192
2605 -2052 367
2799 -1942 388
2600 -1992 198
2530 -1890 143
2535 -1922 143
2553 -1782 196
2525 -1831 90
2823 -1961 334
2518 -2018 243
2498 -2004 188
2611 -2088 368
2766 -1945 100
2620 -2032 312
2617 -1463 147
2575 -1319 332
2597 -1389 239
2595 -1333 286
2503 -1448 142
2567 -1485 342
2614 -1367 290
2570 -1398 238
2502 -1476 93
2418 -1422 138
2522 -1401 187
2466 -1413 231
2552 -1480 94
2567 -1338 333
2713 -1522 100
2451 -1385 183
2617 -1488 148
2446 -1429 184
2554 -1355 333
2409 -1440 137
2451 -1428 231
2443 -1447 231
2442 -1484 140
2579 -1397 289
2466 -1389 230
2562 -1419 238
2452 -1457 185
2680 -1529 99
2604 -1386 290
2442 -1403 183
2865 -1554 104
2635 -1579 98
2553 -1379 334
2624 -1074 271
2544 -1211 322
2694 -1067 226
2633 -1038 131
2674 -1045 320
2650 -1029 83
2574 -964 305
2607 -1218 328
2650 -1008 82
2634 -1059 132
2670 -1021 176
2565 -1267 328
2651 -1023 131
2589 -976 262
2679 -1091 324
2653 -1315 290
2667 -1041 177
2741 -1099 282
2630 -1115 322
2638 -981 218
2632 -1195 89
2621 -1134 323
2682 -1070 323
2547 -988 213
2626 -998 218
2722 -1070 278
2609 -1317 286
2664 -1061 178
2631 -1043 83
2636 -1015 268
2558 -1240 325
2604 -996 310
2552 -884 297
2539 -936 255
2569 -761 289
2546 -822 247
2545 -702 110
2549 -855 250
2553 -852 294
2557 -869 296
2603 -738 68
2690 -774 118
2528 -812 289
2558 -919 300
2559 -790 290
2549 -803 290
2587 -751 290
2564 -925 256
2570 -942 303
2683 -730 297
2566 -723 112
2534 -705 281
2568 -894 254
2555 -901 298
2560 -774 289
2535 -704 66
2525 -686 65
2544 -833 292
2547 -870 251
2615 -828 253
2538 -685 109
2637 -749 294
2550 -840 249
2713 -785 72
2457 -670 146
2872 -581 114
2632 -605 193
2597 -602 148
2523 -554 270
2561 -666 64
2634 -576 191
2494 -452 260
2522 -490 223
2549 -601 188
2626 -652 64
2492 -580 226
2573 -641 149
2822 -616 114
2569 -679 110
2600 -559 146
2837 -740 166
2531 -673 64
2858 -609 114
2521 -462 222
2489 -464 261
2658 -610 109
2564 -533 185
2700 -635 111
2876 -551 112
2489 -594 227
2480 -607 227
2592 -670 110
2605 -532 145
2631 -581 148
2595 -632 150
2593 -544 145
2485 -564 225
2560 -651 63
2529 -560 228
2867 -595 114
2806 -727 211
2525 -504 224
2635 -665 111
2872 -565 113
2546 -630 189
2565 -547 186
2564 -633 107
2439 -577 263
2438 -591 264
2448 -565 263
2672 -598 108
2599 -658 194
2511 -474 221
2679 -645 111
2615 -591 148
2796 -663 67
2614 -621 150
2555 -517 183
2453 -552 263
2552 -616 189
2634 -639 64
2648 -304 136
2655 -277 136
2623 -254 175
2627 -268 176
2540 -419 263
2655 -264 135
2687 -304 96
2693 -277 95
2743 -288 51
2622 -302 50
2735 -273 51
2621 -273 220
2640 -291 50
2629 -296 177
2676 -261 94
2506 -440 261
2618 -286 221
2692 -291 96
2498 -426 259
2620 -259 220
2649 -291 136
2629 -282 177
2709 -156 223
2843 -167 141
2754 -50 135
2690 -178 177
2661 -250 223
2863 -242 52
2716 -210 94
2682 -191 177
2795 -39 273
2773 -134 137
2737 -246 50
2769 -120 137
2752 -154 181
2722 -143 224
2758 -78 135
2687 -198 135
2704 -170 223
2748 -46 92
2738 -258 139
2766 -106 136
2705 -237 95
2712 -223 94
2738 -260 50
2756 -64 135
2724 -129 224
2681 -212 135
2688 -164 177
2795 -235 141
2783 -149 138
2817 -54 276
2773 -61 93
2839 -76 95
2686 -185 134
2757 -92 135
2722 -197 94
2819 -179 141
2763 14 45
2731 91 221
2732 8 90
2728 4 132
2635 30 257
2734 45 132
2718 67 175
2625 56 256
2792 -23 136
2785 139 44
2751 106 223
2705 168 263
2728 -5 90
2721 18 132
2806 36 92
2629 83 256
2728 -19 90
2726 183 265
2642 16 258
2774 82 178
2636 97 256
2832 152 229
2768 -10 270
2805 70 45
2715 53 175
2720 -32 90
2747 -36 134
2775 121 225
2795 56 45
2628 70 256
2721 32 132
2639 111 257
2625 43 256
2653 3 259
2679 153 261
2669 139 260
2761 28 45
2647 124 258
2797 -25 273
2737 21 90
2776 42 45
2794 136 226
2769 78 224
2721 39 175
2821 204 275
2830 389 93
2725 225 265
2679 238 217
2776 215 270
2801 399 92
2898 289 46
2890 273 46
2727 239 266
2855 544 235
2752 623 228
2624 538 261
2805 511 137
2702 540 268
2787 479 136
2713 612 271
2869 504 187
2713 626 271
2862 560 236
2802 496 137
2819 471 137
2864 518 186
2855 573 236
2895 537 238
2716 529 269
2899 470 141
2820 458 93
2805 414 92
2663 573 265
2856 535 140
2718 599 271
2860 532 186
2803 442 92
2800 427 92
2721 642 272
2828 993 288
2549 1000 259
2790 544 -526
2813 466 -336
2798 502 -336
2810 545 -581
2808 485 -336
2768 497 -570
2823 448 -337
2800 522 -337
2773 517 -572
2778 339 -375
2858 181 -479
2680 261 -316
2771 348 -468
2694 317 -319
2892 452 -393
2672 140 -403
2824 400 -432
2828 362 -431
2676 162 -358
2862 161 -479
2693 299 -318
2680 159 -405
2896 291 -439
2670 146 -491
2721 295 -366
2664 169 -312
2670 144 -357
2689 280 -317
2682 207 -315
2665 180 -357
2682 189 -315
2842 219 -477
2896 420 -345
2708 154 -317
2738 325 -462
2873 410 -389
2873 430 -390
2757 308 -465
2858 201 -479
2880 438 -343
2735 315 -369
2611 210 -528
2777 375 -424
2657 -47 -536
2679 96 -448
2610 106 -479
2755 -21 -506
2616 -101 -528
2706 22 -453
2674 -37 -358
2665 85 -402
2817 140 -472
2658 125 -355
2671 -113 -492
2740 -87 -553
2728 35 -501
2672 103 -403
2727 17 -364
2858 -59 -383
2674 -1 -357
2686 108 -359
2698 -24 -407
2558 122 -470
2689 40 -450
2672 67 -403
2670 114 -447
2728 118 -320
2731 3 -457
2697 -6 -407
2662 -28 -312
2698 54 -495
2650 -131 -489
2671 25 -313
2745 100 -321
2724 -29 -549
2661 72 -488
2677 122 -404
2671 27 -538
2649 64 -533
2729 12 -411
2849 -49 -334
2669 90 -490
2772 -10 -558
2794 -41 -513
2706 8 -545
2670 -10 -313
2673 -19 -357
2689 59 -450
2876 -69 -338
2732 -15 -457
2630 45 -530
2745 -2 -504
2714 -33 -455
2670 7 -313
2771 -44 -418
2748 16 -505
2638 -121 -533
2689 77 -450
2668 -370 -367
2864 -197 -386
2568 -429 -357
2617 -196 -442
2717 -289 -325
2503 -204 -509
2619 -178 -442
2630 -242 -402
2503 -239 -510
2632 -261 -403
2675 -340 -322
2844 -203 -433
2499 -221 -509
2534 -424 -440
2594 -396 -359
2640 -384 -364
2670 -314 -365
2611 -269 -444
2809 -252 -381
2698 -324 -324
2545 -415 -398
2580 -412 -358
2675 -258 -363
2668 -295 -364
2543 -316 -435
2617 -159 -441
2623 -407 -319
2620 -223 -400
2697 -355 -370
2751 -311 -330
2496 -229 -464
2815 -233 -381
2609 -351 -404
2589 -420 -316
2664 -276 -362
2503 -168 -508
2638 -372 -319
2501 -186 -508
2616 -251 -444
2574 -436 -315
2609 -204 -398
2517 -267 -469
2645 -392 -321
2563 -399 -400
2508 -248 -467
2625 -297 -404
2535 -431 -398
2524 -286 -472
2626 -279 -403
2655 -356 -321
2531 -297 -432
2685 -531 -333
2699 -747 -537
2666 -566 -333
2554 -680 -418
2897 -721 -520
2528 -448 -398
2685 -701 -531
2557 -690 -374
2711 -716 -490
2602 -472 -364
2686 -512 -332
2895 -743 -522
2560 -452 -315
2700 -637 -577
2580 -479 -494
2735 -575 -388
2562 -520 -362
2748 -659 -395
2666 -586 -335
2705 -769 -540
2695 -632 -341
2677 -728 -486
2668 -700 -388
2657 -603 -335
2684 -663 -388
2563 -711 -376
2566 -486 -449
2601 -490 -365
2749 -586 -582
2627 -457 -367
2686 -675 -578
2765 -808 -555
2808 -577 -593
2569 -458 -490
2747 -618 -392
2698 -699 -583
2556 -729 -377
2752 -552 -530
2875 -827 -526
2551 -718 -421
2584 -702 -333
2715 -620 -579
2703 -685 -532
2573 -738 -335
2582 -508 -453
2690 -685 -390
2614 -483 -412
2534 -443 -441
2530 -461 -441
2550 -699 -419
2666 -547 -332
2727 -602 -579
2691 -724 -534
2581 -721 -334
2583 -474 -318
2695 -657 -578
2702 -855 -548
2602 -908 -537
2580 -879 -530
2847 -846 -474
2722 -851 -457
2724 -1159 -585
2712 -836 -548
2694 -809 -543
2885 -1134 -558
2737 -886 -412
2708 -1134 -530
2872 -1057 -548
2664 -850 -495
2777 -1139 -542
2666 -839 -591
2611 -870 -349
2890 -1040 -549
2775 -841 -512
2628 -872 -397
2770 -818 -509
2691 -863 -453
2806 -1127 -545
2674 -832 -495
2581 -840 -343
2867 -874 -479
2864 -1077 -549
2673 -820 -591
2725 -1257 -596
2687 -1264 -590
2411 -1271 -544
2596 -1401 -437
2449 -1315 -555
2694 -1378 -447
2721 -1206 -590
2440 -1239 -546
2614 -1254 -630
2636 -1373 -440
2677 -1163 -577
2529 -1385 -478
2593 -1268 -628
2817 -1521 -419
2471 -1232 -550
2509 -1398 -476
2493 -1414 -475
2545 -1293 -622
2499 -1297 -514
2456 -1346 -512
2414 -1249 -542
2472 -1330 -513
2682 -1194 -532
2461 -1274 -604
2605 -1431 -440
2599 -1378 -435
2577 -1386 -485
2757 -1247 -600
2651 -1157 -524
2594 -1244 -572
2675 -1144 -526
2444 -1363 -512
2574 -1283 -626
2612 -1229 -627
2784 -1556 -417
2428 -1378 -511
2489 -1315 -515
2638 -1394 -494
2531 -1237 -561
2794 -1535 -417
2568 -1641 -503
2494 -1440 -477
2487 -1674 -544
2444 -1699 -539
2460 -1719 -652
2583 -1678 -399
2592 -1687 -563
2516 -1751 -608
2527 -1701 -606
2883 -2138 -643
2523 -1559 -490
2538 -1595 -495
2429 -1746 -591
2415 -1676 -428
2585 -1711 -617
2443 -1728 -592
2742 -1587 -469
2439 -1733 -649
2426 -1682 -483
2638 -1689 -461
2420 -1677 -378
2614 -1646 -564
2759 -1624 -473
2616 -1675 -566
2510 -1718 -604
2501 -1520 -484
2429 -1662 -534
2466 -1695 -650
2740 -1559 -466
2611 -1700 -621
2470 -1427 -522
2463 -1600 -484
2611 -1734 -683
2491 -1463 -479
2492 -1489 -481
2529 -1674 -552
2450 -1791 -598
2773 517 -566
2793 415 -615
2882 413 -387
2761 495 -563
2867 451 -386
2821 502 -626
2815 553 -481
2812 396 -424
2783 474 -616
2872 432 -386
2789 455 -617
2792 436 -616
2789 543 -524
2657 243 -579
2747 345 -461
2848 219 -474
2656 125 -350
2899 375 -388
2676 117 -397
2849 180 -473
2780 372 -419
2722 203 -360
2693 108 -355
2713 314 -362
2893 243 -481
2689 76 -445
2680 95 -444
2709 125 -494
2695 87 -491
2677 163 -354
2884 286 -431
2615 208 -522
2806 397 -617
2667 180 -353
2648 80 -526
2668 99 -396
2853 160 -473
2743 326 -459
2732 134 -453
2672 113 -443
2643 223 -575
2705 294 -360
2661 143 -351
2669 80 -396
2805 313 -469
2847 199 -473
2661 153 -395
2673 136 -397
2762 339 -369
2700 25 -536
2711 49 -494
2669 -1 -352
2674 -50 -531
2851 -50 -423
2521 -145 -548
2691 63 -399
2595 60 -515
2609 -179 -435
2509 -189 -502
2722 16 -589
2731 2 -452
2516 -163 -548
2837 -46 -517
2543 -129 -552
2733 -6 -498
2612 -76 -566
2648 -21 -573
2730 12 -497
2864 -237 -381
2578 -93 -559
2524 -200 -551
2511 -207 -503
2857 -60 -377
2679 16 -353
2814 -205 -421
2687 68 -490
2654 43 -527
2729 31 -497
2608 -160 -434
2787 -13 -553
2647 -136 -484
2739 -32 -544
2616 -198 -436
2663 -59 -577
2682 39 -444
2704 -38 -356
2554 -111 -554
2616 -209 -391
2751 -90 -547
2695 -40 -584
2756 -26 -502
2698 -29 -400
2723 -2 -590
2717 6 -540
2726 21 -451
2669 -19 -352
2695 -10 -400
2654 -118 -485
2683 7 -398
2622 -216 -438
2709 -158 -496
2510 -171 -501
2707 -35 -448
2684 58 -444
2720 -16 -450
2504 -180 -546
2590 -510 -448
2644 -360 -401
2642 -385 -358
2607 -270 -438
2649 -304 -400
2605 -491 -359
2625 -228 -393
2542 -300 -428
2661 -369 -360
2530 -425 -433
2561 -461 -483
2514 -243 -505
2592 -414 -353
2520 -290 -466
2626 -489 -406
2749 -342 -370
2554 -319 -431
2675 -296 -359
2600 -471 -357
2627 -265 -395
2684 -259 -358
2802 -251 -374
2600 -391 -397
2502 -234 -461
2533 -462 -435
2499 -252 -461
2662 -276 -356
2570 -482 -486
2589 -395 -352
2553 -402 -390
2516 -225 -505
2536 -444 -435
2561 -486 -442
2618 -253 -439
2629 -284 -396
2679 -315 -360
2681 -353 -362
2635 -247 -396
2540 -436 -390
2579 -505 -356
2550 -420 -391
2542 -455 -392
2625 -511 -498
2621 -456 -359
2572 -429 -351
2516 -272 -465
2679 -822 -580
2560 -728 -369
2705 -660 -570
2701 -857 -540
2713 -818 -539
2722 -736 -533
2552 -702 -410
2713 -642 -570
2646 -829 -625
2625 -531 -500
2715 -840 -541
2754 -723 -537
2768 -571 -574
2811 -882 -460
2573 -712 -369
2700 -680 -570
2743 -587 -571
2716 -844 -494
2690 -698 -570
2896 -744 -513
2550 -682 -408
2724 -624 -570
2784 -887 -508
2835 -837 -512
2566 -691 -367
2634 -804 -620
2661 -837 -578
2563 -520 -355
2580 -702 -460
2722 -778 -537
2769 -839 -501
2712 -754 -533
2548 -720 -411
2725 -603 -569
2677 -1140 -514
2612 -864 -385
2653 -1128 -559
2703 -1128 -517
2663 -1179 -565
2792 -1141 -532
2642 -1146 -558
2582 -882 -522
2719 -1181 -524
2742 -1238 -584
2686 -864 -441
2739 -1141 -574
2662 -887 -536
2550 -1314 -661
2488 -1475 -460
2554 -1268 -657
2643 -1261 -619
2472 -1343 -500
2543 -1385 -462
2452 -1355 -497
2540 -1333 -661
2445 -1237 -534
2390 -1323 -532
2697 -1369 -483
2496 -1477 -513
2431 -1367 -495
2618 -1277 -567
2500 -1433 -459
2631 -1280 -619
2572 -1377 -466
2476 -1417 -506
2637 -1363 -475
2762 -1582 -452
2384 -1274 -527
2676 -1256 -575
2507 -1413 -459
2565 -1297 -662
2401 -1260 -528
2643 -1265 -570
2501 -1243 -544
2470 -1247 -586
2536 -1305 -604
2545 -1215 -649
2377 -1293 -527
2496 -1502 -515
2560 -1246 -656
2445 -1377 -546
2729 -1256 -584
2564 -1345 -514
2551 -1264 -603
2510 -1340 -505
2793 -1626 -459
2599 -1367 -469
2520 -1467 -516
2498 -1457 -460
2775 -1563 -453
2527 -1400 -461
2642 -1236 -617
2414 -1244 -529
2644 -1704 -607
2596 -1730 -654
2575 -1686 -593
2553 -1961 -659
2558 -1703 -591
2546 -1690 -534
2464 -1704 -682
2764 -2105 -526
2867 -2162 -675
2518 -1963 -652
2847 -2138 -607
2396 -1730 -613
2522 -1571 -470
2589 -1664 -540
2465 -1724 -627
2862 -2084 -544
2493 -1503 -462
2467 -1750 -576
2600 -1695 -434
2511 -1988 -651
2562 -1673 -536
2833 -1738 -644
2425 -1732 -676
2484 -1709 -630
2443 -1736 -623
2432 -1692 -460
2542 -1720 -589
2428 -1684 -407
2479 -1731 -577
2442 -1716 -679
2388 -1750 -612
2523 -1570 -524
2409 -1749 -674
2508 -1639 -471
2544 -1715 -535
2549 -1752 -592
2869 -2113 -483
2509 -1536 -519
2813 -2134 -473
2431 -1665 -513
2658 -1683 -497
2659 -1681 -554
2501 -1533 -465
2554 -2121 -485
2568 -2072 -489
2422 -2131 -516
2560 -2039 -548
2513 -2012 -595
2473 -2390 -644
2726 -2160 -457
2629 -2061 -500
2348 -2095 -500
2349 -2109 -557
2342 -2118 -497
2753 -2150 -463
2491 -2424 -584
2614 -2492 -548
2473 -2057 -529
2582 -2113 -491
2391 -2099 -450
2517 -1985 -595
2533 -2133 -480
2399 -2135 -627
2555 -2065 -546
2341 -2131 -554
2393 -2129 -449
2514 -2104 -597
2717 -2183 -455
2790 -2148 -469
2579 -2052 -491
2528 -2089 -422
2374 -2143 -621
2444 -2121 -521
2471 -2085 -528
2486 -2112 -413
2587 -2458 -476
2518 -2023 -654
2506 -2421 -523
2603 -256 -23
2726 -282 63
2720 -226 62
2701 -319 -24
2756 -292 18
2667 -269 104
2771 -356 -113
2581 -288 -63
2575 -274 -63
2558 -252 -105
2742 -305 18
2562 -260 -62
2682 -230 104
2746 -297 -24
2569 -266 -106
2778 -323 19
2733 -255 63
2643 -321 -64
2692 -191 104
2723 -268 63
2557 -234 -63
2729 -296 63
2801 -255 18
2644 -273 -24
2816 -285 18
2675 -283 105
2587 -306 -106
2681 -216 104
2690 -204 104
2647 -300 62
2555 -247 -62
2693 -258 105
2840 -222 64
2724 -309 -24
2670 -310 105
2689 -340 -65
2760 -340 -24
2791 -268 18
2603 -321 -107
2574 -241 -106
2592 -242 -24
2726 -241 62
2690 -319 63
2789 -316 -114
2627 -306 -64
2664 -296 105
2681 -47 -67
2751 -98 105
2728 27 -27
2730 3 60
2680 -34 -67
2773 -117 -69
2845 64 16
2771 55 -27
2737 -10 61
2727 10 104
2699 -101 -67
2724 -2 104
2746 -84 105
2805 -128 108
2790 58 62
2716 -29 104
2723 -16 104
2750 -71 105
2744 16 61
2680 -21 -67
2690 -87 -67
2721 14 -26
2782 -113 106
2748 68 -27
2719 18 -68
2746 41 -27
2841 75 -71
2778 44 61
2663 57 -67
2714 -43 103
2681 -8 -67
2730 -57 104
2683 -74 -67
2680 -60 -67
2685 4 -67
2757 30 61
2732 1 -27
2855 50 16
2833 36 16
2865 79 16
2820 232 17
2798 272 17
2896 187 -28
2787 94 -116
2809 259 17
2895 158 -28
2855 192 17
2846 205 17
2785 132 16
2819 246 17
2894 180 17
2829 116 -71
2832 219 17
2821 102 -71
2779 80 -116
2876 86 -28
2781 108 -116
2797 286 18
2792 520 114
2857 355 -25
2877 441 -117
2835 414 -68
2889 493 117
2778 468 -113
2792 452 67
2834 428 -68
2862 327 -26
2810 412 67
2895 317 -26
2839 400 -68
2858 370 -25
2850 444 -68
2796 438 67
2790 466 67
2777 502 113
2769 480 -112
2858 341 -26
2870 386 -25
2794 424 67
2769 487 113
2879 372 -409
2816 396 -644
2779 541 -547
2735 345 -434
2780 477 -590
2792 310 -490
2808 422 -401
2853 408 -407
2796 475 -644
2857 360 -651
2792 434 -641
2879 283 -454
2751 336 -390
2795 414 -640
2763 515 -589
2771 496 -589
2812 395 -448
2786 290 -488
2814 324 -398
2774 451 -638
2744 366 -436
2836 378 -647
2827 530 -555
2868 391 -408
2786 7 -530
2875 198 -501
2661 132 -416
2762 0 -571
2708 -18 -560
2656 123 -371
2730 26 -519
2766 -31 -526
2720 111 -473
2583 61 -491
2865 157 -498
2892 138 -503
2673 142 -374
2659 178 -373
2807 -11 -534
2551 78 -485
2692 3 -420
2700 -33 -422
2709 16 -470
2682 91 -466
2723 13 -380
2669 59 -417
2514 95 -479
2633 44 -501
2867 177 -499
2701 35 -469
2643 104 -369
2661 57 -550
2749 -40 -477
2586 116 -493
2629 38 -543
2675 96 -418
2722 -37 -562
2653 239 -600
2623 224 -546
2668 -7 -599
2670 114 -418
2848 240 -448
2669 -4 -372
2602 -26 -585
2696 -14 -421
2698 54 -468
2746 -21 -476
2722 20 -562
2723 -2 -472
2667 -41 -372
2692 73 -467
2678 77 -418
2712 11 -609
2665 -23 -372
2866 262 -451
2666 159 -373
2432 -1901 -196
2534 -2080 -175
2515 -2067 -130
2521 -2085 -194
2889 -2401 -285
2896 -2356 -285
2520 -2076 -137
2439 -1920 -202
2506 -2049 -116
2519 -2079 -143
2866 -2377 -321
2478 -1973 -172
2657 -2078 -165
2383 -1918 -134
2808 -2314 -299
2441 -1933 -209
2515 -2057 -167
2846 -2360 -273
2666 -2072 -160
2447 -1987 -149
2397 -1939 -140
2510 -2029 -193
2478 -2020 -158
2883 -2384 -268
2469 -1955 -165
2531 -2083 -181
2524 -2082 -188
2589 -2103 -107
2473 -1979 -178
2581 -2035 -119
2860 -2347 -297
2827 -2311 -286
2503 -1995 -128
2452 -1964 -131
2616 -2051 -115
2549 -2077 -111
2566 -2019 -166
2808 -2322 -307
2544 -2017 -124
2477 -2031 -121
2431 -1888 -190
2460 -1979 -183
2810 -1965 14
2526 -1889 -169
2799 -2063 -125
2714 -2049 -138
2778 -1989 -159
2658 -2036 -147
2420 -1875 -237
2515 -1849 38
2551 -1852 -205
2596 -1832 9
2787 -1908 -193
2781 -2009 -164
2898 -2020 72
2874 -1951 27
2524 -1840 42
2430 -1826 -215
2760 -1909 -196
2468 -1889 -182
2547 -1825 51
2774 -2078 -136
2522 -1901 -174
2435 -1878 -185
2676 -2065 -154
2425 -1866 -231
2786 -2070 -130
2594 -1973 -138
2470 -1841 -213
2423 -1836 -220
2757 -1926 -200
2530 -1829 47
2421 -1848 -225
2746 -1877 76
2496 -1844 -210
2499 -1830 -205
2737 -1889 72
2875 -2100 -123
2536 -1927 -181
2587 -1843 4
2374 -1533 -97
2445 -1574 39
2581 -1548 56
2675 -1530 -80
2431 -1595 -153
2669 -1569 10
2672 -1548 -82
2856 -1919 31
2612 -1572 -88
2648 -1541 -134
2591 -1516 61
2566 -1589 -144
2543 -1568 -92
2488 -1523 -43
2654 -1514 67
2550 -1549 54
2550 -1556 3
2607 -1545 59
2680 -1540 -133
2713 -1535 17
2686 -1526 -31
2651 -1487 118
2440 -1558 -97
2697 -1552 -34
2745 -1545 71
2436 -1551 41
2459 -1542 -48
2682 -1514 -78
2678 -1519 -130
2452 -1554 -144
2679 -1542 115
2533 -1588 -145
2428 -1575 -149
2514 -1466 107
2605 -1538 108
2482 -1550 -2
2530 -1548 -139
2473 -1532 -46
2654 -1534 65
2696 -1545 15
2487 -1547 47
2553 -1576 0
2536 -1621 -7
2564 -1527 8
2437 -1538 -94
2548 -1553 -89
2426 -1609 -156
2376 -1524 -142
2534 -1601 -5
2664 -1514 117
2397 -1566 -102
2515 -1503 -39
2450 -1542 44
2515 -1546 50
2548 -1536 5
2500 -1513 -41
2603 -1184 36
2850 -1567 -78
2583 -1248 -56
2800 -1528 -26
2800 -1508 129
2635 -1195 -53
2628 -1276 -107
2790 -1310 37
2680 -1196 -53
2650 -1173 -7
2608 -1202 -53
2601 -1164 36
2609 -1148 37
2765 -1536 73
2561 -1281 -107
2786 -1541 -28
2585 -1267 -58
2594 -1234 -55
2799 -1528 128
2703 -1235 -9
2580 -1309 -109
2600 -1217 -54
2663 -1230 36
2840 -1529 -25
2865 -1549 79
2665 -1199 -8
2829 -1551 77
2572 -1267 -106
2846 -1547 24
2672 -1014 89
2655 -1064 88
2705 -1019 -96
2890 -1082 -50
2643 -1035 133
2649 -1153 -6
2699 -1133 -99
2693 -1017 -3
2703 -1109 -50
2684 -1049 -96
2660 -1037 41
2779 -1100 -50
2711 -1054 -48
2649 -1013 41
2677 -1159 39
2649 -1018 134
2900 -1072 -102
2701 -1037 -96
2772 -1126 -4
2636 -1069 -96
2679 -1147 -6
2693 -1133 -5
2643 -1090 -96
2635 -1049 -95
2645 -1023 88
2638 -1047 40
2616 -1043 132
2835 -1132 -4
2741 -1133 -5
2684 -1120 -50
2670 -1028 -3
2731 -1042 -48
2641 -1040 88
2664 -1044 -3
2474 -698 -2
2488 -715 -2
2464 -629 120
2536 -740 -87
2516 -721 -86
2420 -668 -82
2547 -770 -87
2606 -671 84
2540 -755 -87
2547 -682 82
2503 -702 38
2649 -668 85
2585 -710 -43
2688 -670 40
2642 -731 130
2547 -691 125
2420 -677 -41
2530 -673 123
2577 -676 83
2384 -692 -40
2595 -649 126
2391 -673 -81
2681 -682 40
2632 -701 -2
2573 -716 83
2570 -698 -2
2514 -692 38
2666 -762 41
2607 -702 -44
2539 -693 82
2441 -676 -2
2446 -638 119
2387 -680 -40
2690 -715 -92
2610 -740 85
2533 -671 38
2639 -685 39
2528 -682 38
2734 -632 86
2604 -584 125
2828 -576 134
2869 -599 136
2862 -632 90
2697 -666 86
2624 -507 124
2604 -597 125
2645 -648 128
2670 -645 85
2778 -628 87
2648 -621 127
2828 -596 88
2701 -639 86
2659 -637 128
2574 -366 -46
2595 -387 -6
2545 -240 -89
2666 -304 78
2631 -281 119
2630 -294 119
2582 -277 -47
2695 -267 78
2661 -325 -48
2693 -294 79
2794 -243 126
2556 -249 -47
2717 -242 79
2562 -279 -90
2591 -360 -6
2708 -255 79
2707 -268 -8
2601 -335 -91
2664 -357 -93
2556 -368 -89
2559 -261 -47
2661 -357 -7
2544 -353 -89
2581 -320 -90
2697 -288 34
2551 -266 -90
2556 -381 -89
2576 -307 -90
2571 -293 -90
2839 -310 -8
2782 -317 -8
2570 -391 -46
2768 -282 35
2548 -253 -89
2752 -267 34
2576 -379 -46
2634 -255 119
2564 -351 -46
2860 -298 -8
2769 -255 34
2638 -269 119
2552 -236 -47
2761 -260 -8
2670 -299 34
2840 -247 35
2657 -298 -49
2697 -281 79
2545 -227 -90
2596 -374 -6
2559 -394 -89
2662 -312 -49
2759 -67 79
2748 -54 78
2828 -118 126
2752 -136 79
2750 -95 78
2760 -33 123
2720 -26 77
2758 -88 123
2749 -122 79
2750 -184 123
2730 -40 78
2705 -214 78
2768 -102 123
2668 -42 -95
2890 -171 83
2789 -110 80
2681 -206 120
2682 -192 120
2680 -219 120
2732 -46 122
2662 -55 -94
2746 -74 122
2771 -151 79
2751 -81 78
2667 -28 -94
2828 -19 126
2824 -181 81
2730 -203 79
2735 -60 122
2709 -228 78
2726 8 121
2865 183 -9
2822 19 34
2865 130 -53
2682 69 -50
2660 62 -94
2797 93 -99
2775 49 124
2709 21 121
2825 82 -9
2856 76 35
2743 -2 -97
2814 47 34
2793 40 -9
2790 120 -98
2798 107 -99
2820 61 34
2705 35 120
2699 3 -51
2748 28 78
2661 -15 -94
2691 29 -50
2859 197 -8
2886 170 -9
2701 -10 -51
2799 68 -9
2874 126 -9
2861 81 -101
2853 101 -53
2730 14 78
2887 155 -9
2691 42 -50
2698 16 -51
2791 33 33
2864 116 -53
2828 54 -9
2842 341 -50
2875 425 -98
2858 416 -49
2822 251 -8
2837 355 -50
2896 280 37
2784 261 -7
2864 226 -8
2847 328 -50
2808 306 -7
2871 241 -8
2777 274 -7
2835 209 -8
2775 288 -7
2842 384 -49
2893 265 37
2834 398 -49
2834 369 -50
2788 497 41
2828 526 136
2869 490 -48
2761 503 87
2742 471 86
2814 507 -3
2782 521 88
2843 558 138
2885 441 -98
2831 541 137
2820 493 -3
2874 519 138
2832 528 -353
2747 341 -470
2890 287 -444
2665 295 -321
2835 380 -297
2656 259 -318
2698 294 -371
2755 337 -381
2747 322 -469
2883 338 -348
2773 369 -431
2852 406 -397
2656 251 -274
2823 466 -348
2666 277 -320
2790 469 -298
2873 356 -348
2811 434 -298
2867 375 -348
2658 241 -318
2795 451 -297
2709 313 -373
2832 365 -392
2660 233 -274
2800 502 -347
2654 268 -274
2845 449 -349
2784 389 -434
2844 425 -397
2829 398 -298
2879 435 -353
2886 392 -401
2888 364 -448
2811 484 -348
2687 289 -279
2664 224 -318
2779 536 -539
2653 200 -361
2780 100 -375
2682 -8 -270
2648 156 -402
2707 -36 -407
2678 98 -449
2856 162 -480
2858 28 -288
2758 -44 -370
2831 174 -289
2859 200 -482
2681 45 -448
2660 87 -402
2687 63 -449
2679 -25 -270
2725 9 -455
2851 219 -481
2741 -17 -505
2800 -36 -516
2666 115 -447
2694 0 -406
2761 88 -325
2859 181 -481
2830 156 -288
2666 9 -269
2671 69 -404
2700 27 -451
2735 0 -504
2653 71 -491
2837 101 -288
2612 105 -484
2660 183 -361
2832 64 -286
2727 176 -323
2847 120 -289
2658 189 -316
2720 -26 -453
2738 18 -505
2655 -35 -311
2661 140 -404
2657 104 -402
2672 -8 -359
2671 -1 -313
2693 -18 -405
2714 36 -501
2694 54 -498
2665 9 -358
2864 -57 -431
2667 -18 -312
2712 91 -502
2575 121 -477
2794 81 -283
2666 122 -404
2831 138 -288
2687 81 -450
2673 131 -361
2853 -64 -382
2651 148 -359
2851 172 -530
2683 -42 -270
2860 -57 -335
2740 105 -323
2856 46 -288
2670 -25 -358
2664 15 -312
2674 207 -318
2805 -62 -282
2666 166 -362
2733 -44 -455
2699 115 -365
2746 123 -324
2735 -8 -456
2614 -232 -436
2614 -223 -394
2670 -287 -359
2621 -198 -437
2777 -325 -326
2626 -293 -397
2627 -276 -397
2629 -139 -484
2891 -141 -387
2626 -251 -439
2616 -206 -394
2618 -215 -437
2675 -270 -359
2687 -323 -362
2689 -336 -272
2621 -181 -437
2695 -342 -363
2633 -259 -397
2622 -268 -438
2625 -156 -484
2771 -306 -325
2685 -306 -361
2760 -341 -325
2814 -247 -378
2625 -174 -484
2629 -242 -396
2630 -262 -486
2625 -279 -486
2643 -193 -487
2613 -284 -437
2811 -265 -377
2719 -371 -321
2673 -533 -366
2539 -435 -388
2590 -392 -394
2592 -439 -307
2733 -553 -327
2657 -477 -362
2730 -516 -325
2668 -568 -366
2625 -410 -310
2551 -460 -478
2537 -445 -429
2674 -357 -361
2598 -423 -308
2573 -486 -437
2677 -552 -367
2658 -598 -411
2686 -406 -273
2756 -399 -279
2610 -400 -354
2729 -377 -276
2548 -402 -388
2658 -350 -269
2560 -479 -480
2704 -391 -411
2541 -411 -429
2588 -478 -396
2871 -471 -292
2685 -423 -273
2707 -494 -322
2734 -610 -282
2540 -441 -475
2755 -605 -379
2885 -492 -294
2727 -627 -282
2648 -458 -360
2652 -371 -358
2546 -491 -348
2532 -461 -429
2587 -431 -352
2549 -475 -348
2588 -455 -307
2664 -617 -413
2741 -593 -283
2666 -382 -315
2642 -395 -312
2567 -457 -392
2768 -556 -521
2668 -582 -412
2598 -415 -352
2618 -384 -354
2576 -499 -484
2551 -420 -389
2602 -498 -399
2743 -536 -327
2760 -359 -325
2733 -571 -327
2536 -428 -429
2595 -874 -320
2548 -694 -399
2717 -865 -528
2626 -761 -276
2589 -820 -273
2730 -773 -525
2711 -806 -523
2605 -855 -368
2827 -843 -494
2632 -710 -275
2568 -720 -359
2626 -726 -275
2557 -691 -443
2604 -860 -276
2605 -878 -276
2769 -652 -334
2597 -716 -316
2577 -732 -448
2552 -712 -400
2739 -757 -526
2566 -812 -315
2694 -901 -428
2650 -881 -517
2746 -797 -529
2619 -878 -371
2661 -866 -518
2602 -842 -275
2711 -844 -525
2638 -676 -275
2566 -847 -316
2559 -734 -358
2723 -659 -329
2634 -693 -275
2663 -635 -413
2556 -709 -444
2837 -826 -495
2778 -847 -486
2568 -830 -316
2719 -871 -431
2762 -862 -484
2599 -806 -274
2587 -730 -316
2618 -794 -276
2738 -833 -530
2541 -726 -399
2617 -857 -416
2764 -882 -485
2566 -701 -358
2582 -747 -315
2628 -744 -275
2696 -1131 -536
2635 -906 -326
2586 -907 -275
2860 -1135 -566
2765 -1139 -549
2594 -945 -322
2665 -1138 -530
2592 -909 -321
2639 -1147 -526
2799 -1132 -555
2569 -919 -273
2595 -893 -275
2599 -965 -323
2589 -926 -321
2708 -1218 -541
2850 -1181 -304
2669 -1180 -532
2630 -995 -327
2841 -1198 -354
2772 -1534 -443
2491 -1439 -496
2799 -1528 -449
2588 -1360 -519
2803 -1510 -450
2758 -1607 -490
2546 -1376 -509
2501 -1426 -498
2487 -1454 -494
2524 -1382 -505
2500 -1406 -499
2820 -1498 -454
2617 -1355 -524
2563 -1366 -513
2514 -1396 -502
2781 -1558 -444
2634 -1700 -452
2496 -1514 -492
2628 -1652 -296
2605 -1650 -239
2602 -1669 -505
2512 -1659 -269
2512 -1541 -494
2477 -1681 -308
2488 -1473 -493
2410 -1670 -448
2537 -1610 -494
2460 -1656 -309
2583 -1663 -392
2622 -1709 -447
2443 -1594 -215
2533 -1621 -229
2622 -1665 -293
2565 -1724 -268
2579 -1677 -388
2426 -1612 -208
2599 -1651 -344
2526 -1568 -495
2490 -1492 -492
2450 -1669 -355
2417 -1666 -396
2534 -1590 -495
2629 -1704 -343
2762 -1629 -489
2423 -1624 -204
2674 -1663 -304
2480 -1603 -222
2516 -1677 -266
2610 -1714 -390
2675 -1641 -253
2597 -1666 -341
2424 -1596 -211
2699 -1674 -253
2502 -1862 -197
2456 -1832 -247
2776 -1909 -222
2498 -1841 -207
2871 -2111 -500
2867 -2016 -215
2791 -1904 -227
2771 -1920 -217
2570 -1826 -241
2507 -1717 -309
2441 -1697 -397
2467 -1831 -253
2840 -2136 -474
2449 -1835 -242
2330 -1632 -226
2500 -1822 -217
2863 -2028 -210
2412 -1663 -242
2470 -1814 -263
2544 -1820 -234
2497 -1831 -212
2510 -1807 -227
2436 -1674 -350
2472 -1826 -259
2546 -1796 -243
2865 -2175 -467
2522 -1725 -257
2502 -1813 -222
2780 -1880 -230
2498 -1851 -202
2821 -2133 -466
2783 -1943 -213
2448 -1842 -236
2333 -1621 -230
2504 -1872 -192
2666 -2051 -138
2675 -2056 -145
2766 -2078 -142
2752 -2075 -136
2425 -1875 -236
2434 -1869 -197
2553 -1948 -162
2437 -1868 -203
2424 -1869 -247
2480 -1880 -286
2675 -2061 -159
2704 -2086 -173
2414 -1876 -244
2432 -1884 -219
2498 -1926 -184
2433 -1863 -265
2442 -1851 -225
2439 -1865 -209
2443 -1845 -231
2523 -1908 -177
2668 -2057 -164
2426 -1873 -241
2746 -2115 -129
2426 -1878 -230
2684 -2072 -179
2836 -2123 -152
2543 -1945 -155
2527 -1918 -172
2432 -1884 -207
2423 -1865 -252
2438 -1860 -214
2552 -1955 -150
2430 -1879 -195
2512 -1886 -187
2424 -1861 -258
2605 -2011 -180
2529 -1925 -166
2426 -1879 -224
2450 -1906 -254
2546 -1965 -182
2461 -1896 -187
2445 -1881 -192
2645 -2030 -149
2757 -2086 -130
2430 -1883 -213
2439 -1887 -201
2414 -1874 -238
2443 -1866 -271
2674 -2059 -132
2461 -1873 -278
2515 -1896 -182
2440 -1856 -220
2794 -2120 -125
2427 -1868 -215
2514 -1908 -198
2429 -1864 -209
2680 -2062 -152
2868 -2089 -174
2435 -1862 -204
2436 -1881 -189
2458 -1840 -224
2439 -1835 -228
2514 -1883 -180
2557 -1963 -180
2814 -2087 -138
2792 -2108 -163
2659 -2016 -161
2444 -1884 -264
2488 -1820 -204
2486 -1840 -215
2459 -1896 -185
2557 -1958 -174
2418 -1873 -232
2673 -2054 -145
2808 -2092 -144
2631 -2017 -137
2427 -1850 -244
2538 -1866 33
2527 -1848 37
2434 -1840 -233
2545 -1943 -167
2489 -1832 -210
2529 -1946 -184
2698 -2059 -127
2424 -1870 -221
2422 -1854 -250
2809 -2060 -126
2523 -1835 42
2453 -1869 -199
2823 -2114 -152
2508 -1896 -192
2480 -1846 -220
2429 -1844 -239
2513 -1891 -186
2424 -1874 -227
2577 -1961 -162
2631 -2013 -131
2418 -1858 -256
2811 -2073 -132
2780 -2012 -162
2784 -1922 32
2879 -2042 71
2559 -1860 -204
2816 -1863 55
2895 -1880 65
2441 -1558 -77
2757 -1917 -186
2879 -1985 -189
2575 -1818 16
2895 -2067 -157
2728 -1893 81
2552 -1826 6
2534 -1832 48
2535 -1821 53
2636 -1882 60
2789 -1970 -199
2781 -1904 37
2637 -1899 1
2861 -2015 75
2711 -1895 76
2734 -1882 86
2420 -1581 -133
2894 -1965 43
2421 -1566 -130
2414 -1542 11
2762 -1936 -192
2397 -1547 8
2570 -1827 11
2839 -1861 59
2402 -1565 4
2423 -1599 -138
2426 -1554 -126
2794 -2009 -158
2422 -1427 125
2572 -1410 145
2492 -1561 18
2477 -1540 -25
2680 -1537 -105
2731 -1545 46
2683 -1549 93
2554 -1535 -112
2582 -1594 74
2463 -1501 120
2530 -1537 -114
2838 -1600 103
2765 -1561 -52
2504 -1390 139
2445 -1408 131
2591 -1566 80
2432 -1417 128
2411 -1437 122
2453 -1395 133
2840 -1554 2
2744 -1511 -46
2768 -1505 -44
2829 -1535 109
2637 -1600 28
2584 -1579 77
2497 -1512 -63
2665 -1596 -64
2407 -1451 120
2526 -1520 -17
2673 -1546 -55
2458 -1553 -75
2468 -1550 -28
2704 -1554 -7
2590 -1536 33
2544 -1615 -33
2676 -1529 -53
2498 -1529 -66
2583 -1534 -110
2458 -1381 135
2862 -1582 -104
2461 -1539 -71
2812 -1552 51
2503 -1540 -22
2597 -1523 36
2448 -1549 14
2888 -1574 55
2747 -1595 -111
2429 -1541 -123
2799 -1502 -42
2749 -1532 -49
2706 -1518 -2
2534 -1497 83
2509 -1555 21
2708 -1538 -4
2645 -1515 42
2678 -1517 -102
2546 -1581 -122
2703 -1587 -112
2591 -1634 68
2694 -1537 95
2739 -1531 48
2635 -1527 39
2578 -1546 31
2528 -1504 -14
2566 -1588 -71
2524 -1550 -117
2552 -1593 70
2546 -1488 86
2506 -1498 79
2519 -1533 -19
2793 -1332 20
2733 -1140 -17
2632 -1144 25
2675 -1134 -18
2650 -1236 -24
2574 -1278 -77
2628 -1198 22
2590 -1231 -73
2649 -1183 69
2619 -1175 23
2632 -1190 -21
2575 -1260 -75
2622 -1158 24
2680 -1174 -19
2785 -1323 69
2577 -1243 -74
2666 -1187 -20
2590 -1212 -71
2642 -1129 26
2622 -1204 -22
2684 -1157 -18
2665 -1047 168
2642 -1043 121
2650 -1035 74
2763 -1133 -16
2699 -1037 -62
2662 -1097 -64
2857 -1092 -15
2734 -1089 -64
2663 -1027 168
2715 -1024 -62
2721 -1064 -63
2647 -1048 -14
2643 -1056 167
2664 -1022 75
2640 -1060 121
2812 -1134 -16
2642 -1056 28
2895 -1076 183
2655 -1024 29
2636 -1048 73
2643 -1025 121
2678 -1085 -64
2656 -1034 -14
2647 -1039 29
2528 -688 71
2542 -679 71
2386 -700 -51
2525 -730 30
2515 -666 114
2446 -689 -9
2604 -720 -10
2507 -638 113
2497 -709 29
2459 -718 -9
2668 -689 31
2675 -645 74
2662 -656 74
2682 -641 120
2813 -770 175
2553 -703 116
2649 -776 75
2505 -651 113
2573 -624 158
2772 -687 32
2618 -753 74
2588 -614 159
2554 -646 158
2587 -731 73
2572 -673 72
2546 -688 115
2538 -757 -54
2605 -707 -10
2511 -700 30
2707 -639 75
2590 -664 72
2387 -688 -51
2539 -718 -54
2810 -754 174
2542 -683 30
2660 -701 31
2683 -679 31
2571 -714 -54
2572 -721 117
2421 -694 -9
2637 -663 74
2631 -656 118
2513 -688 30
2560 -634 158
2676 -653 120
2557 -709 72
2641 -617 118
2582 -524 114
2593 -549 158
2894 -544 127
2570 -402 -55
2602 -402 -12
2551 -513 154
2634 -598 161
2627 -583 160
2866 -611 127
2634 -571 160
2572 -531 156
2604 -416 -12
2854 -644 79
2604 -595 116
2622 -423 -57
2789 -624 124
2780 -579 123
2833 -654 78
2847 -549 125
2661 -212 155
2685 -268 -14
2711 -257 70
2646 -322 -58
2642 -257 112
2707 -216 69
2763 -317 -14
2576 -390 -56
2759 -267 27
2687 -234 114
2690 -301 27
2643 -297 113
2630 -294 -58
2558 -260 -56
2840 -332 29
2603 -260 152
2706 -289 27
2788 -256 27
2709 -270 70
2571 -274 -56
2646 -284 113
2590 -285 152
2545 -234 -56
2680 -200 156
2812 -295 -15
2685 -207 113
2687 -295 69
2596 -388 -12
2567 -376 -56
2648 -309 -58
2669 -306 69
2562 -362 -56
2548 -247 -56
2813 -309 -14
2603 -273 153
2614 -248 153
2753 -330 -14
2732 -346 -60
2697 -283 70
2709 -230 69
2690 -221 114
2849 -213 73
2718 -244 70
2734 -260 -14
2646 -270 112
2788 -284 28
2728 -47 114
2728 -34 114
2675 3 -59
2768 -158 116
2890 5 28
2671 -173 155
2742 -61 115
2814 -85 71
2746 -75 115
2727 -6 115
2660 -9 -59
2733 -20 115
2761 -117 116
2756 -185 116
2759 -56 70
2731 -28 69
2685 -194 113
2726 6 115
2701 -36 -60
2732 -15 69
2670 -186 155
2798 -71 71
2732 -1 69
2696 -13 157
2732 11 70
2763 -89 116
2757 -42 70
2676 -22 -59
2821 -133 119
2772 -145 116
2762 -103 116
2776 -173 117
2660 69 -58
2849 236 -13
2708 20 114
2834 47 28
2851 194 -14
2768 39 71
2673 30 -59
2703 54 157
2878 152 -14
2871 181 -14
2831 206 -13
2742 36 -15
2716 68 158
2810 61 28
2874 166 -14
2837 130 -62
2775 28 161
2693 43 -59
2693 41 157
2843 221 -13
2784 65 -15
2804 33 27
2749 25 70
2823 101 -62
2767 78 -14
2783 34 117
2783 51 -15
2866 60 -63
2683 17 -59
2853 116 -62
2870 76 28
2741 365 -449
2775 483 -273
2729 322 -352
2681 208 -385
2858 433 -231
2857 448 -375
2841 412 -229
2862 393 -372
2749 330 -448
2855 345 -322
2790 481 -323
2687 265 -345
2800 344 -268
2855 437 -327
2838 453 -326
2690 274 -301
2790 450 -273
2882 367 -326
2790 463 -322
2689 223 -299
2867 270 -463
2695 215 -344
2842 464 -374
2691 231 -344
2685 205 -298
2810 380 -271
2734 346 -447
2831 402 -415
2709 302 -349
2851 250 -460
2702 284 -347
2755 343 -357
2786 342 -406
2847 231 -459
2693 291 -302
2871 289 -465
2685 248 -344
2861 419 -327
2787 467 -274
2794 434 -412
2689 240 -300
2833 481 -374
2788 365 -362
2690 257 -301
2788 360 -268
2880 433 -377
2816 363 -411
2838 385 -415
2836 402 -275
2681 -20 -247
2679 81 -427
2725 114 -344
2656 -27 -290
2706 -37 -429
2679 140 -382
2686 21 -294
2748 -45 -299
2709 96 -342
2826 40 -215
2714 -27 -206
2769 91 -304
2685 197 -342
2691 175 -385
2851 65 -264
2702 12 -249
2675 123 -381
2681 64 -427
2714 -3 -431
2754 193 -305
2660 12 -334
2851 47 -264
2668 5 -291
2683 115 -429
2683 191 -384
2694 13 -428
2738 22 -208
2839 128 -313
2674 5 -378
2676 106 -381
2670 -4 -335
2713 5 -206
2864 -58 -359
2675 -11 -292
2834 163 -313
2703 -10 -205
2666 -20 -334
2869 -58 -455
2690 157 -384
2685 98 -428
2792 -39 -350
2876 76 -220
2681 -28 -379
2791 178 -309
2788 74 -306
2723 -54 -251
2726 -45 -385
2710 -20 -430
2767 133 -350
2674 179 -340
2669 148 -427
2698 -43 -204
2670 131 -427
2676 -37 -246
2673 -4 -247
2760 107 -303
2856 -65 -403
2866 -65 -312
2791 57 -306
2839 146 -313
2692 -11 -380
2826 57 -216
2840 -207 -401
2651 -313 -245
2724 -305 -251
2611 -200 -414
2853 -93 -357
2615 -266 -416
2846 -345 -311
2607 -296 -198
2647 -308 -375
2616 -283 -416
2631 -301 -419
2703 -289 -339
2723 -325 -342
2614 -233 -415
2620 -250 -416
2723 -308 -342
2870 -227 -405
2615 -217 -415
2603 -311 -198
2599 -279 -197
2658 -260 -376
2716 -274 -341
2658 -293 -377
2661 -276 -377
2609 -264 -197
2674 -244 -378
2878 -93 -265
2786 -73 -256
2555 -357 -408
2535 -418 -407
2595 -423 -329
2686 -522 -342
2522 -448 -406
2559 -449 -325
2715 -583 -302
2658 -334 -334
2560 -394 -365
2858 -542 -317
2693 -393 -296
2649 -592 -383
2548 -463 -324
2726 -551 -303
2776 -613 -310
2580 -356 -325
2781 -354 -305
2613 -377 -330
2626 -378 -200
2609 -429 -287
2672 -332 -247
2543 -403 -408
2666 -579 -385
2720 -465 -300
2588 -438 -328
2666 -401 -203
2734 -365 -300
2632 -372 -375
2571 -445 -368
2612 -468 -374
2664 -405 -293
2612 -328 -198
2815 -419 -261
2586 -486 -329
2729 -534 -303
2660 -550 -340
2678 -537 -342
2643 -365 -201
2557 -470 -412
2863 -525 -317
2601 -482 -373
2586 -341 -326
2830 -501 -313
2704 -594 -347
2567 -428 -367
