# .PCD v0.7 - Point Cloud Data file format
VERSION 0.7
FIELDS x y z normal_x normal_y normal_z curvature
SIZE 4 4 4 4 4 4 4
TYPE F F F F F F F
COUNT 1 1 1 1 1 1 1
WIDTH 789
HEIGHT 1
VIEWPOINT 0 0 0 1 0 0 0
POINTS 789
DATA ascii
2700 269 -338 -0.88091552 0.14487712 -0.4505536 0.081903264
2690 233 -248 -0.92648113 -0.1979616 0.32006845 0.10172507
2895 436 -323 -0.57014227 -0.8213833 -0.01635086 0.10413612
2680 224 -291 -0.99337423 -0.034787506 0.10953233 0.079674259
2798 463 -269 -0.82062525 -0.49642244 -0.28308827 0.11693662
2693 180 -380 -0.94630098 0.30607948 -0.10406654 0.14162301
2686 203 -333 -0.97467768 0.22312208 -0.014830408 0.11089852
2682 -21 -242 -0.90070182 -0.10742066 0.42094764 0.073360339
2653 -30 -282 -0.98370463 0.02045642 0.17862445 0.086761214
2784 83 -297 -0.54121828 -0.31973845 0.77772111 0.084372103
2723 107 -335 -0.56752831 -0.25308061 0.7834934 0.080219097
2721 123 -335 -0.54495054 -0.1875619 0.81722057 0.084486164
2667 10 -326 -0.98584676 0.14501466 -0.084124207 0.077901967
2679 186 -332 -0.98052657 0.19608977 0.010787902 0.085469969
2714 0 -199 -0.63211155 0.26578265 0.72786987 0.093105957
2664 1 -283 -0.98275793 0.16471723 0.083994485 0.080470182
2663 162 -375 -0.99278975 0.11736558 -0.024368079 0.088650107
2676 -5 -327 -0.99015296 0.096872024 -0.10105896 0.086395115
2656 113 -373 -0.99891698 0.046436626 -0.0029224572 0.15011892
2768 99 -296 -0.50019985 -0.10699183 0.85927463 0.087463014
2793 92 -161 -0.83083826 0.47650787 -0.2874856 0.099671163
2681 170 -331 -0.97616738 0.21559609 -0.02481192 0.10158448
2678 -5 -241 -0.89711213 0.025677005 0.44105616 0.070459783
2673 -30 -372 -0.92184114 -0.12022926 -0.36844778 0.072207861
2673 153 -330 -0.99594676 0.08985085 -0.0041137869 0.10151631
2669 16 -284 -0.97673512 0.20082894 0.075208589 0.10875605
2748 92 -337 -0.58442032 -0.71403658 0.3854928 0.16569836
2672 146 -376 -0.99941874 0.03068669 0.01484874 0.11376386
2696 -15 -198 -0.73784798 0.041251469 0.67370516 0.052723181
2808 76 -162 -0.76732254 0.52376467 -0.36998188 0.13245264
2859 153 -307 -0.6910755 -0.2261253 -0.68649989 0.18902808
2854 119 -306 -0.60731012 -0.40766126 -0.68189931 0.14454414
2692 -37 -328 -0.71767378 -0.69200218 -0.077957213 0.15025425
2670 175 -288 -0.9612729 0.24274312 0.1305 0.10071781
2806 60 -161 -0.97138631 -0.13049732 -0.19844171 0.12917317
2682 208 -290 -0.98519915 0.033943631 0.16801926 0.091327175
2680 -14 -373 -0.92384589 0.0039487341 -0.38274449 0.078051224
2674 2 -373 -0.92146939 0.09027493 -0.37781554 0.071311146
2673 130 -376 -0.98690844 -0.067823537 0.14632718 0.15121894
2680 192 -289 -0.97045225 0.13553898 0.19962855 0.10871416
2669 -21 -326 -0.99442869 -0.0029850055 -0.10536911 0.075647458
2696 10 -243 -0.76360202 0.43255547 0.47938266 0.12269417
2648 97 -371 -0.85478914 0.30312949 -0.42124581 0.16106467
2823 168 -304 -0.86245948 -0.5057866 -0.018534679 0.19347684
2712 -30 -198 -0.63107669 -0.10358901 0.76877272 0.065120921
2816 50 -207 -0.50005835 0.59684211 -0.62747204 0.130436
2668 -14 -283 -0.99153471 0.011562848 0.12932631 0.083171196
2809 66 -207 -0.57045949 0.47118032 -0.67272967 0.11489726
2675 -36 -241 -0.88479018 -0.20016478 0.42080915 0.06381955
2690 -46 -374 -0.73669839 -0.53755778 -0.41025266 0.12185729
2647 -250 -369 -0.65013593 -0.076374978 0.7559697 0.059691805
2838 -90 -346 -0.97202259 -0.23176758 0.038154244 0.17559972
2711 -46 -198 -0.6080808 -0.37917146 0.69747168 0.075941101
2648 -266 -369 -0.64207828 -0.010773554 0.7665633 0.044497568
2862 -57 -349 -0.53171265 -0.84684062 -0.011942798 0.11667262
2578 -273 -146 -0.971178 -0.19711 -0.13401827 0.13270465
2593 -270 -190 -0.63846821 0.25938144 -0.7246238 0.11110415
2653 -282 -370 -0.62965739 -0.059705168 0.77457523 0.046082217
2567 -446 -317 -0.74446452 0.62543535 0.2336733 0.13641755
2554 -394 -359 -0.72169775 0.26570961 0.63917983 0.1295494
2596 -420 -320 -0.62882018 0.68322903 0.3711918 0.11498688
2644 -314 -238 -0.73463953 -0.40963382 -0.54083717 0.13627538
2596 -316 -190 -0.72698516 -0.38916224 -0.56572551 0.11908916
2633 -382 -194 -0.60607994 0.14750358 -0.78160721 0.097377658
2560 -425 -361 -0.72368371 0.23478672 0.64896607 0.093200378
2647 -299 -239 -0.54002905 0.050169069 -0.84014976 0.097617842
2594 -395 -148 -0.86534381 0.088964291 -0.49321952 0.15398401
2604 -381 -149 -0.81250083 0.33801812 -0.47495914 0.14019407
2650 -314 -370 -0.59683859 0.02147175 0.80207396 0.096423462
2604 -366 -148 -0.81194669 0.33934528 -0.47496036 0.11907703
2751 -518 -296 -0.68875313 0.36193624 0.62818885 0.15819602
2713 -350 -289 -0.57322788 -0.75554657 -0.31711066 0.2153538
2677 -338 -328 -0.57787663 0.57161129 0.58251113 0.17475262
2656 -298 -371 -0.61226171 -0.12570454 0.7805984 0.047881197
2688 -532 -334 -0.84768742 0.17495452 0.50081629 0.16683307
2711 -370 -245 -0.67141479 -0.6471929 -0.36103109 0.1272704
2758 -502 -297 -0.50581104 0.25296086 0.82472181 0.15584235
2695 -367 -378 -0.52976066 0.67081785 -0.51899624 0.10457715
2606 -321 -148 -0.94858932 -0.31470358 0.033762414 0.20403287
2630 -410 -324 -0.56164408 0.7808066 0.27367303 0.11489893
2660 -332 -240 -0.68014753 -0.60767812 -0.41003248 0.14389436
2587 -492 -366 -0.64185619 0.43207994 -0.63350427 0.20163779
2695 -352 -243 -0.56845289 -0.70103818 -0.43058881 0.10341255
2559 -440 -361 -0.76474512 0.18381564 0.61755699 0.15782367
2749 -533 -297 -0.89747179 0.33362782 0.28850791 0.17534167
2600 -305 -148 -0.66101909 -0.74804747 -0.058980975 0.14000306
2648 -353 -194 -0.61811268 0.11184638 -0.77809197 0.21547829
2593 -285 -190 -0.7446962 0.037232213 -0.66636425 0.11629381
2578 -433 -318 -0.67267138 0.66582239 0.32279068 0.11272883
2694 -324 -330 -0.53847134 0.098607197 0.83685446 0.12405059
2648 -369 -194 -0.55304366 0.21589252 -0.80469441 0.15235773
2569 -411 -361 -0.62547207 0.41861615 0.65844148 0.09488862
2674 -545 -332 -0.93405682 0.35590556 0.029480286 0.12504362
2596 -301 -190 -0.78755772 -0.25308231 -0.56187385 0.12200682
2563 -739 -325 -0.87334049 0.064343996 0.48284188 0.11280459
2689 -772 -203 -0.80911827 0.40699735 -0.42388773 0.21760692
2596 -708 -241 -0.78450906 0.538463 -0.30757612 0.11950638
2657 -621 -333 -0.9642784 0.095965818 0.24689612 0.13555408
2604 -740 -286 -0.71995288 -0.28381073 0.63333982 0.08766602
2575 -727 -326 -0.85271019 0.16245964 0.49647987 0.10780001
2636 -687 -244 -0.66915864 0.74053538 -0.061920237 0.16186704
2723 -596 -250 -0.98949957 0.076193094 0.12282193 0.099167481
2706 -793 -205 -0.66553938 0.72987455 -0.15601447 0.1769563
2559 -736 -150 -0.70530099 -0.47919416 -0.52242082 0.10150794
2588 -715 -327 -0.79818922 0.295941 0.52470273 0.10809463
2547 -732 -368 -0.94897664 -0.029814275 0.31393388 0.09113726
2658 -757 -247 -0.70104116 -0.18708283 0.68814343 0.10204922
2540 -746 -368 -0.95048529 -0.10900722 0.29102415 0.11930595
2663 -558 -331 -0.95314181 0.30005303 0.03858608 0.092801556
2659 -773 -248 -0.56639588 0.20074546 0.79931033 0.12469804
2619 -699 -243 -0.76972651 0.5483346 -0.32687959 0.15918964
2655 -605 -332 -0.96580911 0.19510306 0.17072636 0.12790452
2659 -590 -332 -0.9575994 0.23657581 0.164424 0.13362333
2616 -727 -287 -0.73247725 -0.13185656 0.66790038 0.093837991
2603 -726 -242 -0.93468696 -0.22100225 -0.27842128 0.14381142
2569 -754 -150 -0.62184089 -0.54028708 -0.56692481 0.10672163
2727 -630 -251 -0.96640313 -0.25431722 0.037251636 0.089768402
2543 -700 -367 -0.93112862 0.12209846 0.34364441 0.062366888
2645 -687 -290 -0.69100618 0.55728281 -0.46037614 0.17252795
2548 -717 -368 -0.94483441 0.036227539 0.3255389 0.066447824
2733 -615 -251 -0.99059409 -0.09364184 0.099772148 0.11449507
2663 -574 -332 -0.96312439 0.26904851 0.0020832778 0.11899836
2602 -755 -286 -0.65085137 -0.00039201975 0.75920498 0.059626225
2632 -845 -246 -0.89112777 0.41552258 -0.1822973 0.093765236
2628 -1011 -152 -0.98705238 0.15969603 0.01499103 0.13003014
2608 -874 -198 -0.93613797 -0.29170564 0.19635054 0.0737032
2582 -828 -286 -0.74847317 -0.023038169 0.66276479 0.080038242
2598 -911 -288 -0.95457643 0.28658557 -0.081562668 0.083909459
2643 -822 -200 -0.56076801 0.81295294 0.15699297 0.062273484
2626 -1009 -198 -0.95288318 -0.044247959 -0.30009291 0.10811426
2625 -964 -336 -0.51454622 -0.31272078 -0.79840338 0.12573388
2704 -1003 -157 -0.946648 0.15490925 -0.28259617 0.1256844
2578 -842 -285 -0.77901858 -0.15435717 0.6077038 0.069002233
2625 -832 -199 -0.77422953 0.62312555 0.11082967 0.085667558
2642 -832 -247 -0.83141482 0.55216944 -0.062114708 0.12748699
2586 -841 -330 -0.88694781 -0.32061961 -0.33245564 0.10137381
2589 -938 -287 -0.99063641 -0.047689699 -0.12792677 0.074498311
2590 -826 -330 -0.83732182 0.16324481 -0.52176934 0.15526251
2597 -896 -288 -0.95877892 0.28063086 0.044601232 0.094949745
2623 -885 -335 -0.65990663 -0.59994149 -0.45232004 0.10223628
2629 -1029 -152 -0.99923337 -0.031373966 -0.023415232 0.13423812
2621 -873 -245 -0.97693968 0.20616789 0.055531468 0.10344021
2650 -819 -248 -0.69429493 0.71704799 0.061617039 0.14243458
2605 -900 -244 -0.90019488 0.27424401 0.33828896 0.090366036
2570 -770 -151 -0.55705452 -0.59307605 -0.58133548 0.066601641
2606 -857 -198 -0.99260491 0.023354335 0.11912195 0.10032422
2595 -816 -287 -0.66184533 0.1322563 0.73788142 0.098087914
2593 -859 -331 -0.78994238 -0.49555081 -0.36113784 0.090728737
2629 -897 -199 -0.69947308 -0.65715057 0.28087476 0.047035635
2597 -880 -288 -0.90565622 0.0500701 0.42104602 0.10807454
2615 -1022 -197 -0.98281127 0.0023891106 -0.18459769 0.078449272
2625 -990 -198 -0.94994724 0.26281357 -0.16890623 0.11414573
2616 -888 -245 -0.93994099 0.2046666 0.2731711 0.11070985
2648 -976 -248 -0.65223771 -0.11164025 -0.74974829 0.18163878
2610 -961 -290 -0.86943388 -0.49126008 -0.052423995 0.11680518
2606 -842 -197 -0.93577409 0.34108523 0.089373805 0.09606117
2606 -867 -289 -0.84086549 -0.064985409 0.53732866 0.11084561
2645 -992 -248 -0.73214924 -0.24853346 -0.63418347 0.1718905
2598 -927 -288 -0.98668218 0.084317662 -0.13909991 0.093595445
2632 -870 -384 -0.60882348 -0.73408175 -0.30076224 0.06446898
2634 -887 -385 -0.59890753 -0.74821657 -0.28545004 0.070731059
2622 -858 -245 -0.96246397 0.26010841 -0.077503473 0.099966571
2613 -918 -245 -0.81994802 0.14125593 0.55473608 0.11335649
2620 -1062 -150 -0.95081705 -0.30958018 -0.010349068 0.079067133
2626 -1047 -151 -0.98691416 -0.16117442 -0.0048150457 0.086252697
2719 -1553 -169 -0.65725726 -0.22026248 -0.72076166 0.12139273
2693 -1555 -165 -0.69329703 -0.031672433 -0.71995556 0.11566083
2690 -1536 -116 -0.95332253 -0.29885331 -0.043162402 0.18081784
2718 -1518 -174 -0.69850624 0.13632192 -0.70249939 0.11171981
2699 -1558 -114 -0.8819505 -0.46369043 -0.084584005 0.19170262
2716 -1534 -172 -0.70432162 0.047046725 -0.70832032 0.12223206
2686 -1517 -119 -0.86640245 0.47801146 -0.14440146 0.16015987
2435 -1614 -148 -0.89171755 -0.31024247 -0.32952908 0.10357683
2479 -1684 -289 -0.59412056 -0.54000568 0.59616655 0.069649689
2444 -1550 -72 -0.56383979 -0.55635953 0.61036777 0.09421628
2773 -1898 -199 -0.66150981 0.3218644 -0.67735374 0.19071871
2435 -1603 -151 -0.90960312 -0.21554855 -0.35519138 0.08994136
2479 -1674 -292 -0.59651828 -0.53866857 0.59498072 0.070942499
2590 -1662 -332 -0.87933439 -0.1084002 0.4637028 0.1031103
2436 -1581 -159 -0.92427063 0.029896345 -0.38056546 0.12848942
2461 -1634 -198 -0.90990937 -0.41480231 -0.0020127464 0.22753349
2590 -1648 -335 -0.89140153 -0.065709613 0.44842562 0.1019925
2622 -1651 -288 -0.69370449 -0.19511166 0.69332939 0.080138303
2451 -1616 -201 -0.7329039 -0.67162716 -0.10848439 0.22598998
2435 -1568 -163 -0.9184038 0.08420109 -0.38658071 0.14562474
2618 -1634 -291 -0.73988074 0.042580981 0.6713891 0.057467785
2784 -1895 -205 -0.52118278 0.38017035 -0.76409352 0.21916042
2437 -1593 -155 -0.92343992 -0.12955692 -0.36121157 0.10465832
2434 -1544 -120 -0.97475493 -0.18110541 0.13058978 0.16873895
2460 -1650 -294 -0.66412646 -0.52941346 0.52788019 0.080391377
2439 -2004 398 -0.9378354 0.047487359 0.34381649 0.13318747
2450 -2291 391 -0.53305727 0.26024547 0.80506039 0.13671345
2451 -1985 401 -0.92440534 0.25197703 0.28632557 0.15840773
2473 -1613 398 -0.93182498 0.33999991 -0.12689465 0.097548172
2484 -1700 402 -0.86642462 -0.3928003 -0.30824718 0.12762359
2485 -1595 398 -0.81838351 0.53577161 -0.20783937 0.10278511
2477 -1669 400 -0.93655485 -0.1765912 -0.30278799 0.097680196
2511 -1560 400 -0.74373245 0.64713538 -0.16756445 0.097080112
2530 -1547 402 -0.72110248 0.64010382 -0.26510084 0.097936213
2467 -1635 397 -0.983531 0.069218218 -0.16696016 0.073689908
2498 -1578 399 -0.76485395 0.61807334 -0.18161425 0.11866374
2549 -1532 404 -0.63882893 0.70069152 -0.31769311 0.1111019
2550 -1508 403 -0.84179658 0.41806316 -0.34147 0.21637982
2560 -1201 434 -0.955841 -0.11814727 0.26908967 0.120823
2561 -1181 382 -0.95532507 0.087218665 -0.28239504 0.10379378
2568 -872 450 -0.91779733 -0.032604281 0.39570832 0.17692035
2703 -1153 396 -0.75171822 -0.59073877 -0.29316789 0.20312256
2552 -1154 379 -0.86698896 0.30135474 -0.39688221 0.110517
2703 -1130 394 -0.88581562 0.15632303 -0.43691391 0.13788989
2712 -1108 445 -0.93324536 0.3402009 0.11539666 0.099180408
2572 -915 454 -0.87268472 -0.39614847 0.28546062 0.17203861
2566 -892 451 -0.919842 -0.20507632 0.33441654 0.18321396
2561 -1136 379 -0.77063274 0.56202644 -0.30041879 0.12853776
2696 -1081 390 -0.74945956 0.62281048 -0.22453801 0.1165088
2691 -1122 444 -0.97139198 0.23746774 0.0025801663 0.077427238
2729 -1061 491 -0.52240926 0.31048644 0.79415792 0.18261679
2564 -850 447 -0.90586853 0.12294055 0.40532431 0.15824714
2710 -1084 443 -0.82078135 0.57043451 0.030370766 0.070795693
2716 -1079 491 -0.62523556 0.14295615 0.7672314 0.13216652
2460 -675 331 -0.8189652 -0.17878199 -0.54528242 0.098413728
2561 -808 443 -0.96065158 0.22510882 0.16270995 0.11645119
2466 -695 333 -0.77068216 -0.45315838 -0.44799167 0.10427045
2563 -829 445 -0.9203155 0.17558293 0.34955689 0.15195502
2567 -799 399 -0.93962085 0.3408227 -0.030863617 0.11545711
2577 -782 399 -0.94750512 0.31218228 -0.069109902 0.10256604
2418 -520 315 -0.59531122 0.76795977 -0.23631002 0.15402777
2372 -575 356 -0.7575624 0.57517594 -0.30866143 0.19302794
2406 -571 317 -0.53495729 0.80713099 -0.24972035 0.16889772
2561 -788 441 -0.96419758 0.26419553 -0.022885773 0.102356
2490 -721 338 -0.67042667 -0.73956239 0.059796575 0.10982737
2534 -561 461 -0.75206012 -0.3402375 -0.56448567 0.095472798
2587 -745 397 -0.98866135 0.14126804 0.050913498 0.11643805
2422 -539 317 -0.748689 0.63881278 -0.17715241 0.13994873
2568 -750 439 -0.92851621 0.30748141 -0.20811717 0.091357619
2512 -538 456 -0.77521139 -0.28956485 -0.56142628 0.14211033
2446 -648 371 -0.94686282 0.16859171 -0.27391174 0.18635054
2537 -581 463 -0.64996696 -0.21602038 -0.72861391 0.13662638
2416 -555 317 -0.67227417 0.69205827 -0.26287428 0.15639189
2598 -719 440 -0.6022951 0.26335534 0.75358117 0.20026994
2583 -763 398 -0.96246898 0.27106184 -0.013372843 0.10255998
2364 -556 353 -0.83961099 0.43577233 -0.32427743 0.14948092
2429 -535 360 -0.65239841 0.60930306 0.45069519 0.199544
2456 -688 376 -0.86198318 -0.50616133 -0.028029472 0.16406842
2420 -551 360 -0.52786326 0.81593269 0.23582669 0.2357399
2576 -732 438 -0.94339299 0.32503402 0.066048838 0.15527903
2452 -668 373 -0.96653432 -0.2365872 -0.099185616 0.16646844
2518 -749 343 -0.61614186 -0.53811407 0.5751543 0.14718877
2565 -769 440 -0.93608159 0.29230914 -0.19572096 0.076493651
2598 -829 406 -0.75717574 0.066277333 0.64984006 0.20137961
2471 -408 314 -0.65683842 0.40411928 -0.63659328 0.14511007
2454 -381 354 -0.70390302 -0.55649543 0.44139948 0.22410019
2472 -349 354 -0.93361348 0.32579961 0.14906542 0.195053
2462 -354 393 -0.87607652 0.23103629 0.42321649 0.12271851
2455 -364 353 -0.93793595 -0.12906699 0.32189718 0.19122575
2505 -395 318 -0.70463061 0.57374489 -0.41750753 0.15581128
2465 -337 393 -0.82293636 0.29236495 0.487133 0.11094015
2603 -69 318 -0.92793053 0.041075055 -0.37048307 0.14389224
2738 -222 338 -0.60568571 -0.78217924 -0.14608394 0.16688521
2665 -80 371 -0.73830086 0.18834233 0.64764118 0.14180945
2659 -98 371 -0.9068523 0.11731811 0.40479058 0.12240411
2798 -225 439 -0.75918972 -0.51982939 -0.39167389 0.11018723
2605 -16 317 -0.96482778 0.25244203 -0.073350243 0.12724955
2602 -33 317 -0.97735727 0.14732763 -0.15187913 0.13820843
2644 37 321 -0.84213036 0.48041967 0.24497657 0.18219303
2605 -104 319 -0.89170581 -0.091445178 -0.44328144 0.21981502
2782 -215 482 -0.59314859 -0.43684548 -0.67626983 0.11437266
2666 -153 373 -0.6808821 -0.4684824 0.56295991 0.16253935
2660 -134 372 -0.96827692 -0.14559762 0.20307913 0.16006748
2799 -206 438 -0.73439598 -0.47741088 -0.48243281 0.12336506
2679 -125 328 -0.7073617 0.42937967 -0.56149131 0.22396898
2661 -116 371 -0.95914096 -0.00034924949 0.28292847 0.13479002
2617 1 318 -0.89857322 0.42991528 -0.087971732 0.13185629
2619 47 494 -0.87719804 -0.26602364 0.39969367 0.20455889
2781 -185 434 -0.66837108 -0.58569264 -0.45852387 0.087577209
2631 19 320 -0.90567273 0.42115819 0.048812464 0.14993165
2663 -103 414 -0.82935965 -0.26059741 -0.49421808 0.20952754
2619 -111 451 -0.79526854 0.49639815 -0.34804714 0.16061096
2758 -194 477 -0.5528664 -0.42318019 -0.71781427 0.11009711
2746 -174 474 -0.60963798 -0.26261425 -0.74791402 0.12324783
2633 52 451 -0.97312874 -0.22741766 -0.036079906 0.1567796
2671 -61 372 -0.55161631 0.22168535 0.80409884 0.15709169
2608 -87 318 -0.88882732 -0.046882547 -0.45583773 0.19436546
2608 -51 318 -0.98573536 0.04737379 -0.16149816 0.15248418
2816 -200 395 -0.75118697 -0.44968727 -0.48321787 0.2718237
2776 197 430 -0.6756677 0.67697191 -0.29185978 0.18860361
2628 323 322 -0.86576372 -0.46973428 0.17263502 0.090112865
2669 273 326 -0.68718117 -0.67690599 -0.26378074 0.13103938
2717 112 330 -0.66446745 0.72428894 -0.18408847 0.18215708
2604 95 403 -0.97782314 0.087521009 -0.19026807 0.1176081
2693 93 327 -0.6954844 0.68564087 0.21493742 0.15890005
2637 306 323 -0.80926883 -0.55409724 0.19509029 0.090711139
2611 70 447 -0.99067718 -0.11894282 -0.066418149 0.15889107
2769 177 429 -0.64886552 0.65066898 -0.39446595 0.21427646
2710 240 330 -0.50821078 -0.58894396 -0.62838423 0.14188135
2603 88 446 -0.96366435 -0.16804081 -0.2076373 0.1517062
2713 345 380 -0.58653623 -0.17562331 0.79065269 0.093999274
2634 119 365 -0.59791833 0.50792807 -0.62008286 0.17189097
2671 74 324 -0.61248732 0.63231295 0.47438335 0.17735367
2729 131 332 -0.73127067 0.6381287 -0.24090466 0.20095624
2688 257 328 -0.54032731 -0.64488798 -0.54052371 0.15926348
2608 113 403 -0.95308656 0.048845887 -0.29873079 0.14554951
2655 55 323 -0.72775209 0.59066588 0.34855524 0.15497357
2652 289 324 -0.73213279 -0.64759123 0.21120384 0.096534573
2721 617 343 -0.90276062 0.15682496 0.40053621 0.097876377
2726 366 382 -0.6871537 -0.19905692 0.69871038 0.099155746
2603 445 322 -0.95007879 0.18000589 0.25484955 0.1222789
2612 374 322 -0.90834612 -0.15027168 0.39028922 0.10103834
2609 356 321 -0.9000237 -0.27093077 0.34139973 0.079189472
2742 461 432 -0.76767832 0.5646745 0.30300623 0.1103439
2602 427 322 -0.95002949 0.083288312 0.30084398 0.11683337
2618 339 321 -0.902888 -0.35795802 0.23803204 0.085336179
2716 418 426 -0.98013991 0.049738675 0.19196843 0.067769326
2706 400 380 -0.72905815 -0.075359114 0.68029052 0.076321557
2608 410 322 -0.90477866 0.081748076 0.4179627 0.11711888
2724 636 344 -0.88356537 0.26910698 0.38326699 0.077591345
2743 403 430 -0.8530221 -0.28492427 0.43723151 0.16760419
2779 645 399 -0.55678684 -0.087585367 0.82602489 0.12412672
2721 384 382 -0.8026247 -0.073292375 0.5919643 0.10033385
2609 392 322 -0.88781047 -0.0076464457 0.46014571 0.10919303
2724 598 342 -0.93952405 0.25679582 0.22660623 0.14064205
2730 440 429 -0.91350895 0.27870211 0.29635537 0.089277305
2379 758 477 -0.73371255 -0.23339917 -0.63811493 0.045312352
2367 790 477 -0.86116475 -0.12080739 -0.49376187 0.022852501
2377 863 438 -0.85950327 -0.12967187 -0.49440813 0.037123948
2374 774 477 -0.79339546 -0.17124456 -0.5841223 0.030369692
2372 845 481 -0.96410948 -0.076005712 -0.25439343 0.022972835
2369 862 482 -0.98442966 -0.0032612055 -0.17574908 0.018889019
2382 847 439 -0.80034292 -0.18666883 -0.56974202 0.033891298
2808 897 364 -0.68646526 0.54895455 0.47687972 0.044550862
2364 807 478 -0.89969027 -0.083127543 -0.42854065 0.025469966
2370 827 480 -0.92947298 -0.099864803 -0.35511547 0.027180839
2656 866 438 -0.68872833 -0.45932171 -0.56096065 0.26457474
2647 882 392 -0.75520831 -0.20308363 0.62323141 0.11838717
2389 813 438 -0.55736423 -0.30593073 -0.77184951 0.051299758
2388 831 439 -0.75154918 -0.20770372 -0.62612528 0.031497464
2379 991 445 -0.99189132 0.073322818 -0.10380434 0.030366411
2376 975 490 -0.99689758 0.071266197 -0.033412419 0.036704157
2376 881 439 -0.9035635 -0.093878932 -0.41804272 0.039230023
2378 973 401 -0.9429872 -0.071292475 -0.3251037 0.043912962
2379 958 489 -0.99609745 0.08190009 -0.032896869 0.022300914
2378 973 444 -0.99086201 0.087105349 -0.10298121 0.026284287
2391 906 400 -0.7296353 -0.22902763 -0.64434361 0.043044571
2383 993 402 -0.95854235 -0.061893724 -0.27814677 0.046438713
2380 937 443 -0.98743838 0.0070010535 -0.15784958 0.024458058
2385 939 401 -0.86905277 -0.12523095 -0.47860682 0.040670969
2378 918 442 -0.97056478 -0.054270379 -0.23464575 0.031633232
2398 890 401 -0.61340874 -0.26454034 -0.74414265 0.042243592
2376 954 443 -0.99148828 0.055346448 -0.11784695 0.018979453
2376 899 440 -0.93849146 -0.090065144 -0.33334967 0.04008868
2405 999 364 -0.65427458 -0.19683444 -0.73019248 0.077373132
2386 922 400 -0.82646108 -0.16872552 -0.53711611 0.036518645
2380 955 400 -0.90781498 -0.095812239 -0.40827924 0.042278044
2367 880 483 -0.9898771 0.0526563 -0.13179757 0.0164806
2369 899 484 -0.99026793 0.058815438 -0.12613513 0.016615642
2371 918 486 -0.9941628 0.033741873 -0.10247786 0.019840386
2373 937 487 -0.99734104 0.04034283 -0.060690917 0.019428868
2410 983 364 -0.5765323 -0.22916681 -0.78427869 0.073890716
2374 993 490 -0.99680132 0.060602453 -0.052100077 0.0579868
1284 819 296 -0.52125728 -0.41452789 0.74596083 0.024776252
1285 804 269 -0.77144724 -0.27292681 0.57478702 0.061309032
1082 872 141 -0.51070994 0.1004386 0.85386622 0.11583294
1186 920 254 -0.65169704 -0.38297057 0.65469414 0.027023626
1076 872 138 -0.5651117 0.072571397 0.82181644 0.12073012
1146 938 230 -0.60717487 -0.40227401 0.68521118 0.049610209
1191 917 257 -0.64254707 -0.40077451 0.65307969 0.031244723
1063 887 113 -0.58978373 0.20505849 0.78109294 0.12868525
1071 901 114 -0.62411368 0.20549196 0.75382698 0.15271622
1055 878 115 -0.60356879 0.15836722 0.7814247 0.13281797
1052 874 117 -0.62169671 0.066930056 0.78039318 0.12423235
1068 879 127 -0.58365804 0.12513378 0.80229968 0.12374739
1064 879 124 -0.63591373 0.099011078 0.76538253 0.131529
1075 875 135 -0.58974534 0.068836011 0.80465025 0.12264255
1062 894 116 -0.60970587 0.17854385 0.77225697 0.15582524
1070 878 130 -0.58380926 0.12608123 0.80204129 0.11517624
1056 875 120 -0.61679751 0.083054945 0.78272778 0.12824564
1049 883 121 -0.6317457 0.0060943924 0.77515173 0.1529568
1058 891 125 -0.63042367 0.084523298 0.77163577 0.16738524
1073 877 133 -0.58399433 0.106084 0.80479616 0.11839924
1047 882 118 -0.61134577 0.066337444 0.78857821 0.14910626
1079 893 133 -0.59332722 0.12811163 0.79470134 0.13243066
1057 870 128 -0.65808964 0.011395345 0.75285327 0.14050975
1052 852 118 -0.63500834 -0.053149275 0.77067482 0.12623286
1063 851 114 -0.61330914 -0.067469902 0.78695601 0.11510382
1058 883 119 -0.61065775 0.1495726 0.77764076 0.14057811
1059 868 125 -0.65134734 0.0072653564 0.75874496 0.13426355
2443 -2398 -369 -0.92047542 -0.37982896 -0.091950737 0.077605084
2506 -2424 -572 -0.83175021 -0.54873472 0.084153272 0.11576129
2358 -2106 -481 -0.72792786 0.31027263 0.61143428 0.080545492
2371 -2137 -598 -0.66630459 0.43993798 -0.60207373 0.10360381
2524 -2035 -570 -0.93566942 -0.24150077 0.25729394 0.075856477
2484 -2057 -506 -0.61179155 0.31228215 0.72676742 0.11173908
2479 -2094 -563 -0.86201024 -0.33465621 -0.3807146 0.035823889
2374 -2089 -485 -0.65744925 0.46648556 0.5917362 0.092636295
2519 -2084 -453 -0.7708745 -0.63694227 0.0075536803 0.13286003
2353 -2080 -536 -0.98897922 0.12823278 0.074002661 0.098260179
2499 -2101 -509 -0.59364468 0.23615113 0.76929754 0.13489103
2347 -2107 -536 -0.97211283 0.21825349 -0.085802034 0.080076277
2400 -2204 184 -0.96492183 0.23747399 0.11194676 0.17254315
2395 -2230 181 -0.83952999 -0.52928352 -0.12267193 0.18266973
2413 -2214 241 -0.61262077 0.42286772 0.66774148 0.1669971
2407 -2185 130 -0.78708857 -0.32480091 -0.52440053 0.16224378
2449 -2410 -56 -0.97857749 0.029816534 -0.20370831 0.038034
2449 -2376 -51 -0.98953962 0.025013864 -0.14207619 0.038924031
2409 -2242 238 -0.62664026 0.32890996 0.70649856 0.15915717
2402 -2211 127 -0.80971169 -0.25359714 -0.52920258 0.12091377
2412 -2251 124 -0.75629115 -0.180143 -0.62894517 0.16597578
2468 -2388 8 -0.90788603 -0.10157421 0.40672562 0.058609989
2494 -2366 68 -0.78021526 -0.077233814 0.62072462 0.096405476
2590 -2309 -26 -0.94812846 -0.28281561 -0.14514686 0.12905559
2338 -2269 223 -0.89742786 0.42332557 0.12417222 0.14613746
2339 -2302 220 -0.95412433 -0.24043825 -0.17842726 0.13253592
2396 -2262 234 -0.61500239 0.33866611 0.71209353 0.13218825
2526 -1874 111 -0.92067945 0.070890158 0.38382807 0.091902547
2531 -1805 65 -0.51734483 0.85012966 -0.098153107 0.11698219
2764 -1960 125 -0.60648125 -0.76791233 -0.20613368 0.16500208
2521 -1899 110 -0.91671664 -0.2112276 0.33913633 0.067123041
2591 -1917 167 -0.50021338 -0.61544639 -0.60910779 0.20748509
2544 -1855 165 -0.99101019 -0.12169378 0.055581674 0.13516328
2538 -1816 219 -0.91011834 0.33468747 0.2442721 0.070906088
2508 -1844 62 -0.89893657 0.40090793 -0.17659535 0.10237531
2535 -1842 218 -0.97425342 -0.032225467 0.22314067 0.097115293
2519 -1825 64 -0.70760095 0.69043297 -0.15034367 0.10622269
2460 -1411 209 -0.8869012 0.4254441 0.18001017 0.068039492
2470 -1412 257 -0.52166653 0.57232487 0.63269919 0.067531221
2549 -1797 220 -0.83066493 0.45116544 0.32625982 0.072910376
2454 -1427 257 -0.69166309 0.5268389 0.49400708 0.10142778
2452 -1430 209 -0.95977175 0.25442228 0.11877476 0.069974825
2560 -1777 221 -0.62708414 0.74578738 0.22487028 0.081104659
2432 -1448 160 -0.9501062 -0.14612848 0.2755807 0.084680498
2468 -1561 20 -0.6283071 -0.48378563 -0.60924679 0.20994228
2562 -1421 217 -0.63888979 0.76910084 -0.017426033 0.21123028
2447 -1387 160 -0.76691514 0.63074517 0.11832876 0.10975377
2481 -1595 19 -0.57286263 0.10547101 -0.81283718 0.20880468
2433 -1441 208 -0.98429024 0.14201058 0.10490766 0.084402844
2439 -1405 160 -0.85506284 0.41879225 0.30574611 0.083238415
2431 -1424 159 -0.9215641 0.18141535 0.34323192 0.076324813
2627 -1143 21 -0.53953463 0.67487603 -0.50343299 0.069104679
2569 -1401 216 -0.94821376 0.28543991 0.1393366 0.15480718
2575 -1400 265 -0.66162032 0.74732065 0.061402697 0.1082399
2603 -1192 70 -0.91894644 -0.26780829 0.28951022 0.1264005
2603 -1176 22 -0.85983443 0.19133173 -0.47336757 0.09110035
2607 -1156 21 -0.72302037 0.39419302 -0.56732118 0.09102045
2585 -1162 69 -0.9632417 0.1773856 0.2017419 0.10235016
2582 -1380 265 -0.80231202 0.54792905 0.236789 0.10189281
2682 -1071 208 -0.76841664 -0.38440496 0.51163334 0.14117308
2659 -1051 18 -0.87407261 -0.018593416 -0.48543933 0.1095163
2650 -1045 156 -0.86568063 0.26090249 0.42723176 0.11089206
2523 -941 236 -0.88956958 -0.26785424 0.37002715 0.13119373
2649 -1020 65 -0.90932804 0.38706318 -0.15265816 0.09148138
2669 -1034 18 -0.84674454 0.12360556 -0.51744127 0.11310512
2522 -960 237 -0.91948044 -0.31343287 0.2373091 0.10935493
2653 -1025 155 -0.79579026 0.4772062 0.37281641 0.12507729
2674 -1015 17 -0.80857682 0.28781429 -0.51319224 0.11409346
2645 -1039 66 -0.95937121 0.24109951 -0.14655365 0.092310004
2637 -1046 110 -0.95334727 0.30142969 -0.016406152 0.11018536
2647 -1029 110 -0.90430784 0.42472124 0.042885702 0.10348146
2657 -1039 204 -0.70477146 -0.67941684 0.20418118 0.22262928
2553 -678 91 -0.66118866 0.72978115 0.1739223 0.17066735
2508 -702 51 -0.7098453 0.21322586 0.67130792 0.088986278
2590 -605 175 -0.51085144 0.4431766 -0.7366311 0.10201803
2558 -708 93 -0.77839434 -0.59818375 0.19046937 0.19667807
2518 -691 50 -0.62703568 0.58517933 0.51418996 0.097777419
2538 -616 216 -0.56472528 0.12084501 -0.81638336 0.15996365
2609 -567 174 -0.81317991 -0.5758512 -0.084462129 0.20891501
2553 -634 218 -0.69623125 0.28286123 -0.65973604 0.21359101
2575 -630 176 -0.58779448 0.36191863 -0.72354174 0.11252949
2617 -598 177 -0.5648886 0.53862202 -0.62512976 0.20404656
2540 -603 215 -0.57658261 -0.008294058 -0.81699669 0.14954007
2629 -607 132 -0.57451487 0.18232101 -0.79792964 0.14661862
2529 -686 91 -0.90194994 0.39788589 0.16784842 0.16900606
2579 -617 176 -0.53957826 0.41965744 -0.72989237 0.089156479
2535 -681 50 -0.54059869 0.74267441 0.395206 0.12151316
2470 -709 8 -0.60349864 -0.38110891 0.70038944 0.11854711
2603 -651 179 -0.55057615 0.19549464 -0.81157112 0.20311773
2613 -589 131 -0.72299773 0.10805591 -0.68234754 0.18986496
2625 -585 176 -0.9809196 -0.19403073 0.01220076 0.26020619
2889 -580 94 -0.5459159 0.27220798 -0.79238784 0.1531672
2592 -411 -3 -0.75926423 -0.0030581616 0.65077525 0.11105634
2530 -504 209 -0.80045652 -0.5529812 -0.23125988 0.11273159
2562 -515 169 -0.74681044 -0.62513316 -0.22689773 0.14013878
2532 -490 208 -0.78363305 -0.57393783 -0.23772779 0.13701358
2591 -549 173 -0.71684581 -0.66287303 -0.21617422 0.12222891
2623 -430 -3 -0.69349897 -0.007116165 0.72042251 0.16254278
2552 -522 211 -0.75925916 -0.57367551 -0.30728149 0.15386091
2586 -397 -4 -0.78272378 0.044227574 0.62079573 0.10275156
2571 -531 170 -0.7323063 -0.64300394 -0.22421733 0.13467731
2586 -506 170 -0.62221575 -0.77545965 0.10728401 0.2091396
2578 -382 -4 -0.79518402 0.076637924 0.60150558 0.11068993
2681 -204 163 -0.98388422 -0.11362099 0.1380661 0.088476852
2717 -291 79 -0.64333427 0.24081378 -0.72672528 0.097801574
2688 -254 120 -0.70557427 0.24550644 -0.66474921 0.094459526
2670 -266 120 -0.73346001 0.18213212 -0.65487736 0.10237186
2630 -254 162 -0.90897244 -0.098525651 -0.40504527 0.16152994
2692 -170 207 -0.87088943 0.33009249 0.36412975 0.11589275
2691 -199 119 -0.90558326 0.21666583 -0.36465728 0.12498863
2615 -245 203 -0.88181436 0.45708278 -0.11609849 0.14036039
2620 -286 205 -0.90489167 0.3558495 -0.23354267 0.17061576
2694 -213 119 -0.93584716 0.0062703798 -0.35235044 0.12786545
2692 -156 206 -0.83241445 0.46083784 0.30775738 0.11966317
2686 -183 207 -0.92264992 0.19343951 0.33361384 0.11869875
2675 -294 121 -0.77751553 0.029334402 -0.62817925 0.11081816
2618 -259 204 -0.95766997 0.26433137 -0.11400466 0.15308632
2707 -164 164 -0.51924217 0.8076458 -0.27945638 0.16109663
2641 -295 164 -0.88352895 -0.087160863 -0.46019518 0.13726927
2722 -236 78 -0.75242841 0.010009318 -0.65859801 0.078954451
2620 -273 205 -0.94512099 0.27598017 -0.17487507 0.15064724
2672 -307 121 -0.80801862 0.036690678 -0.58801329 0.13122433
2692 -186 118 -0.82879436 0.37939391 -0.41129085 0.13340981
2675 -280 120 -0.75487435 0.11834697 -0.64510357 0.11472354
2637 -268 163 -0.90360433 -0.13037863 -0.40804484 0.142747
2690 -227 119 -0.82871622 0.21526285 -0.51661527 0.11324512
2725 -209 77 -0.52925414 0.3691783 -0.76393545 0.12393988
2642 -282 164 -0.89484489 -0.095003955 -0.43615013 0.13855171
2690 -191 163 -0.99363303 -0.024330702 0.11000634 0.09870068
2727 -250 78 -0.73597151 0.023969537 -0.67658812 0.10277344
2733 -288 37 -0.55392122 0.53673446 -0.63646477 0.12226028
2702 -303 79 -0.59279382 0.5714106 -0.56752568 0.13725618
2716 -277 79 -0.66190022 0.20854491 -0.71999812 0.073066242
2713 -221 77 -0.74600804 0.0087582143 -0.66587931 0.073262192
2681 -176 162 -0.99199885 0.069807649 0.1051907 0.093118109
2763 -79 119 -0.92329484 -0.34344688 0.17196175 0.14482152
2745 36 73 -0.71194613 0.67053103 -0.2086162 0.06592638
2731 -51 117 -0.85292614 -0.34734324 0.38970461 0.11189059
2740 -24 117 -0.93489254 -0.12604327 0.3317968 0.13910609
2736 3 117 -0.93554199 0.024811421 -0.35234311 0.16406603
2726 89 205 -0.83554882 0.53556371 0.12259581 0.14376092
2703 12 160 -0.94716972 -0.30978617 -0.083078593 0.20434362
2761 -65 119 -0.886024 -0.4340539 0.16296859 0.14773697
2705 39 160 -0.99717683 0.071549192 -0.022785136 0.15232307
2713 26 161 -0.96140641 -0.24490146 0.12538338 0.14415146
2805 40 32 -0.52581596 0.71614695 -0.45896754 0.12136704
2710 61 204 -0.92215359 0.27200717 0.2750361 0.12803249
2820 27 32 -0.59513736 0.16238049 -0.78704768 0.1665137
2741 -10 117 -0.99972039 -0.0067411442 0.022665039 0.17228298
2748 23 74 -0.75613993 0.62207329 -0.20316805 0.083181612
2763 -93 119 -0.94183904 -0.26251832 0.20981751 0.13833731
2719 75 205 -0.88007563 0.45714793 0.12838437 0.14313786
2739 -37 117 -0.87193841 -0.25851163 0.41580671 0.12202419
2775 -108 120 -0.90527517 -0.17563044 0.38682154 0.1635334
2850 174 -15 -0.76455843 -0.42542475 -0.48421493 0.16543105
2883 148 -16 -0.96643704 -0.14684704 -0.21079712 0.18577956
2841 202 -15 -0.71654803 -0.6969437 0.028782357 0.1127294
2856 189 -16 -0.75132495 -0.65441257 -0.085177064 0.13735443
2877 162 -16 -0.82018948 -0.48399302 -0.3050245 0.21613616
2752 104 207 -0.62698829 0.75971031 -0.17241201 0.13218564
2858 301 -16 -0.54979998 0.48514944 0.67996323 0.205579
2850 329 -16 -0.66231066 0.094671763 0.74322391 0.17682038
2861 542 219 -0.75202 0.48645982 -0.44477266 0.1449382
2860 527 219 -0.94898027 0.14367491 -0.28070247 0.15466689
2862 387 -16 -0.54240662 0.31650642 0.77821505 0.09359277
2790 463 120 -0.70401227 -0.36971942 0.60636163 0.18241881
2806 428 75 -0.87696022 -0.4676857 -0.11050279 0.15595573
2854 515 171 -0.63813174 -0.63369805 0.43728095 0.14992683
2853 343 -16 -0.64868158 0.038747594 0.76007289 0.13546051
2849 357 -16 -0.68622661 0.034921665 0.72654915 0.098138303
2876 504 172 -0.81162161 -0.55598164 0.17931777 0.13578966
2849 371 -16 -0.65575516 0.14094064 0.7417013 0.082515776
2791 491 120 -0.82455975 0.015349205 0.56556672 0.14977135
2791 477 120 -0.83762485 -0.15774189 0.52297425 0.16072495
2861 530 172 -0.709189 -0.64604127 0.28227925 0.14638376
2826 402 75 -0.53436971 -0.68969023 -0.4886474 0.13433927
2817 415 75 -0.7275877 -0.67559242 -0.11912601 0.16225012
2839 345 -292 -0.94057685 -0.081802607 -0.3295809 0.16655989
2857 431 -202 -0.54354346 0.77776766 -0.31565502 0.14486313
2757 540 -295 -0.53710335 0.58079231 -0.61171913 0.13357636
2839 385 -245 -0.98871994 0.14963183 0.0065628211 0.11132875
2771 537 -202 -0.97037423 0.21643348 0.10737961 0.10989049
2774 521 -201 -0.98375118 0.17937006 0.007745998 0.10905675
2808 508 -344 -0.7180016 -0.032911506 -0.69526285 0.067138493
2892 415 -348 -0.93622291 -0.30766046 -0.16979857 0.13964492
2806 462 -295 -0.82531333 -0.54501736 -0.14769568 0.091157928
2778 479 -245 -0.87748224 -0.072478384 -0.47410098 0.11143176
2758 545 -247 -0.99366897 -0.096907422 0.056841694 0.12361193
2821 457 -342 -0.6402899 -0.61735421 -0.45705873 0.043370597
2837 442 -343 -0.51420671 -0.7611959 -0.39518642 0.033829175
2779 496 -246 -0.83853227 0.11304731 -0.5329951 0.10974576
2804 445 -293 -0.79145628 -0.60513735 -0.086056069 0.1087333
2828 400 -245 -0.91084671 0.38678479 -0.14406838 0.10960637
2763 368 -424 -0.5304327 0.70371139 0.47268534 0.096635759
2817 474 -343 -0.72513467 -0.47947535 -0.49425009 0.048961181
2887 432 -348 -0.67797756 -0.72111934 -0.14259467 0.092375167
2775 504 -200 -0.98382485 0.14219849 -0.10894136 0.13879098
2808 490 -343 -0.77604681 -0.26386434 -0.57282358 0.053873543
2677 229 -271 -0.97921133 -0.14613466 0.14067641 0.075886093
2839 157 -285 -0.9200058 -0.31453153 -0.23379302 0.13953826
2673 244 -271 -0.99386382 -0.080605857 0.075745188 0.090867683
2666 187 -312 -0.97470504 0.22342052 0.0057846457 0.078568876
2674 252 -315 -0.96696019 0.039485816 -0.25185087 0.071808219
2705 280 -276 -0.8114084 0.49804884 0.30588201 0.13985363
2689 234 -227 -0.84162402 -0.16296498 0.51488978 0.10545541
2684 197 -270 -0.96165276 -0.049812458 0.26970845 0.10482187
2664 142 -399 -0.98858351 0.072501406 -0.132084 0.082451001
2845 329 -291 -0.92375302 -0.16565338 -0.34531045 0.1782763
2691 303 -319 -0.87716407 0.31897318 -0.35894179 0.086116835
2700 321 -321 -0.80886596 0.43836573 -0.3918817 0.089427128
2877 276 -435 -0.87989914 0.45403033 0.14012106 0.086714044
2730 319 -368 -0.64175814 0.62117988 -0.44975773 0.082744494
2657 93 -396 -0.94774574 0.0086100865 -0.31891048 0.07545092
2660 155 -310 -0.96723449 0.24553588 -0.064572625 0.094029769
2649 116 -350 -0.79508722 -0.26174897 0.54710495 0.20476912
2745 94 -318 -0.60294974 -0.26771381 0.75151908 0.1278421
2677 204 -314 -0.98717439 0.15853713 0.018782958 0.084406428
2696 203 -226 -0.71129602 -0.48785877 0.50601554 0.1047555
2840 131 -330 -0.64300895 -0.60232264 -0.47301888 0.16617762
2674 166 -355 -0.9928174 0.11496238 0.033126339 0.094977222
2709 300 -365 -0.75296783 0.31487173 -0.57783675 0.1070668
2886 295 -438 -0.86853063 0.49544436 0.013759637 0.11208183
2693 183 -358 -0.96615511 0.2555038 0.035527419 0.14461172
2676 212 -270 -0.9722116 -0.12500757 0.19793341 0.089527234
2822 147 -328 -0.72841781 -0.39238879 0.56163913 0.23385657
2693 287 -319 -0.90640765 0.23014566 -0.35420072 0.087517515
2670 171 -312 -0.97365397 0.22801353 -0.0027954115 0.080648847
2672 260 -272 -0.99861306 0.028401047 0.044332061 0.10652031
2730 254 -231 -0.55606055 0.31929877 0.76736236 0.23087621
2666 133 -352 -0.96172291 -0.14631858 0.2316893 0.16573597
2679 180 -269 -0.94348931 0.029879969 0.33005303 0.12225062
2691 219 -226 -0.83286029 -0.30088228 0.46455747 0.10560416
2677 126 -400 -0.99571896 0.0039148098 -0.092349432 0.078589924
2669 110 -398 -0.98404604 -0.014652973 -0.17730965 0.095522188
2846 141 -285 -0.86503583 -0.3310836 -0.37695715 0.12066498
2808 72 -186 -0.76527643 0.32318792 -0.55668801 0.14400241
2676 150 -354 -0.98563135 -0.090189151 0.14281762 0.1450747
2665 77 -397 -0.93004245 0.020335594 -0.366889 0.083191216
2683 270 -317 -0.93860412 0.097215325 -0.33101588 0.092092901
2673 -41 -264 -0.92968553 -0.1988754 0.31005397 0.091882981
2659 6 -263 -0.97090185 0.098097764 0.21846399 0.084187172
2808 56 -186 -0.85495371 0.01457518 -0.51849943 0.14400358
2659 12 -306 -0.98596615 0.16676481 -0.007762529 0.081707045
2687 -3 -221 -0.81031144 0.11141299 0.57531077 0.064403862
2663 -3 -307 -0.98467332 0.17301677 -0.021989083 0.069994725
2696 -50 -221 -0.7600227 -0.38953418 0.52021974 0.097591199
2693 -35 -221 -0.83019364 -0.18306942 0.52655882 0.068704896
2676 -26 -351 -0.96812207 -0.078737818 -0.23778154 0.080736145
2881 -71 -331 -0.66971242 -0.74125987 0.044934198 0.13892947
2653 -34 -305 -0.99090767 0.13329463 -0.018292891 0.093195163
2665 -9 -264 -0.96887004 0.027734164 0.24601136 0.074034758
2663 -19 -307 -0.99864399 0.037175592 -0.036443997 0.076791488
2696 -19 -221 -0.80616355 0.0063010249 0.59165925 0.070623145
2685 -18 -398 -0.86576426 -0.075765744 -0.49468344 0.059369989
2668 5 -350 -0.96940714 0.15360698 -0.19145411 0.075898126
2706 -35 -401 -0.86041123 -0.31431222 -0.40112382 0.075733587
2670 61 -398 -0.9465456 -0.017786345 -0.32207915 0.093593061
2669 -25 -264 -0.95197511 -0.12795319 0.2781572 0.081480525
2689 -2 -399 -0.87088764 0.026829535 -0.49074942 0.071413666
2861 -61 -374 -0.64511997 -0.76370579 -0.023951869 0.099591918
2679 -10 -351 -0.97248936 0.016558213 -0.23235816 0.083681762
2605 -307 -214 -0.67482233 -0.22904654 -0.70153576 0.089154989
2591 -264 -170 -0.62367308 0.49248382 -0.6070351 0.14239933
2685 -341 -266 -0.56759465 -0.82301265 -0.022055 0.15978584
2584 -279 -169 -0.91686988 -0.065073602 -0.39384651 0.12964095
2625 -294 -215 -0.61444384 0.059208747 -0.78673571 0.12924826
2670 -280 -350 -0.50347728 -0.050254192 0.86254573 0.040350009
2677 -363 -220 -0.60404617 -0.57874572 -0.54788834 0.11661272
2654 -344 -218 -0.58607757 -0.54974532 -0.59522527 0.12212642
2680 -360 -353 -0.75411975 0.65514988 0.045629438 0.16542041
2604 -205 -386 -0.96942997 -0.17567645 0.17129904 0.098615453
2633 -270 -391 -0.80233091 -0.094642743 0.58932829 0.051475707
2628 -285 -391 -0.7954827 -0.048554797 0.60402799 0.05947455
2665 -374 -351 -0.59449816 0.80190212 0.059369955 0.10530294
2606 -419 -303 -0.55182511 0.74744916 0.36987662 0.092945285
2599 -412 -344 -0.52997726 0.7198357 0.44828629 0.14127047
2698 -347 -355 -0.80640703 0.25170147 0.53512073 0.19178139
2682 -379 -221 -0.5349822 -0.46575591 -0.70488685 0.071728066
2540 -398 -380 -0.79632527 0.39904335 0.45456621 0.083128154
2586 -309 -170 -0.90743315 -0.39568892 -0.14140476 0.13856998
2647 -328 -217 -0.64201736 -0.52995539 -0.55404061 0.11423604
2546 -414 -382 -0.82053411 0.29636827 0.48876327 0.075841077
2608 -388 -172 -0.75289708 0.27640882 -0.59728062 0.11815809
2611 -221 -387 -0.92385525 -0.27696875 0.26415855 0.071600057
2622 -374 -173 -0.72185022 0.37573627 -0.58116651 0.1188114
2625 -301 -390 -0.74334335 0.026685039 0.66837746 0.075331159
2689 -314 -353 -0.51714778 -0.086354867 0.85152864 0.090381913
2628 -254 -390 -0.8161658 -0.1397026 0.56067514 0.058311749
2621 -237 -389 -0.86140561 -0.23673247 0.4493753 0.068511367
2622 -359 -173 -0.71447653 0.2989082 -0.63259554 0.11726634
2582 -424 -342 -0.66901177 0.54989451 0.50003928 0.15419002
2744 -664 -231 -0.84012371 -0.45600936 0.29367959 0.10136747
2753 -512 -276 -0.65437913 0.46488461 0.59638101 0.14300439
2656 -677 -359 -0.93999654 -0.26545289 -0.21433915 0.1001162
2649 -643 -357 -0.99802321 -0.043545969 -0.045315508 0.090210065
2642 -609 -355 -0.98242271 0.18588454 0.017104579 0.099365696
2748 -649 -231 -0.79793429 -0.32750857 0.50600302 0.13410269
2728 -572 -275 -0.98100477 0.17087263 0.091826133 0.10843138
2745 -527 -276 -0.83241022 0.41491064 0.36734518 0.12099008
2677 -699 -362 -0.53898454 -0.83799314 -0.085224055 0.18429227
2571 -469 -342 -0.58616328 0.46125394 -0.66607624 0.17949905
2651 -660 -357 -0.9835332 -0.1331232 -0.12223217 0.09441141
2656 -597 -356 -0.96335489 0.26110053 -0.061430991 0.11860368
2744 -543 -276 -0.92883545 0.31828502 0.18962936 0.12863591
2626 -463 -348 -0.58638811 -0.20841768 0.78275871 0.2234398
2685 -571 -359 -0.661439 0.37468383 -0.64970028 0.17818348
2576 -466 -388 -0.60638219 -0.63137406 0.48339155 0.12355676
2534 -443 -381 -0.85683668 0.025661116 0.51494896 0.072608478
2575 -445 -300 -0.68455601 0.56872147 0.45600319 0.15287006
2636 -679 -268 -0.72615469 0.59813023 -0.33902735 0.13191096
2593 -484 -390 -0.66247535 -0.66661549 0.34168717 0.23410016
2743 -631 -230 -0.85975981 -0.18692404 0.47526041 0.12497841
2672 -542 -313 -0.85825062 0.28006953 0.43007782 0.10820305
2731 -612 -229 -0.9438923 -0.10154457 0.31425485 0.11066306
2684 -528 -314 -0.62370914 0.046107184 0.78029549 0.13399057
2543 -429 -382 -0.83024168 0.12280356 0.54370773 0.072859377
2589 -432 -301 -0.61829644 0.73297411 0.28365204 0.11226247
2736 -558 -275 -0.92738944 0.23432724 0.29161546 0.11485565
2650 -627 -356 -0.99716938 0.063193679 0.040741134 0.11011911
2673 -584 -358 -0.89162093 0.39202765 -0.22655348 0.17543711
2761 -685 -232 -0.78708917 -0.61440098 -0.054790135 0.15047976
2612 -927 -315 -0.73411423 0.12957457 -0.66654837 0.13815895
2624 -825 -178 -0.70883566 0.69915015 0.093493812 0.099092044
2649 -800 -225 -0.56718886 0.81398827 0.12537922 0.093249746
2624 -755 -269 -0.66829842 -0.068270326 0.74075395 0.081420183
2580 -725 -307 -0.75344449 0.20715204 0.62402678 0.080701932
2573 -719 -349 -0.89942437 0.10919304 0.423217 0.10080867
2620 -861 -359 -0.67005301 -0.68648785 -0.28242409 0.069437377
2608 -862 -269 -0.89653945 0.13588619 0.42160642 0.12219758
2612 -848 -269 -0.81275469 0.04903708 0.58053875 0.14238033
2669 -791 -181 -0.57385379 0.75412089 -0.31936401 0.17332959
2567 -733 -349 -0.91771346 -0.0090302285 0.39714032 0.099138476
2599 -875 -268 -0.91712534 0.22058855 0.33199668 0.097037353
2624 -692 -267 -0.7738989 0.5619992 -0.2919547 0.13954611
2591 -713 -308 -0.68917936 0.35966077 0.6290279 0.094193511
2546 -709 -392 -0.98713326 0.024613023 0.15799437 0.067979775
2544 -693 -391 -0.97762227 0.13112897 0.16449925 0.065554462
2612 -884 -223 -0.97183329 -0.18590508 0.14484231 0.10406136
2610 -868 -222 -0.99872106 0.0024921822 -0.050497785 0.079004228
2580 -836 -310 -0.90184963 -0.32814389 0.28104928 0.14279126
2623 -824 -223 -0.75049967 0.65463126 -0.090599447 0.080945194
2584 -918 -267 -0.96219355 0.26795438 0.048827294 0.091354407
2622 -739 -268 -0.7308082 -0.34041357 0.59164011 0.11408235
2619 -860 -407 -0.62515056 -0.6853618 -0.37345162 0.06208143
2643 -809 -271 -0.52372026 0.42043146 0.74091464 0.17451744
2569 -702 -348 -0.86096269 0.2279063 0.45475489 0.081591502
2583 -690 -350 -0.80233437 0.32874712 0.49818146 0.12127811
2628 -725 -269 -0.78688043 -0.19949314 0.58397055 0.15066978
2565 -737 -306 -0.76666802 0.16499448 0.62048131 0.090167157
2616 -706 -267 -0.89443761 0.42449996 -0.14064561 0.19126248
2632 -811 -224 -0.5992943 0.8002187 0.022280252 0.089272037
2608 -835 -222 -0.89333844 0.42400241 -0.14889045 0.075378582
2576 -819 -309 -0.95633984 0.034605611 0.29020098 0.16118054
2606 -830 -268 -0.71332175 0.16973993 0.67997092 0.13168032
2639 -814 -179 -0.57797354 0.81440854 -0.051819794 0.11652995
2645 -911 -225 -0.62854427 -0.73137426 0.26462021 0.070881888
2601 -849 -221 -0.9734624 0.17063935 -0.15248966 0.06603618
2597 -906 -268 -0.9306733 0.33419359 0.14886838 0.083040491
2568 -731 -174 -0.5262931 -0.58776432 -0.61444998 0.056409333
2617 -839 -178 -0.83679444 0.45062256 0.3109895 0.122705
2602 -875 -313 -0.94099051 -0.33842453 -0.0023731566 0.13934226
2580 -852 -310 -0.91239369 -0.3927522 0.11525356 0.10804824
2623 -819 -270 -0.65059978 0.2615177 0.71297157 0.14067733
2628 -880 -361 -0.6048817 -0.75076413 -0.26546445 0.061467838
2607 -894 -269 -0.90165311 0.4018721 0.15975116 0.0881292
2712 -770 -230 -0.61136073 0.65535539 -0.44356221 0.2382953
2533 -721 -390 -0.98282737 -0.02891341 0.18224825 0.06479191
2612 -853 -177 -0.91044343 0.080602653 0.40570423 0.12647684
2622 -1022 -176 -0.98927379 0.073912613 -0.12599291 0.1007174
2634 -991 -178 -0.94444215 0.32684606 -0.034650438 0.14636172
2579 -932 -266 -0.97945654 0.18513283 -0.079940923 0.10087679
2641 -975 -225 -0.84188837 -0.095924884 -0.53105783 0.15277556
2628 -987 -224 -0.90272826 0.047135081 -0.42762133 0.12919717
2594 -952 -313 -0.90468854 -0.23165716 -0.35759428 0.089637369
2596 -937 -313 -0.92702353 -0.089109726 -0.36426207 0.095859811
2635 -1009 -178 -0.90163517 0.41622016 0.1175366 0.17619067
2654 -1015 -226 -0.63134164 -0.47542945 -0.61267817 0.15534145
2619 -1039 -176 -0.99072397 -0.053908791 -0.12473913 0.088519402
2770 -1531 -424 -0.70383841 0.54319078 0.45777214 0.12773576
2766 -1547 -422 -0.77301586 0.55433482 0.30847919 0.12488821
2710 -1514 -151 -0.76095265 0.36061323 -0.53935993 0.12838793
2711 -1532 -149 -0.83236259 -0.0322465 -0.55329251 0.13952653
2764 -1564 -420 -0.82077712 0.23445903 0.52091634 0.12818548
2434 -1586 -136 -0.97554213 -0.097420745 -0.19704524 0.12066329
2489 -1663 -278 -0.51475847 -0.57061076 0.63986492 0.081659012
2436 -1563 -144 -0.9323011 0.09259291 -0.34963018 0.12672757
2572 -1672 -356 -0.96734887 -0.027909363 0.25190744 0.058088142
2497 -1657 -283 -0.51174366 -0.52800101 0.67774141 0.081033424
2438 -1575 -92 -0.70664895 -0.41274205 0.57470977 0.1310046
2436 -1561 -95 -0.82196194 -0.26235095 0.50552011 0.1404217
2602 -1664 -367 -0.90925264 -0.31679359 0.27000254 0.10301429
2638 -1651 -272 -0.69037098 0.20170818 0.69476736 0.13579246
2468 -1607 -189 -0.57788873 -0.63836014 -0.50846916 0.21458799
2433 -1573 -140 -0.9534201 0.056952715 -0.29622018 0.12436232
2679 -1530 -144 -0.73901421 0.48011795 -0.47259369 0.17897092
2641 -1638 -275 -0.62613815 -0.25514579 0.73678464 0.070286699
2599 -1642 -315 -0.86259544 0.076006785 0.50015211 0.064352334
2428 -1594 -132 -0.96957499 -0.22115621 -0.10494895 0.11608909
2579 -1663 -361 -0.97220564 0.11278625 0.2051716 0.07216239
2602 -1659 -312 -0.83686465 -0.11268573 0.53568608 0.091292836
2460 -1670 -319 -0.6838305 -0.55937201 0.46848574 0.066456221
2789 -1893 -187 -0.60665566 0.46427223 -0.64530629 0.21969596
2462 -1683 -316 -0.71876138 -0.5159604 0.46601185 0.06087596
2472 -1646 -178 -0.7324959 -0.67570817 -0.082874686 0.14985408
