# .PCD v0.7 - Point Cloud Data file format
VERSION 0.7
FIELDS x y z normal_x normal_y normal_z curvature
SIZE 4 4 4 4 4 4 4
TYPE F F F F F F F
COUNT 1 1 1 1 1 1 1
WIDTH 615
HEIGHT 1
VIEWPOINT 0 0 0 1 0 0 0
POINTS 615
DATA ascii
2556.6455 -398.59396 -372.15515 0.75750375 -0.042264711 -0.65146124 0.117989
2534.8599 -428.94565 -406.30743 0.92846948 -0.30827281 -0.20715277 0.071160235
2561.5796 -419.13367 -366.53067 0.72714508 -0.16766553 -0.66569382 0.087657526
2544.8115 -470.55865 -450.92197 0.82775694 0.41820979 0.37405759 0.054849282
2531.4119 -459.60614 -405.87805 0.98771369 0.13222584 -0.083294317 0.12315661
2552.4763 -435.6925 -371.67752 0.77603668 -0.15495691 -0.61135542 0.10204758
2569.6399 -499.23264 -460.01636 0.8393684 0.54222608 0.038100075 0.095505036
2531.0305 -444.27209 -406.48645 0.98150337 -0.12447883 -0.14545162 0.0785634
2540.231 -412.79153 -405.96063 0.90765959 -0.37281138 -0.19278416 0.091882601
2534.2161 -434.30035 -447.0976 0.98405921 0.061385047 0.16691114 0.060176991
2539.7297 -455.28278 -451.87573 0.89850682 0.23608695 0.37006551 0.048610359
2629.1711 -404.50461 -322.16095 0.31665313 -0.94754279 -0.043514121 0.10414344
2569.5305 -403.21439 -361.73535 -0.65861517 0.092259444 0.74680269 0.10326896
2570.3655 -442.50095 -316.44321 0.68624502 -0.7035597 -0.18458471 0.1027042
2571.7283 -418.6347 -358.25516 -0.634247 0.10199365 0.76637328 0.095956713
2557.6367 -432.7106 -365.19684 0.74684012 -0.23439084 -0.62232685 0.099309325
2600.4414 -417.50256 -319.35983 0.51897562 -0.82982486 -0.20507319 0.075964101
2582.313 -431.57068 -318.32315 0.67843771 -0.7023344 -0.21551965 0.071713127
2555.0061 -453.03775 -313.47989 0.54554749 -0.82605898 0.14143741 0.081815399
2558.3306 -404.49228 -372.19705 0.78362733 -0.072369479 -0.61700147 0.1038803
2567.4995 -445.60837 -329.97766 0.78708595 -0.61584121 -0.035146698 0.12565881
2533.1416 -429.94568 -410.4458 0.95143777 -0.27634817 -0.1356388 0.079572469
2594.509 -417.23553 -332.79349 0.52687848 -0.82052642 -0.2216652 0.11067466
2529.3044 -443.89731 -408.19528 0.99322706 -0.11557898 -0.011895996 0.087220758
2549.4312 -436.76483 -373.48944 0.80079669 -0.23475869 -0.55101091 0.092352651
2604.1987 -427.05487 -295.0498 0.48737249 -0.61782777 -0.61705506 0.066005878
2559.5195 -393.31628 -364.95367 0.67206687 0.40667045 -0.61882573 0.1056233
2613.4729 -408.07758 -334.52393 0.33729538 -0.93372273 -0.11997377 0.10689189
2531.1013 -459.39313 -410.77365 0.99586612 0.085106172 0.031742517 0.10020874
2537.541 -416.75787 -410.8161 0.91488767 -0.3771663 -0.1439658 0.084920339
2559.3921 -421.86331 -369.43851 0.72481519 -0.16294825 -0.66939586 0.090203352
2541.8745 -439.67773 -467.71887 0.8795675 0.23859978 0.41162014 0.056569427
2593.978 -415.6701 -342.16177 -0.5583685 0.43047819 0.70916367 0.11425979
2542.478 -410.68304 -427.03424 0.85343325 -0.51818717 0.055979684 0.10700677
2532.9714 -427.84329 -424.61163 0.97865897 -0.20107687 0.042363618 0.076816946
2550.5752 -404.33273 -384.07376 0.86222529 -0.080241673 -0.50012875 0.10966986
2548.3425 -421.49319 -382.88727 0.80474186 -0.2460568 -0.54022831 0.077145889
2541.3845 -440.03595 -386.02707 0.80779356 -0.19086303 -0.55771035 0.079651795
2531.7249 -445.97266 -427.18878 0.9889937 -0.021206006 0.14643005 0.058269065
2552.8425 -461.39331 -472.68994 0.78712738 0.25919124 0.55968779 0.057419587
2563.1526 -479.63013 -474.33508 0.7586413 0.43294695 0.48684728 0.06699121
2538.5503 -464.15729 -428.76227 0.87072909 0.47329175 0.13351323 0.089406669
2557.0027 -487.02118 -353.96875 0.068626635 -0.56002831 0.82562625 0.034729827
2533.5776 -428.39853 -433.58398 0.99217361 -0.086377122 0.09016946 0.064156778
2579.9094 -399.03732 -353.29495 -0.57453167 0.023586486 0.81814241 0.076551773
2560.8687 -487.44019 -442.46832 0.75386286 0.62928087 -0.18893486 0.076423422
2535.5278 -453.92157 -394.8262 0.88789636 0.019736644 -0.45961997 0.093841583
2553.2476 -456.57391 -476.08902 0.79778337 0.26705152 0.54057854 0.073839329
2575.1628 -432.77097 -350.25229 0.66062826 -0.38375556 -0.64521468 0.12387697
2536.4075 -436.90906 -395.26022 0.86141223 -0.25664616 -0.43829411 0.067052253
2573.311 -441.47845 -310.3667 0.65236938 -0.73561114 -0.18245664 0.093344927
2588.7837 -428.23627 -312.05966 0.63289583 -0.73579812 -0.24092323 0.079873972
2607.9775 -414.85236 -313.20746 0.44598752 -0.87657678 -0.18085422 0.068613097
2578.1255 -417.03268 -353.16479 -0.59816051 0.15594646 0.7860564 0.078449406
2544.0513 -419.35907 -391.94443 0.8446815 -0.27781057 -0.4575308 0.079745263
2563.4517 -476.59665 -479.01059 0.73003006 0.38510758 0.564578 0.065144464
2547.988 -401.66351 -391.87952 0.86446428 -0.14458506 -0.4814527 0.12387004
2534.0491 -462.92441 -432.68353 0.96240342 0.11439169 0.246362 0.055384919
2532.7559 -446.89114 -434.3165 0.98344046 0.028504286 0.17897603 0.047581393
2541.9431 -408.60516 -404.38138 0.90042067 -0.36297977 -0.23976719 0.1065991
2556.4116 -432.5824 -368.55963 0.7427175 -0.1833062 -0.64402604 0.10091574
2533.7693 -430.07843 -445.73172 0.98736686 0.09314286 0.12818384 0.065702684
2563.9714 -415.20099 -364.92932 0.71461612 -0.14787389 -0.68370837 0.091202296
2537.0164 -424.5997 -404.19229 0.89558524 -0.35671148 -0.2658647 0.07103724
2559.4104 -393.99182 -368.19318 0.71463156 0.11239154 -0.69041282 0.11333868
2582.9441 -514.72955 -461.03137 -0.59629524 -0.80252045 0.019821931 0.15063828
2531.6348 -440.60257 -404.19498 0.96886384 -0.14599824 -0.19996838 0.074462347
2541.8462 -468.05869 -448.54276 0.88149607 0.29271778 0.37051442 0.047903921
2531.9941 -457.48575 -404.87845 0.98957467 0.07275787 -0.12429089 0.12074177
2563.9849 -491.65308 -455.85596 0.82598019 0.56050372 0.059935369 0.08406046
2537.3899 -450.63345 -449.25833 0.94498128 0.14493972 0.29326245 0.050626036
2551.9653 -385.74149 -367.61032 0.67683381 0.36971787 -0.63655686 0.14034741
2564.4524 -449.0076 -321.55023 0.57670486 -0.79719281 0.17859204 0.096436046
2556.8086 -423.6319 -369.53598 0.76280797 -0.18283258 -0.6202389 0.09048678
2615.7927 -408.74017 -326.16187 0.41303954 -0.90679842 -0.084350005 0.085697509
2573.1687 -436.96631 -323.51318 0.6260879 -0.74589735 -0.22726874 0.074956283
2555.76 -457.30136 -326.37915 0.20949861 -0.79383445 0.57090908 0.053727482
2563.6633 -407.23944 -366.66003 0.70417672 -0.10136159 -0.70275241 0.10128099
2592.3503 -421.94406 -324.69238 0.61361527 -0.76863402 -0.1807705 0.073200405
2530.614 -444.83875 -411.30807 0.99099767 -0.12566978 -0.046159428 0.074118473
2585.0251 -519.89117 -468.47067 -0.50739461 -0.77895021 0.36849329 0.1525819
2536.3579 -462.22266 -413.18506 0.88278502 0.467251 -0.048653062 0.12980278
2552.6458 -439.5766 -372.87851 0.77886832 -0.12318563 -0.6149711 0.11541971
2546.9832 -459.92715 -327.05139 0.18608429 -0.80286694 0.56637204 0.050353408
2547.1956 -472.47034 -454.69479 0.78618562 0.5304544 0.31706506 0.056472994
2558.5437 -404.15747 -372.03915 0.77932054 -0.048247527 -0.62476528 0.099188797
2539.6128 -412.61404 -412.02505 0.92046183 -0.36385712 -0.14268148 0.095882103
2534.5315 -428.77783 -411.31799 0.94907749 -0.29161286 -0.11922194 0.072041631
2536.0447 -439.23553 -452.06009 0.96801347 0.091986179 0.2334276 0.04526449
2540.5823 -457.42999 -453.39243 0.87797284 0.24692808 0.41010997 0.047479182
2573.0686 -444.33926 -331.49194 0.80038434 -0.59414637 0.079843238 0.10875855
2569.728 -499.34573 -462.34293 0.80635732 0.57409954 0.14211813 0.090179712
2558.1465 -422.03342 -370.12814 0.74162155 -0.16932979 -0.64909542 0.086091481
2607.1201 -411.68604 -333.26645 0.47299883 -0.87278658 -0.12048127 0.098381437
2561.1013 -409.28735 -368.83536 0.74918664 -0.10245322 -0.6543873 0.10308814
2533.9067 -435.49039 -407.54202 0.95038837 -0.231369 -0.20791894 0.076349206
2578.6155 -451.18521 -368.81625 -0.52542543 -0.48148733 0.70149702 0.08614178
2570.0696 -502.04056 -462.28534 0.78734267 0.61492091 -0.044314999 0.095046073
2561.4272 -480.47443 -414.38022 -0.52482909 -0.82570046 0.20681684 0.095443413
2538.0342 -419.15295 -407.47903 0.91770542 -0.32743958 -0.22494452 0.082662582
2537.479 -444.58075 -451.93106 0.94961411 0.11444091 0.29178125 0.053124983
2553.2683 -478.85297 -455.69037 0.76296169 0.62648195 0.15940458 0.06711752
2558.198 -427.32693 -369.10153 0.721668 -0.19695967 -0.66362804 0.089354962
2542.5776 -462.85864 -453.26099 0.86450452 0.27578881 0.4202053 0.046674114
2530.7715 -452.31445 -407.53021 0.99588186 -0.0462454 -0.077978931 0.098433487
2557.7104 -482.98557 -457.31125 0.78642589 0.5844655 0.19983593 0.081942298
2533.6865 -435.39993 -407.35806 0.95289171 -0.22597571 -0.20231749 0.075216345
2561.1567 -392.71823 -363.18921 0.65337801 0.39484268 -0.64590746 0.10428721
2530.876 -452.29727 -407.55457 0.99431521 -0.050304115 -0.093844116 0.096078902
2537.9961 -444.87766 -452.67297 0.94369483 0.11592387 0.30984148 0.053192455
2540.1333 -461.35138 -450.31067 0.88927633 0.2390389 0.38993332 0.048267808
2561.6316 -408.31265 -368.33939 0.74446714 -0.08844272 -0.66177529 0.10522659
2572.2056 -446.77637 -370.29822 -0.48295161 -0.52533823 0.70055515 0.13071303
2556.6086 -426.29617 -369.87592 0.74819314 -0.21042526 -0.62922829 0.08861313
2538.2354 -418.90054 -407.34018 0.91389155 -0.33176792 -0.23394927 0.080926344
2570.1267 -501.97733 -461.18668 0.78639859 0.61705548 -0.028632894 0.092622079
2542.2761 -457.6308 -456.39453 0.87409651 0.25289363 0.414729 0.045815263
2567.3816 -496.20126 -461.84671 0.80472594 0.56804478 0.17245676 0.079594843
2565.1274 -405.95895 -365.98074 -0.6938346 0.007353981 0.72009683 0.092876382
2618.1128 -407.2753 -333.34833 0.17434832 -0.98317069 -0.054571446 0.11454082
2535.5842 -436.56894 -451.25812 0.97313267 0.055308405 0.22350346 0.048522308
2564.2217 -449.89536 -327.58878 0.74044269 -0.66544098 0.094514348 0.13986327
2560.4502 -441.13239 -370.40506 -0.66976333 -0.16128229 0.72484833 0.15313588
2560.9568 -422.21948 -368.05701 0.70692277 -0.18131354 -0.68365604 0.093230829
2581.2373 -515.00818 -469.03671 -0.57170177 -0.80844998 0.13987747 0.12214179
2541.509 -409.68332 -411.31921 0.89449412 -0.40505716 -0.18923259 0.10193939
2544.7307 -461.03098 -327.71021 0.21874802 -0.7870338 0.57682502 0.054130852
2534.7446 -427.59027 -410.68466 0.93940365 -0.31487042 -0.13556321 0.07549978
2551.5432 -474.32651 -456.6871 0.72301394 0.58460951 0.36807954 0.079093404
2601.2747 -414.40759 -331.50443 0.54716349 -0.82213897 -0.15716131 0.10124984
2530.8374 -444.03033 -410.37601 0.99034989 -0.13019134 -0.047511522 0.076171465
2535.355 -462.16602 -413.10559 0.9417932 0.33352974 -0.042230573 0.13557009
2552.7236 -477.20203 -447.08487 0.72713882 0.68478584 0.048347957 0.075344607
2556.1909 -449.47089 -485.18808 0.79473424 0.28996181 0.53321636 0.12458182
2566.5544 -469.13303 -487.46716 0.75169587 0.30814478 0.58309525 0.10150436
2544.6567 -409.91211 -395.83545 0.87863892 -0.2249708 -0.42116717 0.096843585
2535.3618 -452.7067 -441.44733 0.96665829 0.12003871 0.22619109 0.049006466
2534.228 -444.81049 -397.67554 0.91523749 -0.17545086 -0.3627083 0.082783014
2565.4209 -494.03348 -449.46851 0.76757067 0.62351435 -0.14854334 0.076720543
2576.4197 -401.93353 -356.27377 -0.62263131 0.07131777 0.77925861 0.084173076
2534.5056 -435.06094 -440.79288 0.98987305 -0.040063698 0.13618457 0.052467931
2577.8027 -421.15915 -353.66571 -0.6136874 0.12293977 0.77991897 0.092682473
2576.843 -438.77383 -352.77853 -0.69886029 0.11973462 0.70516515 0.14483945
2539.4802 -427.15564 -396.22171 0.87093538 -0.28235343 -0.40217918 0.073535077
2554.0276 -422.08426 -375.67877 0.76588368 -0.23596384 -0.5981164 0.072570182
2554.8311 -406.06604 -377.58551 0.815786 -0.064819172 -0.57471007 0.10800139
2531.4368 -461.08777 -418.64142 0.9766348 0.11980159 0.17841531 0.086095005
2583.1912 -440.11423 -299.77512 0.62171066 -0.59985524 -0.50363636 0.083356947
2563.9866 -486.87338 -426.80505 0.74960905 0.64598501 -0.144186 0.1006294
2548.9624 -437.28784 -378.65707 0.75926858 -0.11137509 -0.64117616 0.10591614
2533.0376 -430.88309 -419.08148 0.976717 -0.21362402 -0.019714262 0.071535565
2537.6907 -416.51364 -420.34558 0.92176116 -0.37803096 -0.086307324 0.08816807
2588.9185 -418.9263 -340.92987 0.62519258 -0.56542522 -0.53798568 0.13699646
2555.0972 -464.00626 -335.41525 0.26673573 -0.73079389 0.62832505 0.086442858
2531.0327 -446.33649 -419.48712 0.99265426 -0.066366866 0.10115834 0.068674825
2598.353 -406.5058 -344.07727 -0.51003122 0.54312617 0.66699481 0.13074835
2600.2603 -425.31674 -299.2204 0.55916202 -0.68051928 -0.47353074 0.075219199
2569.7427 -400.58524 -361.58643 -0.62917131 0.098382644 0.77101511 0.10750292
2609.2559 -413.43219 -318.33484 0.45543173 -0.88195211 -0.12141839 0.069004498
2572.7737 -415.76114 -357.414 -0.6073826 0.11830656 0.78555071 0.088511907
2588.7668 -426.6059 -316.25467 0.61945772 -0.75743002 -0.20632961 0.070496194
2567.7532 -446.18723 -314.10376 0.62384909 -0.78101367 0.028810248 0.10556679
2577.8274 -437.19376 -314.37198 0.63464397 -0.76192832 -0.12919851 0.085579857
2562.1221 -430.05774 -362.78143 0.70626169 -0.23738702 -0.66696459 0.10059503
2607.4089 -410.07556 -337.22229 0.46539938 -0.85537112 -0.22747235 0.11300135
2532.6392 -434.78961 -416.09595 0.9769358 -0.21197391 -0.025758145 0.069054656
2555.155 -428.33795 -372.58279 0.75035602 -0.17461675 -0.63755381 0.093430728
2543.0408 -411.15689 -413.10187 0.69506031 -0.70398551 0.14592996 0.10542141
2535.8335 -465.99841 -334.66443 0.063794747 -0.76732707 0.63807476 0.06237191
2613.3416 -420.62643 -296.4935 0.3937414 -0.72206664 -0.56884748 0.077687286
2574.5977 -438.73553 -335.29721 0.79672801 -0.59080189 -0.12719132 0.12583394
2617.5132 -409.09906 -334.31885 -0.18826093 -0.9159531 0.35438368 0.14509018
2546.7214 -460.24655 -326.87048 0.3405357 -0.75461185 0.56088889 0.057849742
2553.5659 -393.33441 -374.01364 0.77080303 0.19993928 -0.60488588 0.11291273
2531.0605 -451.0285 -416.80035 0.99783593 -0.0092879804 0.065093488 0.080427162
2561.0706 -413.01135 -369.90439 0.75242901 -0.12545715 -0.64661509 0.092491306
2536.3809 -420.89441 -415.52301 0.92895412 -0.36429548 -0.065826088 0.085938901
2592.9893 -425.24387 -312.32394 0.60994244 -0.76686347 -0.19972633 0.077437416
2607.9805 -414.69644 -314.8197 0.46349069 -0.86508644 -0.19183806 0.073106796
2586.1213 -416.04388 -348.10638 -0.61778867 0.24770382 0.74631089 0.089602508
2578.4446 -437.54211 -311.14725 0.62048161 -0.75680274 -0.20555343 0.092589803
2582.093 -401.01688 -352.13754 -0.5570181 0.10116326 0.82431597 0.080031484
2568.3904 -445.46356 -311.31033 0.57589614 -0.816603 0.038770262 0.10346988
2572.5413 -430.73602 -353.76724 -0.62709117 0.29948443 0.71907282 0.11600524
2539.8713 -435.3396 -391.75006 0.83303338 -0.25843602 -0.48914847 0.075136505
2538.7693 -450.91278 -393.51346 0.82811278 0.093887165 -0.55264312 0.10915298
2543.804 -420.25641 -391.80673 0.84217268 -0.28517598 -0.45762414 0.081419818
2545.8896 -406.74738 -393.84799 0.86977828 -0.25805074 -0.4205896 0.11447547
2574.7515 -394.83759 -354.39658 -0.63510114 -0.23656879 0.73531067 0.073619068
2536.1062 -436.33609 -397.46622 0.8873775 -0.26960364 -0.3739987 0.073564976
2539.3945 -454.31964 -398.93475 0.76985371 0.37558377 -0.51600593 0.13416833
2575.0637 -482.38904 -492.39584 0.76879394 0.22760795 0.59762067 0.099338554
2546.3257 -401.45172 -395.68088 0.88204163 -0.18084133 -0.43508497 0.13367653
2565.9353 -429.12317 -360.21072 -0.65332234 0.24998803 0.71461588 0.10259227
2582.4202 -515.2392 -453.48322 0.71510059 0.67144978 -0.19438711 0.16113746
2580.3235 -412.27713 -352.9682 -0.61000103 0.094287969 0.78677094 0.085185342
2537.7969 -461.56064 -441.81589 0.93211234 0.27968678 0.23009104 0.064228863
2560.6194 -487.27753 -448.96085 0.8053174 0.58702779 -0.082838438 0.078836747
2567.1233 -462.9512 -491.91354 0.77871871 0.30836201 0.54636073 0.11792252
2534.8203 -425.9906 -441.02075 0.99204898 -0.05184631 0.11467695 0.079016671
2542.874 -417.95312 -395.43167 0.85628098 -0.28676179 -0.42959353 0.083278127
2534.7776 -445.00854 -442.05032 0.97466469 0.037385885 0.2205245 0.045593563
2601.3621 -420.29208 -306.46906 0.5480445 -0.76384723 -0.34085867 0.077813968
2589.9932 -430.12128 -304.55573 0.62168765 -0.70179647 -0.34783065 0.077001601
2576.8459 -441.96408 -303.5126 0.61246568 -0.69796813 -0.371115 0.10235037
2546.2378 -415.67413 -388.2702 0.84128469 -0.25342318 -0.47751099 0.082253657
2534.5608 -422.39438 -427.89923 0.98443812 -0.17334878 -0.028840279 0.083512291
2580.8621 -437.7804 -305.4328 0.64588922 -0.69222784 -0.32194367 0.089994401
2585.428 -424.57736 -344.2601 -0.60494924 0.4991447 0.62039584 0.11726068
2533.7222 -458.04269 -430.06491 0.963045 0.14801678 0.2250229 0.057395704
2589.7119 -412.09711 -346.42453 -0.52723515 0.20804299 0.82385755 0.10217121
2532.7073 -439.71146 -429.49927 0.99109763 -0.066623136 0.11526859 0.057141986
2561.3396 -471.55762 -478.65289 0.77139658 0.3331804 0.54216057 0.07281024
2543.9849 -451.2803 -387.06247 0.71726459 0.099769078 -0.68962139 0.1219307
2599.5532 -422.09201 -306.49631 0.59129834 -0.77973926 -0.20584704 0.084041834
2621.0542 -410.14319 -308.02792 0.34787929 -0.92019069 -0.17952478 0.076947048
2552.0793 -452.07153 -476.06952 0.82090408 0.2475193 0.51463652 0.0715921
2541.9749 -432.5643 -388.2561 0.82027268 -0.23438659 -0.52174288 0.073237374
2562.624 -486.71561 -435.86343 0.74245334 0.65124893 -0.15696463 0.094667025
2561.1406 -478.59961 -349.24899 0.14467879 -0.61737055 0.77325392 0.029275425
2548.8938 -397.97375 -386.50458 0.87052864 0.025551805 -0.49145395 0.12916459
2597.0322 -430.03931 -297.03311 0.53230041 -0.64740276 -0.54545933 0.064210348
2596.2869 -411.31458 -342.34714 -0.52220523 0.57267898 0.63193393 0.13232441
2576.9426 -426.31436 -342.51312 0.578183 -0.63268393 -0.51518488 0.1231576
2593.8818 -395.77637 -345.9823 -0.49619704 0.13367529 0.85785747 0.10389163
2610.4165 -419.29199 -299.68713 0.44559443 -0.72096848 -0.53070712 0.081143789
2585.366 -442.36072 -296.37454 -0.57565087 0.56722999 0.58896202 0.079216652
2545.1001 -464.54999 -332.46927 0.21460947 -0.69250768 0.68874955 0.043139026
2579.4414 -413.41818 -353.42029 -0.61051708 0.099816144 0.78568798 0.080894187
2573.8594 -468.79916 -496.01883 0.79838413 0.15409862 0.58209652 0.14306237
2534.6299 -447.01846 -441.08328 0.97444558 0.048591644 0.21930502 0.045583766
2538.686 -463.70459 -441.13788 0.92127287 0.32377031 0.21547411 0.071433291
2536.3762 -437.11639 -396.1655 0.88067335 -0.27252665 -0.38748384 0.072298311
2565.5796 -429.31509 -359.99548 -0.64808559 0.23810005 0.72339022 0.099138357
2540.7234 -420.32535 -396.7579 0.86079025 -0.30639863 -0.40639886 0.080926135
2569.8069 -392.62 -356.93582 -0.62417275 -0.29394728 0.72388077 0.087517768
2534.5269 -428.15936 -438.65878 0.98907661 -0.062381521 0.13355157 0.072165526
2534.0745 -454.01648 -397.26883 0.92436224 -0.0049541355 -0.38148388 0.10733854
2546.5806 -402.40622 -394.12311 0.86664432 -0.15049359 -0.47568819 0.12984478
2564.9272 -492.44873 -447.36676 0.75783592 0.64171731 -0.11782887 0.082034811
2571.8271 -502.298 -450.31335 0.76653588 0.61852634 -0.17276555 0.088055462
2545.3484 -417.72375 -389.30536 0.84395522 -0.26010448 -0.46913242 0.081710875
2586.8416 -412.60876 -347.44641 -0.58596754 0.1978869 0.78580076 0.094945975
2595.1421 -423.90909 -309.37686 0.60414106 -0.75161707 -0.26473638 0.081989996
2546.8589 -402.92664 -391.01208 0.89356738 -0.19433519 -0.40468651 0.10738551
2585.5625 -397.17264 -350.1709 -0.5829311 0.064409345 0.80996466 0.075941272
2571.5352 -428.75952 -350.85696 -0.59764642 0.46652317 0.65205437 0.11139038
2607.8083 -414.86105 -311.18698 0.46609831 -0.8589583 -0.21199751 0.068626508
2568.8511 -445.55707 -305.83694 0.62048471 -0.77925915 -0.088055961 0.107278
2582.325 -435.46869 -307.60822 0.64025527 -0.70971149 -0.29390952 0.081761234
2542.5024 -432.13342 -388.34076 0.80834347 -0.21465068 -0.54818422 0.079419605
2537.2795 -446.67557 -390.09753 0.83003128 -0.17098072 -0.53086126 0.082089245
2575.5085 -440.15836 -307.86111 0.62998348 -0.70430845 -0.32721618 0.096203379
2545.2944 -414.5513 -390.0112 0.84234917 -0.24681738 -0.47909188 0.086012505
2540.4155 -430.40683 -390.10855 0.84607404 -0.21978995 -0.48564497 0.065303043
2589.7725 -411.41675 -346.21042 -0.54624313 0.25956079 0.79639602 0.10370743
2536.4033 -445.37448 -390.11005 0.84636039 -0.21529658 -0.48715648 0.067861713
2591.7844 -425.96811 -308.77173 0.58806956 -0.73355913 -0.3406834 0.071878679
2547.8213 -399.16098 -389.81256 0.91319305 -0.16693509 -0.37176752 0.12958619
2572.4375 -427.9418 -349.95999 -0.57171392 0.48926529 0.65860659 0.10589399
2606.6755 -415.73779 -309.53394 0.45709324 -0.85422438 -0.24772255 0.072555594
2562.6436 -451.28506 -305.73911 0.6175037 -0.76738471 -0.17265552 0.09776441
2585.1504 -394.84232 -348.8956 -0.59566081 -0.043676585 0.80204773 0.073975928
2545.7732 -401.72058 -403.7424 0.88895082 -0.32541117 -0.32229492 0.13355923
2557.8135 -429.18906 -368.26834 0.73574162 -0.18174976 -0.65241957 0.09687762
2533.6255 -437.3493 -405.36905 0.95445472 -0.20509335 -0.21668628 0.075147912
2566.8223 -493.83447 -459.3667 0.82534027 0.55996877 0.072446004 0.10075961
2578.5491 -453.1752 -365.69437 0.65724897 0.41428936 -0.62959361 0.093379349
2558.8411 -391.03653 -364.7551 0.67686951 0.35421976 -0.64527208 0.10658924
2564.4905 -411.07779 -365.46921 0.71787292 -0.11388506 -0.68679595 0.096764326
2538.0044 -447.99945 -450.99857 0.94102144 0.12313759 0.31514403 0.0549955
2530.957 -454.16336 -405.05554 0.99296522 -0.018110745 -0.11701312 0.10500456
2537.947 -421.47723 -405.08386 0.90704048 -0.33947152 -0.24907166 0.071230978
2540.981 -464.37054 -448.88562 0.88140666 0.28833655 0.37414485 0.052593704
2535.9678 -429.04504 -448.69717 0.98811245 -0.022612819 0.15206084 0.073061481
2576.5105 -511.34875 -460.95569 0.81219453 0.57873666 -0.073511533 0.13238835
2552.0505 -396.86365 -379.42523 0.82399172 0.18018597 -0.53718776 0.12180012
2532.2046 -455.02393 -426.15649 0.98076695 0.029485885 0.1929424 0.065748192
2545.3357 -430.62625 -383.62637 0.80148304 -0.21488872 -0.55807507 0.073447153
2554.3809 -468.68008 -470.84235 0.74536127 0.39471704 0.53724766 0.069593869
2535.0867 -419.69568 -423.08322 0.95866477 -0.28440249 -0.0087797353 0.080932595
2550.7026 -413.17676 -382.4707 0.81326199 -0.20455028 -0.54476064 0.092314564
2576.3262 -426.3287 -345.36685 -0.57484478 0.57529318 0.58188593 0.11464038
2552.8923 -473.55652 -343.47818 0.16286926 -0.67093921 0.72340459 0.036520265
2550.8643 -452.33023 -473.75201 0.81034923 0.23558766 0.53650033 0.065425418
2532.0793 -436.38315 -424.78815 0.9900443 -0.12318148 0.068107091 0.057453431
2556.3176 -479.97095 -431.71921 -0.64546245 -0.75615758 0.10772125 0.055933129
2544.9521 -447.9888 -383.84668 0.74729437 0.0087887524 -0.66443497 0.12276644
2607.373 -408.06061 -338.18338 0.37451553 -0.89496946 -0.24242066 0.13706145
2533.1682 -429.21167 -414.21521 0.95336986 -0.3011291 -0.020177497 0.076643087
2546.9558 -461.01395 -463.026 0.83165312 0.26232871 0.48942488 0.052841935
2541.6926 -467.11124 -419.06534 0.76141095 0.64715153 0.038055513 0.10369472
2558.7671 -479.81699 -465.11612 0.76734906 0.51368421 0.38380191 0.073499121
2554.1997 -423.05368 -374.15918 0.76538897 -0.20568871 -0.60981297 0.078624241
2548.3315 -439.8598 -377.26965 0.77443635 -0.12489425 -0.62020141 0.09358944
2541.1243 -463.53369 -330.57965 0.17989904 -0.77278256 0.60864067 0.057981607
2574.4683 -502.70728 -469.88104 0.8289234 0.51820767 0.21058679 0.086864755
2539.4827 -439.75162 -459.34229 0.90355814 0.1513706 0.40083617 0.05282886
2539.3655 -413.81155 -414.61008 0.88799232 -0.45620579 -0.05784348 0.096816659
2557.9834 -404.99902 -372.98718 0.79093015 -0.046614278 -0.61012834 0.099030368
2530.6921 -444.77835 -414.68887 0.99224675 -0.11540505 0.046130855 0.065483786
2596.4993 -415.86633 -335.22998 0.5517801 -0.78446686 -0.28310856 0.12686105
2537.1243 -417.72281 -420.90665 0.94850206 -0.30020016 -0.1011125 0.088242471
2546.0723 -447.68335 -468.36176 0.83291018 0.24595806 0.49574724 0.06672398
2553.1335 -466.46243 -470.20526 0.76326603 0.36198634 0.53515506 0.065004617
2548.2139 -426.05914 -381.14682 0.80381411 -0.22232224 -0.55177504 0.07140927
2551.2144 -475.33536 -424.92175 -0.64090675 -0.76740754 0.01800598 0.045914825
2554.0569 -397.34567 -376.59085 0.80297858 0.23712167 -0.54680777 0.12541863
2579.3977 -444.42102 -299.26492 0.59204251 -0.60196155 -0.53584325 0.099589534
2555.5911 -467.9671 -338.88718 0.20061459 -0.6675604 0.7170195 0.037358347
2531.4575 -450.99203 -421.06564 0.99265748 -0.014580873 0.12007708 0.071573578
2542.074 -442.29138 -384.3349 0.80204731 -0.17051925 -0.57240134 0.089433521
2610.4341 -416.77377 -302.07913 0.43407387 -0.83957821 -0.32663172 0.082974769
2593.55 -429.84451 -300.35178 0.5610742 -0.66766632 -0.48930296 0.066645488
2550.6455 -409.91425 -382.71683 0.85102236 -0.16748466 -0.49770451 0.098950282
2532.6379 -433.31659 -419.97882 0.98174828 -0.18976067 0.01269658 0.067849636
2583.4014 -420.07764 -344.43655 -0.61520034 0.47308204 0.63065201 0.12950933
2534.7478 -429.67596 -449.2691 0.98611659 0.067303039 0.15180391 0.069950968
2560.927 -394.55426 -366.90686 0.70141631 0.16223449 -0.69404262 0.11961613
2532.363 -457.92102 -407.13837 0.99323773 0.057557769 -0.10082629 0.12369075
2539.4297 -450.33017 -453.59219 0.91807497 0.19303018 0.34623355 0.049290538
2543.7617 -407.13098 -407.01694 0.86826855 -0.47183022 -0.15325134 0.1172067
2537.1602 -423.21576 -406.7948 0.9086175 -0.3495588 -0.22852336 0.074573219
2546.5593 -468.17175 -454.25919 0.81436992 0.43255541 0.38690752 0.059475791
2563.2742 -413.8678 -366.34631 0.73633009 -0.13412388 -0.66319591 0.089260496
2554.7466 -430.87381 -370.34109 0.76608348 -0.21277866 -0.60649925 0.090554625
2532.8284 -440.17038 -407.15417 0.96362233 -0.19817282 -0.17933078 0.074023709
2530.7527 -448.32452 -416.60956 0.99434268 -0.067897141 0.081685826 0.074503534
2530.1345 -458.94312 -414.13596 0.9693827 0.20965134 0.12784174 0.10288163
2532.811 -433.14172 -417.00296 0.9729777 -0.23089823 -0.00060000666 0.070288911
2602.9551 -408.34628 -340.76553 0.52489251 -0.73990989 -0.42073888 0.1491648
2550.3794 -440.18936 -376.9931 0.76515532 -0.060891718 -0.64095986 0.1088914
2556.2651 -409.03235 -375.19577 0.80051702 -0.097682469 -0.59129572 0.10061902
2536.4678 -420.05127 -416.66467 0.91745782 -0.39258441 -0.064410172 0.092716098
2559.896 -481.9664 -423.75739 -0.57655054 -0.80302799 0.1507829 0.078092925
2584.3623 -442.25153 -297.35898 0.58667427 -0.55913711 -0.58581477 0.078985795
2553.2637 -463.96286 -334.1337 0.19943596 -0.72845864 0.6554184 0.041969277
2598.7729 -427.95752 -297.78961 0.52864182 -0.65489537 -0.54004616 0.068077922
2555.6782 -424.07895 -373.2106 0.74911213 -0.20770639 -0.62903827 0.079901606
2588.447 -420.37146 -337.67126 0.61489666 -0.69880849 -0.36547071 0.12871258
2531.4106 -456.84296 -421.46625 0.98695463 0.045443885 0.15445198 0.069185056
2545.0454 -452.03854 -464.52173 0.83572561 0.19862123 0.51196903 0.058573205
2575.3323 -429.25439 -340.84558 0.52899772 -0.73818332 -0.41862491 0.097962156
2554.4365 -398.02975 -377.62662 0.83279502 0.043955978 -0.55183357 0.12232643
2559.1602 -481.78226 -428.04681 -0.58384156 -0.79373902 0.1706088 0.067828164
2570.2976 -493.68411 -472.38287 0.75946516 0.53338104 0.37244776 0.065649241
2552.0498 -416.25891 -378.74609 0.79915237 -0.19707526 -0.56790566 0.088805892
2531.3376 -439.5733 -420.73584 0.98957592 -0.13079514 0.060267165 0.058680303
2598.5227 -411.41733 -340.57248 0.55102342 -0.67280924 -0.49366075 0.13838848
2575.6936 -458.29144 -346.70285 0.6488148 -0.58731198 0.48384291 0.082947925
2534.7979 -423.19873 -420.23428 0.95095748 -0.30758026 -0.032775108 0.088194348
2547.3208 -433.66464 -379.71652 0.78348303 -0.2243845 -0.57948768 0.082545035
2554.908 -472.17166 -468.09274 0.7401427 0.46534348 0.485432 0.067802154
2559.2253 -453.78409 -381.37341 -0.46287555 -0.44369549 0.76738554 0.1079276
2564.8943 -491.27676 -440.26288 0.75799614 0.61301678 -0.22282797 0.08091975
2582.2275 -418.66702 -349.02896 -0.60130149 0.25918248 0.75581807 0.09112034
2558.1511 -461.94052 -479.89093 0.77243918 0.30400059 0.55760324 0.073330037
2609.9712 -414.76761 -309.7084 0.45726725 -0.87401372 -0.16433695 0.072565056
2572.4736 -501.12881 -443.81006 0.74756032 0.63318646 -0.20057037 0.094964154
2548.7439 -403.12949 -389.40662 0.86742228 -0.15097551 -0.47411492 0.10693961
2540.9553 -454.86963 -393.58008 0.72385484 0.2768704 -0.63196278 0.10982991
2533.6172 -464.54376 -429.92624 0.96699697 0.14642169 0.20851259 0.060882341
2586.8611 -400.97815 -349.80219 -0.57225472 0.090052828 0.81511658 0.085213244
2544.8064 -420.60919 -389.32104 0.83602297 -0.27372226 -0.47554359 0.078819215
2533.3027 -430.56754 -429.66739 0.9885143 -0.13038437 0.076415882 0.073023237
2532.261 -447.93988 -431.409 0.98380804 0.018135205 0.17830543 0.049639821
2572.3528 -484.35199 -484.40652 0.76912034 0.41836014 0.48314458 0.072937988
2589.9192 -428.28729 -308.79913 0.62089282 -0.74003011 -0.25854897 0.081648417
2574.876 -441.85825 -306.94623 0.63293707 -0.72385424 -0.27463749 0.10519715
2539.1418 -438.32077 -390.70734 0.82687616 -0.23225948 -0.51218289 0.068284407
2553.688 -469.55972 -467.57184 0.74596196 0.47744587 0.46431264 0.068426505
2599.9766 -407.98029 -341.97339 -0.57582766 0.48662063 0.6569801 0.12671317
2531.3047 -454.9718 -420.67401 0.9900704 0.012115672 0.14004931 0.071912132
2577.7712 -445.94009 -298.68216 0.56782818 -0.6219241 -0.53924167 0.10343465
2588.1963 -421.73328 -338.97458 0.58932912 -0.68662506 -0.42571968 0.12654023
2552.4797 -410.0849 -380.30219 0.83684224 -0.14805628 -0.5270431 0.10629898
2532.4727 -437.61826 -421.11691 0.98775041 -0.14920072 0.045697711 0.064157523
2536.0796 -420.69003 -420.16708 0.9463709 -0.31400779 -0.076034315 0.085215308
2544.4766 -444.37286 -382.53857 0.80459791 -0.086295426 -0.58751625 0.1070432
2615.449 -416.03845 -300.42892 0.37103716 -0.85828221 -0.35451806 0.082046203
2594.1389 -430.33835 -298.97098 0.56726223 -0.6665892 -0.48360354 0.067960843
2548.0955 -427.26389 -380.75159 0.80876058 -0.19484591 -0.55492467 0.071777321
2539.917 -468.56717 -336.42407 0.13591237 -0.70766443 0.69335335 0.049917113
2565.0037 -487.95584 -468.71741 0.779576 0.53052497 0.33287314 0.07510604
2566.7593 -491.97958 -428.9798 0.8121109 0.56691092 -0.13815899 0.11149231
2585.2383 -422.25848 -337.65668 0.65740085 -0.66805726 -0.34860229 0.12072909
2551.1208 -408.29874 -380.51572 0.84941655 -0.12095068 -0.51367539 0.10562675
2603.8835 -422.06976 -301.16464 0.43804961 -0.68464851 -0.5825538 0.071211271
2601.1775 -410.17041 -339.58841 0.52327204 -0.76189071 -0.3817184 0.14638518
2551.4282 -391.66107 -379.61035 0.84901506 0.038739685 -0.5269466 0.14781973
2588.0483 -435.49356 -300.26782 0.55275005 -0.60149473 -0.5767768 0.069846466
2581.9697 -445.89139 -297.06177 -0.57319224 0.52687079 0.62758088 0.084196076
2544.7178 -464.41568 -331.81277 0.21507993 -0.72394371 0.65547395 0.048292011
2547.8867 -424.53723 -380.71722 0.81137103 -0.18110897 -0.5557667 0.075831011
2532.5078 -447.0553 -399.27316 0.92711896 -0.11499981 -0.35668677 0.087081522
2570.7683 -476.29855 -488.9462 0.73310977 0.33101857 0.59411848 0.089696243
2571.0012 -408.20108 -360.14355 -0.65303177 0.13115326 0.74588764 0.093128793
2558.4668 -454.72562 -483.72873 0.74783301 0.26300901 0.60956711 0.10727668
2535.6013 -457.45532 -438.39471 0.95433831 0.19982059 0.22205879 0.06387049
2628.7266 -403.5249 -320.9057 0.45286089 -0.89138329 -0.01878293 0.090489559
2540.6924 -416.7908 -399.35922 0.8870973 -0.27907741 -0.36766037 0.083221853
2578.4497 -435.84561 -316.65967 0.64256829 -0.74643487 -0.17303446 0.078381665
2535.9749 -432.03967 -399.0813 0.8836478 -0.25840819 -0.39037395 0.068619125
2533.5029 -441.03387 -437.53058 0.98277587 -0.013306797 0.18432175 0.045461778
2556.9614 -452.00504 -312.24039 0.54761428 -0.83011609 0.10500421 0.082132518
2564.9048 -493.19824 -446.50046 0.76120222 0.61899799 -0.1934237 0.076934174
2563.1692 -424.36737 -363.15924 0.69913465 -0.15495804 -0.69799626 0.10246709
2594.5693 -422.29871 -317.67532 0.60664403 -0.77882075 -0.15944034 0.068320952
2568.8474 -391.63809 -356.67783 -0.61748797 -0.34187892 0.70839775 0.085457452
2546.7126 -400.30927 -398.49673 0.88151401 -0.31086648 -0.35538021 0.13164708
2535.417 -424.20261 -437.85547 0.98492342 -0.14083342 0.1004582 0.08240369
2551.626 -477.30734 -443.05719 -0.69255435 -0.72095424 0.024361825 0.042811755
2591.0513 -424.97906 -336.40656 0.54772162 -0.71106339 -0.44089672 0.10874233
2554.3174 -450.35898 -381.05579 -0.55551559 -0.39339787 0.73255754 0.1127594
2590.158 -417.10992 -340.98035 0.61601722 -0.59040785 -0.5214799 0.12990573
2555.4275 -479.11517 -425.27417 -0.59970438 -0.79188728 0.11519228 0.069579199
2567.8528 -460.72592 -339.23798 0.37595436 -0.69967681 0.60754478 0.10704166
2538.9116 -413.80005 -420.21991 0.91731274 -0.38392833 -0.10552919 0.089998253
2553.53 -419.59555 -375.9267 0.78838366 -0.216929 -0.57566744 0.078593843
2569.0759 -499.15802 -428.09503 0.92584205 0.37552622 -0.042386007 0.12034161
2586.8369 -437.89606 -298.75388 0.5795868 -0.5982247 -0.55335921 0.073371872
2530.8237 -458.56717 -417.7977 0.98692352 0.054598998 0.15166073 0.077585347
2533.4062 -429.03247 -419.11188 0.9733302 -0.22807336 -0.024714682 0.071779653
2546.5688 -435.49307 -379.36621 0.7785781 -0.25444385 -0.57365006 0.08215721
2601.4688 -423.92578 -300.30536 0.53385198 -0.69993412 -0.47444108 0.074076422
2553.5918 -403.27753 -379.07373 0.82995683 -0.050163303 -0.55556756 0.11893155
2530.9932 -444.34415 -418.75461 0.99017578 -0.11384825 0.081181578 0.060154479
2565.0527 -491.54846 -440.46796 0.76538736 0.60864443 -0.20912729 0.08202026
2605.2471 -416.79639 -312.69595 0.50312138 -0.85005033 -0.15583113 0.073078118
2535.0618 -419.41641 -431.96185 0.98004729 -0.19793616 0.018128332 0.091255493
2576.7095 -505.96414 -442.69202 0.78330898 0.58856016 -0.20005973 0.10664761
2636.377 -403.24921 -316.24594 0.28391066 -0.94079262 -0.18521324 0.098455995
2532.3577 -450.74402 -432.14456 0.97964513 0.057546034 0.19231178 0.045524437
2588.5029 -428.71826 -311.56778 0.6389181 -0.73043036 -0.24136093 0.079922274
2578.4741 -405.28131 -354.12234 -0.56714094 0.10821921 0.8164801 0.081648611
2532.8616 -435.39804 -431.48669 0.98614705 -0.10164314 0.1310827 0.060570329
2541.033 -467.10001 -434.54919 0.84081209 0.52670419 0.12497112 0.08511737
2576.7068 -421.25064 -352.91791 -0.59631246 0.21146125 0.77440017 0.083375446
2577.363 -434.1373 -347.58606 0.70638007 -0.41110966 -0.57620835 0.12591416
2547.9172 -409.72644 -389.34958 0.83778298 -0.21167658 -0.5033018 0.10144551
2540.5186 -440.89325 -388.66437 0.8071602 -0.17891453 -0.56256729 0.08369147
2571.5229 -443.03922 -309.54565 0.63271397 -0.76219934 -0.13684012 0.10324013
2545.5664 -424.52701 -387.23563 0.81672835 -0.27134961 -0.50923884 0.073013887
2535.9478 -432.09671 -403.07364 0.92069638 -0.27246717 -0.27942768 0.077475809
2541.3162 -415.72748 -402.608 0.89012837 -0.307477 -0.33634701 0.090579793
2536.2937 -442.88794 -448.72891 0.97524464 0.084482431 0.20435415 0.050008126
2617.2053 -408.23178 -327.91229 0.40953794 -0.91117299 -0.045194026 0.07993599
2569.5481 -440.28156 -324.38681 0.71082014 -0.66914749 -0.21674024 0.091976762
2563.4939 -488.68576 -458.76645 0.82550329 0.55257612 0.11490858 0.089896314
2535.1782 -424.84445 -445.00409 0.99003136 -0.091091216 0.10742583 0.082829222
2570.7561 -501.77359 -459.04111 0.81971306 0.57245308 -0.019183135 0.099791676
2570.3137 -412.34555 -360.76489 -0.66409409 0.092744485 0.74187428 0.089402571
2560.5537 -428.37988 -366.50674 0.7070598 -0.17288651 -0.68569428 0.097243071
2590.5981 -423.7319 -325.16855 0.62293202 -0.76232302 -0.17555431 0.072155617
2550.7664 -454.98389 -319.89926 0.36512086 -0.82348514 0.43423387 0.075319685
2561.2261 -392.4621 -364.25565 -0.66798544 -0.29303065 0.684053 0.096407682
2539.356 -459.87347 -448.41275 0.91300327 0.2361154 0.33267781 0.055845931
2532.7764 -449.91516 -403.60791 0.98411107 -0.037548743 -0.17353819 0.10292687
2547.4631 -398.64767 -401.70581 0.88385791 -0.33793589 -0.32341072 0.14343485
2570.0676 -426.31992 -358.25082 -0.63722748 0.19096343 0.74664193 0.099364787
2574.8877 -409.79916 -356.54755 -0.60434085 0.10912468 0.78921729 0.085639901
2534.0159 -444.09167 -438.6947 0.98488319 0.022664156 0.17173064 0.054780643
2578.9709 -436.17694 -314.24188 0.62847859 -0.76190221 -0.15658753 0.078648552
2617.0283 -409.4491 -318.32141 0.38435984 -0.91533446 -0.12012648 0.068069316
2546.3767 -400.7153 -395.16556 0.87874693 -0.15411469 -0.45172173 0.13649817
2534.9792 -425.62869 -435.51266 0.98059905 -0.1549274 0.12009598 0.076693505
2537.7954 -432.93521 -395.90219 0.86744934 -0.27472362 -0.41479948 0.068554021
2594.4353 -423.15445 -315.69986 0.60190165 -0.77961308 -0.17296784 0.065436535
2542.1443 -417.72324 -396.06149 0.85786164 -0.28934991 -0.42467639 0.083038814
2535.9612 -449.99835 -395.98163 0.9030841 -0.038714286 -0.42771524 0.11436554
2578.9883 -508.08014 -446.05328 0.7425406 0.60451823 -0.28842881 0.10957555
2562.9006 -489.44556 -442.30923 0.77965921 0.59804153 -0.18568209 0.088536397
2563.917 -473.1344 -482.10666 0.74690974 0.36468998 0.55599201 0.074539304
2554.4312 -455.13654 -479.72012 0.81445456 0.27661639 0.51004618 0.091283552
2564.7793 -448.13904 -313.20108 0.54625535 -0.83277202 0.089977287 0.091179006
2536.011 -459.51379 -437.53189 0.94802904 0.22922049 0.22067839 0.069665052
2539.6692 -461.97937 -446.85007 0.92229712 0.25655019 0.28905025 0.059375376
2541.0879 -417.63565 -401.55042 0.89125413 -0.31081957 -0.33023825 0.087518014
2580.3162 -481.63763 -495.81995 0.6685335 0.36590254 0.64743978 0.15136974
2532.72 -453.01218 -402.31091 0.98402703 -0.0069678556 -0.1778826 0.10369368
2535.573 -435.59674 -401.55682 0.92202276 -0.26054019 -0.28634387 0.075197607
2572.8167 -464.64865 -497.32373 0.73112285 0.31453109 0.60541683 0.1428864
2573.7634 -411.29843 -358.06921 -0.65928531 0.08832673 0.74668688 0.084099174
2535.6101 -426.25888 -445.55402 0.98995101 -0.070992917 0.1222989 0.073785491
2547.7415 -400.05142 -400.91696 0.88846338 -0.31721157 -0.33167705 0.12840109
2564.469 -491.10382 -455.29419 0.82382077 0.56432134 0.053486414 0.090372838
2566.1951 -427.82993 -362.09747 -0.6591081 0.13925396 0.73904318 0.11079739
2536.009 -444.93448 -446.76895 0.97282797 0.063164994 0.22274643 0.048523732
2602.4741 -415.49588 -326.58694 0.51523679 -0.84562027 -0.13948968 0.080342099
2632.3699 -401.6637 -329.98514 0.4420853 -0.8969695 -0.0025005562 0.12489373
2576.7427 -440.17355 -326.09802 0.73657602 -0.67621529 0.013735209 0.093183607
2584.2043 -429.07474 -325.81931 0.64500242 -0.75001061 -0.14647858 0.071098424
2617.2585 -407.56967 -334.21429 0.14524764 -0.98908609 -0.02473459 0.1166662
2558.7209 -439.13449 -370.73907 0.71018142 0.074674658 -0.70004719 0.15210617
2558.5249 -459.47836 -330.14569 0.24201675 -0.77511942 0.58362472 0.057325706
2543.3618 -406.7749 -412.04346 0.90326452 -0.37344545 -0.21130952 0.12485375
2551.4951 -474.55746 -457.51886 0.72716618 0.55689412 0.40137053 0.075673886
2564.375 -421.47797 -366.11783 -0.68487793 0.15734537 0.71146655 0.10025433
2612.8765 -409.73398 -334.15909 0.49109626 -0.86532962 -0.10014532 0.082734078
2590.4082 -423.5741 -331.24182 0.6080187 -0.77718318 -0.16217127 0.082134753
2536.1924 -425.98376 -412.03616 0.94877118 -0.26478612 -0.17239943 0.075461783
2564.895 -494.08472 -461.24072 0.81102192 0.57815826 0.089310937 0.073881902
2531.2922 -460.26654 -411.78519 0.99270415 0.11571518 0.033889808 0.099089772
2565.4688 -404.88544 -366.46506 -0.70680147 0.014640301 0.70726043 0.096920781
2531.8394 -444.60101 -412.87308 0.9913395 -0.12514374 -0.039811727 0.07544288
2540.7073 -456.36359 -454.33664 0.87706631 0.25147161 0.40928802 0.046549372
2605.1021 -429.33362 -291.28702 0.51107079 -0.6184994 -0.59687954 0.068556823
2595.2996 -439.1142 -288.35324 0.56186992 -0.62309241 -0.54411215 0.082632348
2560.4399 -399.78287 -369.28113 0.72286403 0.045625884 -0.68948233 0.11015473
2613.7747 -409.88934 -328.59503 0.46599925 -0.88284862 -0.058506656 0.080118567
2631.1736 -402.39114 -330.01547 0.40521953 -0.91350526 -0.036128394 0.13451634
2570.4072 -447.96268 -373.35513 -0.4118202 -0.59618068 0.68918264 0.12130074
2591.1282 -424.01187 -326.13699 0.60751867 -0.78267789 -0.13541183 0.075185478
2563.0261 -416.62936 -366.15234 0.72331858 -0.13580537 -0.67702818 0.088198252
2575.4241 -439.62323 -325.86963 0.7268154 -0.68632144 -0.026500419 0.097911485
2554.8672 -432.08823 -371.03577 0.75863552 -0.1696188 -0.62904817 0.098162532
2553.5227 -455.42307 -323.02533 0.29006881 -0.78957033 0.54077613 0.06691698
2533.8076 -430.68259 -413.24313 0.96827412 -0.23540197 -0.083851665 0.068705775
2549.2642 -440.74133 -375.98724 0.76928353 -0.078508757 -0.63406563 0.10791297
2535.4966 -461.90271 -414.31445 0.84512472 0.5330019 -0.040904783 0.11337379
2542.0488 -462.14819 -327.89444 0.25897044 -0.78670663 0.56038111 0.050631236
2575.1362 -505.31436 -466.69656 0.83464456 0.50366992 0.22290143 0.10770973
2559.4255 -425.20981 -369.42599 0.69866925 -0.15445319 -0.69857389 0.097019322
2559.8433 -407.90121 -371.04697 0.77011997 -0.065775618 -0.63449889 0.098557107
2603.9414 -413.47037 -333.97519 0.5232659 -0.84186393 -0.13212831 0.098385498
2611.8203 -408.08856 -335.88412 0.28371841 -0.948955 -0.13779797 0.12199716
2545.3909 -463.5329 -458.22168 0.83745337 0.2812306 0.46859494 0.053770237
2567.1462 -490.17209 -421.17029 0.80485928 0.58129871 -0.11955494 0.12154228
2540.887 -411.59845 -413.6315 0.89647919 -0.39018279 -0.20995817 0.099033169
2530.6951 -447.4968 -413.03152 0.99442643 -0.10522114 -0.0066783889 0.078675613
2555.9932 -479.36789 -459.80365 0.76191741 0.55422372 0.33513868 0.079326339
2541.3689 -430.112 -390.22754 0.82410562 -0.25013694 -0.508214 0.067946486
2579.208 -424.90442 -349.06815 -0.62795281 0.38391501 0.6769672 0.090131067
2616.792 -410.39789 -312.724 0.37302104 -0.91550034 -0.15071315 0.072119854
2546.3711 -456.49448 -395.88312 -0.45247185 -0.60473287 0.65541393 0.10368273
2545.4456 -415.4176 -390.78201 0.85247886 -0.24624443 -0.46113279 0.083733156
2583.0122 -434.2066 -309.63928 0.65889817 -0.72252172 -0.20932157 0.087961957
2585.5688 -410.5575 -349.07037 -0.58587217 0.18113978 0.78990006 0.091026135
2595.6741 -422.7847 -311.2334 0.59668982 -0.77706939 -0.20031074 0.076411538
2536.665 -444.60657 -391.4949 0.85547304 -0.19470239 -0.47985089 0.073102348
2550.8821 -403.59225 -386.32263 0.85637289 0.045618862 -0.51433885 0.12845625
2570.5127 -444.13098 -307.76376 0.6196422 -0.77868885 -0.098423399 0.10364919
2600.291 -409.90622 -340.64545 -0.56517148 0.43681273 0.69983989 0.1225609
2542.887 -444.2724 -384.43567 0.79062325 -0.11413736 -0.6015709 0.098618872
2583.6038 -436.85498 -302.74564 0.61409277 -0.67334169 -0.41170505 0.085614771
2545.5049 -428.39789 -384.0358 0.80487186 -0.21280938 -0.55397969 0.068363823
2577.8042 -425.97577 -343.72733 0.56649548 -0.62040073 -0.54238898 0.11059951
2595.3289 -395.17297 -344.30225 -0.49887833 0.064933203 0.86423612 0.090926915
2600.3508 -422.75598 -303.01538 0.55429739 -0.72053403 -0.41663551 0.074483596
2549.7275 -396.38486 -385.23303 0.89277536 -0.11525158 -0.43551034 0.12136592
2549.239 -413.97198 -384.0567 0.81835026 -0.24556604 -0.51961547 0.086057343
2553.4409 -470.38525 -340.43152 0.20620398 -0.64774626 0.73341984 0.035699248
2573.4902 -447.14285 -299.89749 0.57295984 -0.70475233 -0.41837922 0.1038741
2546.3171 -466.33008 -455.3317 0.82486749 0.39877352 0.40071598 0.061340231
2563.7849 -427.19061 -364.57788 -0.67475927 0.16987137 0.71822256 0.10855129
2532.6084 -454.05225 -406.81247 0.99035835 0.037183717 -0.13344543 0.1112501
2539.8391 -417.63373 -405.61569 0.90590876 -0.29746997 -0.30139828 0.082477428
2538.6704 -446.22205 -453.47626 0.93000221 0.15531527 0.33312613 0.055565033
2558.8196 -441.09549 -372.6795 -0.60281163 -0.3632898 0.71037924 0.13290179
2565.8862 -409.64047 -364.90277 0.70474315 -0.11987232 -0.69926226 0.092607401
2535.323 -434.5925 -405.74933 0.93484044 -0.25937855 -0.24247909 0.077770397
2541.4456 -464.24677 -410.14938 -0.56052315 -0.79804039 0.2212359 0.081493415
2554.0818 -479.84116 -454.97763 0.76466256 0.62579846 0.15384227 0.065368369
2577.1169 -512.49652 -462.36841 0.80859888 0.57899028 -0.10458574 0.13296008
2591.3682 -426.96783 -310.42441 0.61141557 -0.7613582 -0.21564957 0.079501763
2623.0027 -407.7995 -314.38623 0.33435556 -0.93360358 -0.12880512 0.089738652
2579.1704 -437.60815 -309.07156 0.62688679 -0.75146753 -0.20569268 0.093999408
2602.5347 -418.47141 -312.42639 0.52198279 -0.8405382 -0.14501548 0.073350281
2568.863 -444.97238 -310.13446 0.53895283 -0.8422178 0.014107044 0.10419257
2555.374 -482.20523 -350.36389 0.1809869 -0.58330423 0.79183328 0.028923828
2577.6675 -440.12805 -306.08939 0.63771534 -0.71710026 -0.28122297 0.10189753
2623.2083 -408.75024 -310.66193 0.30243132 -0.93866259 -0.16567399 0.081117511
2605.8049 -417.68152 -308.9552 0.51838499 -0.84680492 -0.11915718 0.080227338
2587.5271 -408.23361 -348.34799 -0.55239201 0.17120127 0.81581444 0.093163721
2580.5186 -422.74924 -349.16895 -0.62553477 0.31529322 0.71365011 0.088821732
2588.8999 -429.74265 -307.54004 0.63482893 -0.72562504 -0.2654441 0.081988364
2532.8447 -457.65735 -418.83743 0.9795143 0.18193537 0.086320423 0.10461197
2559.3486 -477.41055 -468.32584 0.779064 0.49108404 0.38973811 0.080457091
2559.0112 -416.92432 -372.06393 0.74336869 -0.22078079 -0.63139433 0.085794806
2532.0264 -440.52692 -419.117 0.98683566 -0.15699551 0.038830068 0.06655293
2565.1907 -459.3725 -335.71252 0.37570465 -0.73366392 0.56620073 0.10387485
2557.1558 -435.91962 -372.34174 0.71674669 -0.0084172646 -0.69728285 0.13273093
2614.2429 -406.48096 -337.22226 0.54277015 -0.70887858 -0.45043504 0.09197662
2557.8579 -400.7066 -373.09985 0.79201704 0.10883244 -0.60072005 0.10670466
2540.8169 -437.24734 -463.53528 0.8949796 0.18711704 0.40496752 0.060471047
2549.8389 -459.31378 -468.63763 0.81609297 0.2576603 0.51730406 0.056317244
2592.916 -421.0455 -336.55823 0.56778306 -0.77669489 -0.27270389 0.10515285
2536.0144 -422.24368 -419.45605 0.95591819 -0.28048912 -0.086868905 0.083693251
2550.811 -401.11063 -384.04355 0.8652494 -0.052849859 -0.49854824 0.1179144
2549.1709 -419.39401 -382.74496 0.79541075 -0.26352382 -0.54578108 0.078529872
2591.9326 -396.12155 -346.74789 -0.46990454 0.061242193 0.8805902 0.072353765
2580.041 -427.48703 -343.10599 0.54505193 -0.64709795 -0.53308785 0.09889695
2533.3835 -426.34421 -424.61963 0.96943432 -0.2421834 0.039297923 0.084537044
2591.8237 -414.08453 -344.41119 -0.5399189 0.42023045 0.72931063 0.11395267
2533.7554 -461.51733 -428.38834 0.96226364 0.16857018 0.21361822 0.067294121
2560.9529 -476.18109 -473.47141 0.73891908 0.4205552 0.52643317 0.077499911
2562.249 -486.76553 -434.8158 -0.69015557 -0.70357931 0.16929694 0.083019666
2554.822 -460.06815 -476.12726 0.77652901 0.29743668 0.55545849 0.06476111
2563.8674 -459.26111 -387.71301 -0.3235063 -0.63678014 0.69989622 0.067455254
2531.9685 -443.96014 -428.30743 0.98855698 -0.019398173 0.14959562 0.059393328
2542.0498 -437.12711 -385.66299 0.81382334 -0.22650121 -0.53515303 0.068132259
2538.6438 -423.86893 -400.87473 0.8911497 -0.32800442 -0.31347293 0.069498502
2636.8411 -401.39478 -324.96729 0.33132783 -0.94342768 0.012887122 0.15372168
2589.2832 -426.13065 -319.84192 0.62995213 -0.76410586 -0.13893369 0.069609918
2552.155 -453.93375 -318.01382 0.34461588 -0.84276384 0.41350818 0.075885043
2536.5449 -452.40802 -443.69293 0.95032281 0.15793675 0.26822108 0.057946742
2531.5999 -456.14587 -401.81754 0.97240418 -0.018662896 -0.232555 0.1110229
2569.0364 -415.87103 -360.92294 -0.66408736 0.088884689 0.74235266 0.09037441
2579.8445 -512.24744 -453.27167 0.7259075 0.64692801 -0.23354329 0.12525386
2620.8799 -407.33878 -323.27829 0.3757489 -0.92263681 -0.086914152 0.08256676
2560.8076 -432.13843 -364.6268 0.70768636 -0.21159743 -0.67409682 0.10880761
2549.3928 -473.44159 -446.30978 0.73686719 0.66094828 0.14203556 0.066704527
2572.7644 -440.66422 -318.72092 0.67121965 -0.72558951 -0.15160488 0.099194445
2534.1418 -440.7485 -400.93777 0.93419415 -0.22255594 -0.27883723 0.079735443
2568.8887 -398.31247 -360.71844 -0.64427823 -0.1811578 0.7430259 0.08231955
