# .PCD v0.7 - Point Cloud Data file format
VERSION 0.7
FIELDS x y z normal_x normal_y normal_z curvature
SIZE 4 4 4 4 4 4 4
TYPE F F F F F F F
COUNT 1 1 1 1 1 1 1
WIDTH 615
HEIGHT 1
VIEWPOINT 0 0 0 1 0 0 0
POINTS 615
DATA ascii
2551.5857 -738.07269 -363.58096 0.86831033 -0.30908436 -0.38794848 0.11668657
2554.4187 -675.89294 -366.05884 0.95714372 0.0076379091 -0.28951257 0.12403267
2554.052 -723.32971 -367.54553 0.90492535 -0.14943972 -0.39846948 0.087533809
2639.6401 -677.3006 -284.89355 0.89508766 -0.42031711 0.1488343 0.18426062
2615.4883 -747.12006 -283.43729 -0.66459459 -0.15589583 0.73076022 0.063907497
2570.8894 -730.62616 -321.59024 0.71870536 -0.50595677 -0.47693852 0.10245956
2604.0583 -700.08221 -238.79305 0.61324513 -0.59767747 0.5164417 0.11073291
2637.6384 -760.00879 -260.25183 0.79459631 -0.0042641154 -0.6071232 0.071732968
2619.4426 -692.50079 -252.01848 0.67788523 -0.68317497 0.27155757 0.099782258
2606.7363 -703.87048 -250.22076 0.62581474 -0.71756184 0.30571383 0.096982583
2645.033 -734.77783 -255.38867 -0.63410205 0.047478195 0.77179039 0.071984999
2600.7939 -712.06628 -248.04393 0.70595509 -0.45889249 0.53948593 0.12578844
2637.9312 -745.97375 -259.77225 0.73672724 0.010005719 -0.67611599 0.062774695
2551.053 -689.72662 -392.71634 0.98261809 -0.038669776 -0.18156625 0.089063257
2627.9421 -749.15192 -272.17383 0.78311342 0.11245625 -0.61162645 0.073409967
2565.1487 -687.58838 -439.09451 0.73296994 -0.20069942 0.6499806 0.062240571
2633.0581 -682.37506 -265.73193 0.77833879 -0.61578083 0.12248558 0.12028898
2628.0696 -713.58795 -266.88422 -0.52002317 -0.15837938 0.83934015 0.18108636
2590.5132 -711.82678 -309.8898 0.72378772 -0.24353933 -0.64561594 0.086726256
2549.3208 -706.1911 -393.84479 0.97052455 -0.1382364 -0.19741522 0.081647702
2563.8655 -699.1355 -354.74985 0.85274863 -0.040333923 -0.52076185 0.12420435
2588.553 -696.19702 -308.55649 0.77334839 0.20816126 -0.59883314 0.11610464
2552.5508 -670.17749 -392.13962 0.98956525 -0.11324169 -0.089089319 0.15255889
2561.4321 -717.22632 -354.62421 0.90722853 -0.14339055 -0.39544344 0.11448003
2564.811 -682.38879 -355.80176 0.75812018 -0.18118393 -0.62643927 0.1627434
2627.9209 -731.21027 -269.61456 -0.65559292 -0.066297114 0.75219852 0.070882902
2579.5024 -727.30389 -313.51089 -0.64561498 0.39042088 0.65631759 0.092142664
2623.4333 -696.02478 -264.69586 0.77742898 -0.52553147 0.34557319 0.11153677
2559.2627 -723.38409 -357.92651 0.87439573 -0.29825753 -0.38271996 0.10772843
2616.8323 -744.53979 -281.1041 -0.64797503 -0.16274668 0.74407113 0.065481633
2548.0398 -701.39203 -403.2283 0.99375397 -0.096431263 -0.056160491 0.083933376
2635.9736 -687.5791 -280.36563 0.87872016 -0.36034775 0.31305012 0.13755454
2578.6047 -717.84796 -320.23053 0.73183376 -0.38669378 -0.56114817 0.10734611
2564.0164 -678.17511 -361.58664 0.76714867 -0.33263078 -0.54848856 0.17388517
2554.5562 -675.73071 -401.30737 0.8785587 -0.47694892 -0.0255806 0.12943882
2641.522 -704.17816 -276.05933 0.29421258 -0.034444399 0.95511913 0.1320727
2550.4011 -687.42407 -403.14929 0.98292142 -0.17358404 -0.061107244 0.098625585
2618.1465 -731.1618 -278.09531 -0.68046016 -0.12901226 0.72133887 0.077712767
2584.0037 -702.83649 -321.27081 0.77871364 -0.21686119 -0.58870733 0.11683325
2546.1812 -718.02686 -404.01184 0.98713732 -0.14627364 -0.064528994 0.098251611
2561.9521 -693.1225 -358.39587 0.86192745 0.10074928 -0.49692121 0.12421621
2600.7932 -697.14191 -235.21341 0.53296173 -0.4749915 0.70023912 0.12229463
2639.7454 -675.62909 -277.77832 0.81548089 -0.5596233 0.14769129 0.14198373
2589.7791 -711.4458 -234.96239 0.60342538 -0.29117656 0.74235708 0.18554018
2613.2815 -712.9472 -279.23279 0.76280731 0.14307362 -0.6305989 0.14885457
2568.0581 -733.08978 -320.52298 0.68377095 -0.55286115 -0.47623715 0.11633688
2562.5334 -709.49438 -357.06189 0.87792474 -0.081201077 -0.47186279 0.1107192
2553.3042 -683.67578 -414.55618 0.94359744 -0.27674949 0.18175152 0.10656717
2547.6794 -719.68872 -422.30597 0.92708606 -0.34383997 0.14928326 0.14609431
2551.2832 -726.06915 -374.13519 0.88137138 -0.21513782 -0.42059511 0.10209067
2556.0798 -690.44116 -371.37961 0.94639033 0.084859483 -0.31167969 0.10175474
2556.4282 -709.37573 -371.14923 0.91393822 -0.086818434 -0.39645869 0.093614019
2550.4109 -702.61566 -417.81302 0.97001278 -0.10387935 0.21973687 0.10097814
2629.9172 -753.88397 -270.65805 0.80828071 0.1022447 -0.57985198 0.074180432
2642.02 -671.39703 -268.90598 0.82186162 -0.56840122 0.038255759 0.16510262
2629.5483 -740.04474 -268.58856 0.73731869 0.073057093 -0.67158306 0.066069439
2586.8289 -712.45215 -313.12421 -0.63458496 0.32575181 0.7008478 0.0975376
2584.3521 -701.30438 -229.06793 0.43436685 -0.32098055 0.84160376 0.17581666
2628.4758 -725.31757 -267.44437 -0.692514 -0.14428501 0.7068283 0.10115478
2632.5449 -684.02789 -266.88968 0.83759928 -0.47916317 0.26235488 0.11621425
2616.6711 -708.30017 -264.69064 0.63384646 -0.54582977 0.54800415 0.15706922
2625.4329 -695.966 -266.2496 0.79355288 -0.45447704 0.40462872 0.11615583
2579.6323 -725.06714 -313.8204 -0.64149797 0.36506113 0.67469305 0.099411756
2578.3494 -735.43927 -308.28958 -0.57937956 0.55974233 0.59245914 0.11340608
2585.2554 -695.61426 -316.53378 -0.69247329 0.058625009 0.71905762 0.13697925
2550.1062 -687.84918 -407.00192 0.98645055 -0.16405834 -0.00037415844 0.098570794
2547.4272 -705.80865 -408.09985 0.98891753 -0.14734693 -0.018193845 0.082478553
2556.3174 -713.18414 -368.08026 0.90401262 -0.071833067 -0.42142758 0.081785977
2581.0867 -691.49438 -325.03339 0.85589951 -0.083184108 -0.51040804 0.13870049
2555.8865 -674.72119 -364.3187 0.94479334 0.067779787 -0.32057989 0.13172206
2639.5352 -673.89099 -282.25635 0.95005268 -0.30407083 0.070291512 0.19607766
2617.1494 -745.56067 -281.88031 -0.66868919 -0.13152704 0.73181653 0.068076611
2570.1343 -727.31036 -325.42029 0.777327 -0.43438196 -0.45505497 0.098571055
2621.3875 -709.13403 -274.49738 -0.61385423 -0.012442141 0.78932136 0.15548924
2614.1812 -725.26294 -281.08963 -0.68614113 -0.099185757 0.72067505 0.088293813
2557.0967 -694.88458 -365.82883 0.92876774 0.051116146 -0.36712068 0.091629721
2582.0527 -710.61847 -321.90878 0.76180154 -0.35708195 -0.54050982 0.10594797
2550.1201 -706.52606 -384.45825 0.9693839 -0.083326243 -0.23097973 0.079044245
2553.7795 -705.23187 -428.12891 0.89206779 -0.11625413 0.43669218 0.10300624
2596.7097 -712.42108 -302.90546 0.72152674 -0.32371387 -0.61205268 0.078651175
2633.7698 -742.07819 -263.98129 0.76931769 0.048883125 -0.63699347 0.060074996
2574.7864 -738.94727 -309.30792 0.67250037 -0.37866586 -0.63588947 0.12761964
2587.0203 -725.45538 -305.96597 0.65284836 -0.3987411 -0.64404541 0.093259394
2625.5662 -694.33154 -262.71695 0.7923708 -0.46395937 0.3960937 0.1153148
2632.5549 -726.0545 -264.51312 -0.67233181 -0.082313031 0.73565918 0.10728329
2564.3269 -684.07086 -351.30551 0.75168967 -0.0063944715 -0.659486 0.13242164
2562.7717 -715.41101 -348.21964 0.91112947 -0.16542588 -0.37746167 0.10757914
2633.0076 -682.28851 -262.40601 0.78615808 -0.5982036 0.15526734 0.098196596
2567.2034 -701.52893 -347.48972 0.85540271 -0.10763363 -0.50665694 0.12939294
2611.3035 -708.45264 -259.45236 0.61004466 -0.63758403 0.47045946 0.11691493
2633.6382 -756.92694 -265.48563 0.79254943 0.090713672 -0.60302275 0.064078659
2559.8474 -729.7157 -346.68344 0.88149083 -0.3415097 -0.32610592 0.10679826
2555.155 -681.70819 -368.01337 0.94842422 0.087720811 -0.30462524 0.10329184
2549.8335 -697.82922 -412.09677 0.98613602 -0.1443646 0.081820473 0.097623058
2552.6411 -679.32312 -409.74158 0.96030891 -0.27376595 0.053469419 0.11234359
2547.8606 -715.08154 -411.79282 0.99698418 -0.028427798 0.072211049 0.10363486
2553.8896 -719.57294 -370.69714 0.90831202 -0.13378973 -0.39632002 0.084912628
2556.1042 -700.92242 -368.84854 0.92689306 0.034179382 -0.37376595 0.090423621
2643.2483 -671.63092 -275.6777 0.75891757 -0.64863652 0.057574186 0.16951045
2635.9128 -682.95514 -276.02475 0.8619256 -0.44395041 0.24493314 0.14244556
2584.2971 -678.51343 -349.86966 -0.23177342 0.066226959 0.97051281 0.20699666
2564.3474 -705.7865 -353.44324 0.86036766 -0.069259636 -0.50494617 0.12032323
2585.3259 -699.53186 -319.23337 0.75743246 -0.18341787 -0.62662107 0.11311463
2572.0066 -729.26764 -318.69559 0.7015546 -0.42730996 -0.57028711 0.12148473
2546.3967 -712.49994 -398.42401 0.97662359 -0.15589139 -0.14800096 0.084374942
2550.5476 -682.51013 -398.72626 0.981484 -0.1101016 -0.15673803 0.10192544
2548.6426 -697.612 -398.70438 0.98039347 -0.12923989 -0.14874691 0.084397241
2632.0337 -698.01086 -277.49323 0.85604829 -0.28545406 0.43092614 0.11253799
2561.5984 -720.15656 -353.62177 0.90326965 -0.22396953 -0.36598024 0.1195126
2620.5366 -741.40112 -277.56494 -0.69368291 -0.16377488 0.70141417 0.066826068
2562.7163 -688.07434 -356.37021 0.8429991 -0.016866688 -0.53765053 0.13347752
2624.1812 -713.78217 -270.21869 -0.61903685 -0.12678778 0.77506012 0.15581906
2617.8982 -725.71808 -275.89932 -0.68987125 -0.21653223 0.69079041 0.11338632
2582.135 -714.78577 -317.04367 0.66416627 -0.3783116 -0.64479721 0.10279575
2551.0813 -681.28979 -406.52069 0.96838361 -0.24417356 0.051111706 0.11130461
2554.4209 -720.82416 -368.40634 0.90529925 -0.13763258 -0.4018589 0.08743418
2557.2913 -687.78223 -363.90073 0.92704582 0.088106975 -0.36444911 0.091329038
2559.5811 -671.58514 -364.29944 0.92053413 -0.22172993 -0.32164073 0.15076149
2598.2473 -703.22394 -235.90187 0.60433906 -0.59302568 0.53206658 0.14423551
2547.9485 -695.99548 -407.87357 0.99377096 -0.11055391 0.014041095 0.081913203
2557.5024 -705.04163 -366.1167 0.91310209 -0.01517837 -0.40744844 0.087248728
2667.4463 -757.06647 -244.47704 -0.34141868 -0.040990595 0.93901706 0.11619106
2608.2393 -713.97992 -284.98071 0.78407609 0.012694133 -0.6205349 0.11137535
2606.5603 -731.39117 -287.98376 -0.64799678 0.099007607 0.7551806 0.075108804
2571.8677 -717.36755 -328.54559 0.81190681 -0.34751338 -0.46908614 0.097805515
2568.1497 -731.75513 -323.83109 0.70229447 -0.59184825 -0.39559841 0.1060487
2547.8865 -714.9931 -411.00613 0.9967016 -0.060740564 0.053818978 0.10454561
2643.1697 -669.65137 -285.1524 0.85201246 -0.52242291 0.033897441 0.18462414
2617.1462 -689.05933 -239.04079 0.64400429 -0.67418468 0.36157089 0.10381921
2579.9392 -701.98145 -327.55225 0.77193427 -0.30967924 -0.55517232 0.11269528
2551.0286 -699.85651 -420.51324 0.94642127 -0.1612021 0.27982262 0.094738774
2549.0776 -720.57678 -381.22318 0.9262442 -0.13183972 -0.35311466 0.10658222
2553.187 -683.9646 -378.08203 0.97890544 0.0066836081 -0.20420435 0.096493162
2555.3574 -683.18823 -419.88806 0.89986867 -0.31846535 0.29802039 0.10585652
2552.3796 -703.26813 -379.1203 0.94653046 -0.075098775 -0.31375185 0.08571323
2553.2219 -675.55469 -399.64319 0.9518137 -0.28338227 -0.11723979 0.12712316
2562.4868 -702.78522 -357.62149 0.87431711 -0.074721508 -0.47956881 0.11197094
2549.2769 -693.43951 -400.56348 0.98632777 -0.10135253 -0.12994319 0.085767873
2572.9033 -692.24713 -449.15729 0.71695936 -0.19619226 0.66893786 0.082371257
2561.9136 -682.33264 -359.32703 0.85724264 -0.072864756 -0.50973105 0.14214239
2558.7749 -720.95374 -359.89383 0.88915825 -0.18278135 -0.41950995 0.10611657
2546.3716 -711.80902 -401.77603 0.98487222 -0.1250511 -0.11995394 0.08179266
2561.8083 -698.11487 -438.37164 0.784594 -0.1114897 0.60990357 0.066901267
2559.832 -728.28955 -349.11496 0.82835656 -0.47771966 -0.29259071 0.11701921
2549.1838 -704.0163 -392.03635 0.97734332 -0.086608358 -0.19312969 0.075340994
2566.2837 -680.06995 -438.76251 0.75343817 -0.18581624 0.63071644 0.065274544
2566.9551 -692.99896 -350.25024 0.84248066 0.00043592445 -0.53872639 0.13557002
2564.9424 -712.59973 -350.01965 0.88917089 -0.17295995 -0.42362714 0.11945479
2573.6252 -683.45459 -357.43259 -0.14291914 0.65552628 0.74152505 0.1860695
2550.7898 -684.03491 -390.32117 0.99336171 -0.012436036 -0.11435831 0.097546741
2581.1218 -680.12006 -356.66043 -0.018835831 0.48264012 0.87561619 0.18181857
2550.8586 -681.27063 -390.63553 0.99496675 -0.039262321 -0.092193335 0.099486209
2625.4705 -696.73785 -265.22165 0.80795437 -0.40537992 0.42764103 0.11474903
2633.3264 -682.57111 -265.48837 0.78540272 -0.60708207 0.12080543 0.10890938
2565.7336 -701.36987 -443.71204 0.78435284 -0.068017401 0.61657459 0.092598349
2564.5649 -706.21576 -351.33179 0.88502401 -0.074451208 -0.45955363 0.11801854
2625.7612 -730.40167 -270.17212 -0.65003049 -0.14084682 0.74674124 0.087768771
2563.4773 -681.47919 -434.81854 0.75703812 -0.24556565 0.60546744 0.056629781
2628.5344 -748.66901 -270.19046 0.7405147 0.069348991 -0.66845244 0.070757441
2593.4705 -703.87512 -305.89404 0.76795006 -0.037914261 -0.63938659 0.099136911
2647.0168 -667.98145 -266.90714 0.71799207 -0.69295639 0.06556607 0.17812641
2547.51 -671.95813 -389.68884 0.92928046 0.35063753 -0.1161512 0.15870267
2565.0261 -689.26886 -352.79373 0.79743397 -0.042654797 -0.60189664 0.13748778
2589.0281 -719.01477 -308.02673 0.67633212 -0.35590774 -0.64490664 0.092885599
2624.4131 -713.53088 -266.91983 -0.37140539 -0.42181253 0.82712287 0.21633758
2576.3408 -734.97009 -310.52002 -0.62593144 0.42827153 0.65176171 0.10786954
2560.7249 -723.18048 -351.28754 0.9053902 -0.28692853 -0.31295457 0.11343475
2549.5574 -699.46527 -392.11023 0.97733372 -0.081830032 -0.19525012 0.07827998
2553.6838 -693.07776 -381.08466 0.9673475 0.010278122 -0.25324529 0.09180025
2620.0718 -699.70776 -259.25732 0.72241545 -0.47703886 0.50054955 0.11246076
2641.9707 -671.9765 -262.00241 0.77740145 -0.62574255 0.063978449 0.13571618
2634.2529 -735.95349 -263.1749 0.72916406 0.02707452 -0.68380314 0.063624837
2566.6277 -709.66272 -345.87061 0.87731314 -0.16026843 -0.4523668 0.11205097
2551.6335 -701.57654 -384.81122 0.96068466 -0.093169279 -0.26154253 0.085445054
2593.9568 -703.17816 -305.7399 0.74557978 -0.06788943 -0.66294932 0.10061198
2591.2405 -719.67761 -305.13321 0.68470722 -0.37403679 -0.62551779 0.083446838
2557.8762 -685.1778 -427.30057 0.807482 -0.2992588 0.50834727 0.077031612
2552.2588 -714.146 -427.89975 0.86119759 -0.023910083 0.5077076 0.11849333
2549.3877 -716.87653 -384.81937 0.94169319 -0.18989216 -0.27776769 0.08600878
2568.9536 -694.09692 -345.74445 0.86069328 -0.028252585 -0.50833935 0.14578223
2561.499 -725.7204 -345.91751 0.9055565 -0.28330326 -0.31576371 0.10462093
2627.969 -718.01031 -261.98175 0.82800561 0.27564096 -0.48829168 0.1799366
2551.6313 -685.0329 -383.93231 0.97979814 0.087443285 -0.17985895 0.097183138
2580.2053 -734.85864 -307.75208 -0.62961048 0.34576222 0.6957292 0.1101015
2633.5017 -752.9281 -265.01736 0.77824616 0.022364745 -0.62756097 0.059925217
2630.0491 -685.61444 -260.69006 0.83615524 -0.48971623 0.24702717 0.10996778
2554.8735 -699.67438 -428.74292 0.85440069 -0.1487584 0.49786589 0.075378604
2560.6355 -723.54321 -354.31894 0.86827117 -0.33515596 -0.3657535 0.12326308
2564.7673 -687.19226 -353.09189 0.79883456 0.12461168 -0.58850253 0.15951367
2551.6118 -677.85516 -395.89224 0.98297572 -0.1271358 -0.13264693 0.11385724
2570.0254 -695.00543 -445.97415 0.69132441 -0.14807661 0.70720851 0.080440477
2546.0515 -715.34863 -397.46265 0.97080302 -0.16260473 -0.17635544 0.085415937
2564.3113 -706.7854 -353.43405 0.86207485 -0.068809688 -0.50208783 0.12158345
2549.2676 -697.03088 -397.0517 0.97562516 -0.11251543 -0.18840343 0.085095339
2572.2236 -725.13892 -325.13086 0.76070094 -0.47247499 -0.44508594 0.095671415
2548.7258 -704.87506 -411.05521 0.99430573 -0.09746889 0.043080978 0.094601393
2550.2742 -684.69574 -407.88864 0.97955388 -0.20074958 0.013185022 0.099207409
2546.1733 -721.41241 -410.59787 0.9967916 -0.057305265 0.055880707 0.10593499
2556.7744 -715.97217 -366.88855 0.8911109 -0.10985707 -0.4402872 0.086907528
2581.3887 -707.36804 -323.85458 0.77632773 -0.30450481 -0.55189866 0.11140941
2557.0312 -695.87695 -365.82697 0.92473578 0.056016497 -0.37646496 0.089609973
2551.2078 -733.96936 -366.67761 0.85732031 -0.31645417 -0.40602794 0.10369395
2550.0601 -697.00482 -392.01199 0.97761536 -0.078677326 -0.1951361 0.083498813
2588.2244 -717.28455 -309.30695 -0.64428425 0.37205154 0.66818815 0.09570121
2547.3689 -714.0625 -392.28906 0.95484757 -0.18896344 -0.22925738 0.082857154
2574.4871 -732.37842 -313.59686 -0.66050726 0.34074947 0.66904402 0.11268341
2564.634 -687.30042 -352.49808 0.76948094 -0.034847021 -0.63771838 0.13865067
2560.8765 -696.98401 -437.09213 0.79728931 -0.10322496 0.59470528 0.07271751
2561.2644 -724.7132 -348.7475 0.88741583 -0.34596688 -0.30463096 0.10739006
2554.9485 -712.31659 -431.74734 0.81273586 -0.043254849 0.58102453 0.09387739
2551.8113 -684.32605 -390.33844 0.98136997 0.085676499 -0.17196676 0.1244142
2566.3572 -707.9176 -348.66632 0.88188869 -0.11304031 -0.45770544 0.12034136
2635.3835 -681.26361 -271.18344 0.79330373 -0.59061992 0.14777444 0.13250281
2626.6721 -695.99579 -269.06247 0.80395323 -0.42461947 0.41636226 0.12617891
2552.0955 -675.9928 -396.41522 0.98778713 -0.083574481 -0.13149874 0.13266939
2580.5728 -688.27002 -346.18839 -0.44878453 -0.027373182 0.89322066 0.22243431
2588.6533 -713.6452 -311.63293 -0.67789203 0.27442253 0.68202251 0.086037226
2623.8079 -711.323 -269.99609 -0.62215412 -0.062947176 0.7803601 0.1719453
2589.1968 -701.05792 -309.36401 0.79274899 0.20906781 -0.57257283 0.10152489
2568.8843 -702.05762 -350.12961 0.87389261 -0.15270223 -0.46151242 0.15764049
2627.4634 -748.69989 -273.30463 0.76984996 0.11876246 -0.62707776 0.069969311
2548.8721 -709.40991 -399.55832 0.9782728 -0.15359114 -0.1392556 0.095875435
2550.3176 -692.39905 -397.56006 0.98423266 -0.068125643 -0.16323276 0.090356283
2628.0627 -731.20514 -270.61774 -0.67571646 -0.028072024 0.73662692 0.074283317
2582.6204 -727.08905 -311.43951 -0.62917691 0.41819316 0.65517241 0.095897347
2563.1018 -716.66321 -353.44205 0.89823025 -0.20357132 -0.38953957 0.11191198
2624.0242 -759.76666 -285.92584 0.83156848 0.32265869 -0.45208991 0.070898399
2555.4612 -713.32672 -368.84354 0.92208999 -0.067529581 -0.38103774 0.075420149
2552.7769 -730.51752 -365.96106 0.84587651 -0.33743501 -0.41307446 0.10181972
2556.0232 -695.87085 -368.11072 0.93789852 0.040061466 -0.34458879 0.082969964
2554.3103 -676.73865 -367.73932 0.95899016 0.026917951 -0.28215823 0.11004891
2605.7554 -735.09705 -288.3634 -0.65222484 0.016857941 0.75783807 0.082828201
2571.9604 -725.16907 -325.14926 0.76713574 -0.45745888 -0.44970444 0.099064037
2611.186 -720.05994 -283.19205 0.70871514 0.052167341 -0.70356333 0.10040807
2580.5825 -709.3465 -323.95453 0.75451463 -0.3478612 -0.55650717 0.10450352
2547.1873 -708.72723 -408.90176 0.99303949 -0.11672171 0.015767895 0.085529022
2549.5952 -691.57843 -408.89972 0.98692918 -0.15878619 0.027526455 0.091974743
2556.0422 -736.97107 -346.30273 0.86333901 -0.42098168 -0.27824491 0.1328446
2575.291 -743.89716 -308.2735 0.67615247 -0.29894069 -0.67338866 0.12620437
2545.707 -728.02106 -387.50836 0.9326123 -0.20229861 -0.29884714 0.10365368
2626.4851 -696.17023 -263.87537 0.78229886 -0.42852527 0.45207813 0.11462905
2571.2092 -695.41626 -343.20761 0.9207173 0.11059149 -0.37423149 0.18583775
2631.3706 -746.56281 -266.8732 0.75735813 0.098233216 -0.64556867 0.070166685
2565.9304 -704.66895 -348.19196 0.87624109 -0.09884084 -0.471627 0.13038062
2583.2256 -730.49542 -307.29617 -0.63044602 0.42361555 0.6504519 0.096131325
2549.6052 -712.77234 -386.63794 0.95605791 -0.15605517 -0.24819355 0.082333289
2592.2456 -715.11743 -306.22562 0.69483054 -0.33203724 -0.63793558 0.087004796
2563.0576 -720.97168 -347.10635 0.900967 -0.28631619 -0.32600841 0.1091569
2554.02 -711.34009 -430.20346 0.8189255 -0.069278128 0.56970304 0.090921678
2554.4868 -694.78772 -427.40616 0.83521467 -0.19943464 0.5124864 0.071552403
2551.0874 -696.00714 -387.01971 0.97235382 -0.079429485 -0.21958838 0.086135164
2633.5884 -763.4151 -267.38867 0.82487065 0.13444947 -0.54910082 0.065241255
2631.896 -731.01398 -263.91226 0.76011401 0.10221642 -0.64169967 0.087368645
2551.116 -723.75177 -426.10391 0.82201302 0.10142989 0.56036294 0.13641241
2615.0264 -710.664 -261.17276 0.69532853 -0.44987088 0.56047696 0.15286429
2632.5029 -682.86969 -262.52332 0.79199761 -0.59160006 0.15082814 0.097269148
2612.9509 -698.33923 -247.13435 0.66644007 -0.58157188 0.46651024 0.10610595
2623.1248 -687.37158 -246.36899 0.69634229 -0.63654703 0.33153474 0.10157376
2652.2122 -752.06293 -249.30721 -0.56029469 0.16622412 0.81144279 0.09601897
2599.2058 -709.21039 -243.65894 0.61124563 -0.60765809 0.50708032 0.11775027
2642.3379 -763.02924 -253.0524 0.71827179 -0.11664059 -0.68591589 0.081308231
2636.6858 -678.18591 -268.69885 0.86255312 -0.47214371 0.18188588 0.13371472
2632.0586 -767.42328 -274.10406 0.8555795 0.23967007 -0.45884848 0.069165207
2621.0349 -718.51208 -270.19208 -0.62633938 -0.29527882 0.72146338 0.16665079
2621.8594 -732.76984 -273.96774 -0.68855405 -0.17431277 0.70392352 0.086919762
2628.481 -751.93463 -272.34747 0.8056981 0.10950758 -0.58211571 0.077260248
2621.0149 -705.14319 -266.61655 0.74672079 -0.42369467 0.51272887 0.1503821
2631.4846 -692.4129 -271.64764 0.86946738 -0.3452397 0.3533214 0.10424431
2559.7043 -711.22681 -360.27158 0.90236324 -0.075669862 -0.42428127 0.093152657
2639.116 -673.4762 -277.84445 0.95866483 -0.28426087 -0.012548181 0.19733015
2556.7659 -727.23438 -359.33405 0.88257867 -0.27002645 -0.38489041 0.10364803
2618.5833 -719.39148 -274.53729 -0.68321288 -0.18879463 0.70539123 0.13275856
2545.9097 -719.98248 -399.98743 0.9726724 -0.18851499 -0.1355378 0.097330153
2549.7896 -706.01477 -400.94208 0.990125 -0.095539734 -0.10258963 0.097060114
2586.1626 -705.05249 -318.12979 0.75783497 -0.24466099 -0.60483652 0.11370835
2588.1868 -711.59882 -234.54701 0.53356493 -0.33598635 0.77615827 0.18384455
2560.9243 -694.81396 -359.5538 0.88169563 0.056092344 -0.46847242 0.11234961
2619.5208 -735.94354 -277.5824 -0.66475654 -0.07210055 0.74357265 0.069501415
2566.825 -735.11829 -319.54074 0.6641624 -0.56687629 -0.4873803 0.1293273
2550.6704 -687.83972 -399.84113 0.98589945 -0.11883354 -0.11781716 0.099116921
2625.887 -755.24762 -277.19434 0.79722071 0.1773501 -0.57704943 0.082459293
2580.344 -719.651 -317.40939 0.69112545 -0.36768529 -0.62221634 0.1010191
2571.0178 -708.00275 -449.98364 0.73384279 -0.11309651 0.66983873 0.10157698
2633.4478 -680.71332 -259.42035 0.85419714 -0.47275972 0.21643817 0.1161369
2620.7585 -697.69849 -257.54593 0.74271011 -0.43126389 0.51224327 0.10578275
2563.1277 -726.04681 -343.04471 0.89201933 -0.32701606 -0.31202888 0.10920221
2556.3762 -691.66559 -427.76089 0.89015347 -0.18333314 0.41715199 0.096104681
2548.8843 -715.93982 -385.61868 0.95294982 -0.15220381 -0.26214626 0.086629778
2551.7017 -678.85541 -381.51398 0.98975724 0.038658392 -0.13742691 0.10704892
2590.1931 -740.78168 -297.02881 -0.57308775 0.33394986 0.74836349 0.11026033
2552.0588 -698.00378 -383.01569 0.96434498 -0.062121484 -0.25725403 0.084772423
2641.0425 -742.86438 -257.78 -0.67612445 0.031009702 0.73613459 0.068563253
2637.6038 -760.95551 -260.17209 0.79500669 -0.014752514 -0.60642123 0.072971851
2557.0889 -712.45013 -435.54678 0.86462247 -0.13520715 0.4838874 0.11733696
2643.9683 -723.75171 -258.60022 -0.58734614 0.14134239 0.79689825 0.080378316
2593.7617 -724.422 -300.73428 0.66872722 -0.3704724 -0.64463484 0.082930565
2570.7175 -709.08441 -341.31259 0.86319965 -0.24077895 -0.44374752 0.11255481
2600.5408 -707.71631 -298.77011 0.75633872 -0.14701964 -0.63744563 0.078800358
2562.1697 -676.70782 -422.16309 0.74216563 -0.53228569 0.40726173 0.1030929
2571.0012 -689.99646 -341.54517 0.8782267 0.0030887625 -0.47823456 0.1576253
2548.9802 -692.28754 -405.89877 0.98715556 -0.15927045 0.012521745 0.090524688
2581.7766 -710.37152 -322.09662 0.74343127 -0.38195151 -0.54901999 0.10682174
2556.5461 -680.84784 -364.64151 0.91986138 0.090538234 -0.38165152 0.11073829
2547.2715 -710.30273 -407.04803 0.99563867 -0.09214092 -0.014617842 0.087953776
2638.4707 -675.19348 -284.58295 0.96555686 -0.25736612 -0.03824462 0.18159293
2557.9551 -699.08661 -365.51965 0.9060263 0.075093322 -0.41650611 0.094628304
2611.8586 -721.02454 -281.85715 -0.69811851 -0.12131273 0.70563 0.10495862
2557.6892 -715.82251 -365.35187 0.88988107 -0.12050654 -0.43998849 0.091181375
2625.9509 -761.72369 -283.91318 0.84334147 0.29783142 -0.44729361 0.067179739
2573.5854 -726.37512 -322.38882 0.73491991 -0.47083721 -0.48806253 0.096609659
2552.1851 -732.06482 -366.09155 0.85516524 -0.29957181 -0.42302382 0.10450415
2607.1565 -735.85834 -287.00888 -0.6384477 -0.021756604 0.76935762 0.08399339
2554.3594 -683.05493 -374.60428 0.9716081 0.03252472 -0.23434992 0.10435577
2551.5498 -697.93353 -419.12717 0.95279658 -0.1405782 0.26910305 0.095414579
2552.3743 -719.90161 -375.72809 0.90776521 -0.1427646 -0.39443702 0.093654811
2554.5222 -701.96283 -375.45657 0.9382953 -0.023610238 -0.34502825 0.089346401
2549.2039 -716.98077 -422.42914 0.95707369 -0.16829444 0.23598084 0.13103609
2593.1526 -725.08356 -301.14331 0.67680377 -0.3708261 -0.63594389 0.084894702
2636.938 -677.1369 -259.17297 0.7699461 -0.62566757 0.1253918 0.11809566
2586.894 -737.35034 -298.70358 -0.5919084 0.50496209 0.62821794 0.1026348
2626.168 -690.45782 -259.43829 0.76651734 -0.49944884 0.4037351 0.12253775
2571.6272 -697.87592 -341.76321 0.88582259 -0.046318963 -0.46170652 0.14590253
2635.2559 -760.021 -263.38559 0.77089316 0.021739833 -0.63659334 0.068539031
2600.1921 -710.47552 -299.46625 0.74454325 -0.21601252 -0.63165969 0.078977548
2641.0891 -729.72839 -257.87827 -0.69158125 0.038246319 0.7212854 0.069802076
2561.4062 -728.18036 -344.15405 0.86357576 -0.38337383 -0.32750788 0.1040533
2617.0791 -705.04712 -258.9342 0.69924492 -0.41631782 0.58115059 0.12778941
2568.0925 -712.77942 -343.56558 0.88103336 -0.21416773 -0.42179656 0.11359524
2576.3313 -683.0799 -344.09094 0.70378137 -0.32599136 -0.63120633 0.19768089
2636.3457 -744.05072 -261.56332 0.75483638 0.023153588 -0.65550435 0.058497936
2550.9246 -722.09711 -428.59799 0.91283536 -0.095899642 0.39690667 0.12389228
2546.6721 -727.90381 -382.86548 0.89288729 -0.26188585 -0.36628956 0.10528851
2560.2913 -733.40802 -340.28729 0.84077239 -0.49412936 -0.22121926 0.11511078
2568.6433 -716.98273 -340.08383 0.86469495 -0.3732388 -0.33614793 0.11085682
2569.0571 -698.01959 -342.93262 0.86665219 -0.1252088 -0.48294592 0.12426918
2552.6609 -703.69928 -425.76758 0.89374596 -0.13408639 0.42806429 0.093700521
2552.8879 -692.99243 -381.54175 0.97725475 -0.0035115893 -0.21203957 0.089774437
2551.5793 -710.56537 -381.81564 0.938223 -0.11921872 -0.32484531 0.084607378
2615.718 -748.50598 -282.99164 -0.64194345 -0.18459471 0.74419981 0.072865702
2617.1016 -691.77985 -242.65331 0.62616903 -0.65536964 0.42237785 0.094194427
2565.9375 -734.758 -322.55991 0.70522964 -0.57026458 -0.42124748 0.10968826
2616.667 -722.32385 -278.65021 -0.70123696 -0.097343579 0.70625138 0.10935445
2603.5806 -703.79382 -241.26054 0.62734902 -0.6026566 0.49319187 0.11393879
2615.0349 -734.99512 -281.04236 -0.63331538 -0.088069983 0.76886624 0.077729069
2591.1526 -718.24561 -238.07693 0.6414088 -0.26192269 0.7211042 0.18491179
2576.7229 -722.60889 -321.42209 0.73454684 -0.44873327 -0.50899845 0.099865414
2652.2119 -750.45813 -249.92174 -0.49947232 0.13973528 0.85498625 0.10563121
2580.3005 -709.73071 -323.95966 0.73320055 -0.41195825 -0.54102433 0.10575871
2645.8892 -739.98651 -254.85654 -0.60931939 0.074108362 0.7894541 0.071127601
2615.8911 -701.65283 -253.78734 0.68578023 -0.43807265 0.58120376 0.11606844
2601.3679 -725.19989 -294.36237 -0.69063288 0.20993614 0.69206434 0.079550475
2645.1548 -753.91162 -254.02649 -0.6540435 0.068388291 0.75335926 0.082845315
2625.9612 -689.15015 -255.96823 0.77895868 -0.49661067 0.38288534 0.11725362
2596.1855 -749.37286 -300.8251 -0.60602057 -0.38037613 0.69860792 0.10287461
2593.1995 -738.08362 -296.25235 -0.60018045 0.25164548 0.75924832 0.091715842
2608.6606 -715.50256 -252.36476 0.6778459 -0.25177649 0.69074851 0.12004444
2601.3057 -711.01837 -298.16833 0.69345456 -0.30629563 -0.65215313 0.082161807
2635.5847 -676.88074 -257.99118 0.87821454 -0.40058997 0.26127931 0.13091037
2638.9929 -767.13879 -256.56955 0.7844581 -0.05462743 -0.61777127 0.079523042
2631.7905 -683.76886 -262.69171 0.84260851 -0.46949694 0.26378685 0.10396975
2581.7502 -735.62421 -304.8089 -0.59184861 0.49244782 0.63813037 0.10367361
2570.8228 -707.6582 -342.33862 0.86664402 -0.22461636 -0.44550601 0.11478744
2556.1917 -735.05664 -344.34204 0.74414712 -0.63334316 -0.21241815 0.12131646
2564.1152 -723.13745 -344.25244 0.85535753 -0.39147621 -0.3392784 0.10980584
2544.355 -730.09198 -389.1145 0.92401606 -0.23942895 -0.2981075 0.11046004
2633.3225 -755.02203 -265.46655 0.78540629 0.025545493 -0.61845326 0.063173041
2620.9351 -699.61407 -260.32776 0.7164312 -0.47052845 0.51510131 0.1103371
2549.105 -713.46033 -388.23901 0.95180011 -0.17742582 -0.25019321 0.084519103
2632.9607 -737.00134 -264.96402 0.73765779 0.025166882 -0.67470556 0.062259655
2550.5774 -695.47668 -387.4296 0.97474426 -0.070638344 -0.21185817 0.090394624
2619.7305 -716.74176 -264.54349 0.82325447 -0.093675405 0.55989015 0.20471656
2594.2468 -720.68628 -302.54202 0.70277578 -0.33534232 -0.62741673 0.073195532
2545.5786 -730.85748 -384.85068 0.9134621 -0.17107286 -0.36921686 0.11950103
2570.9878 -704.66809 -341.03137 0.89123881 -0.14702508 -0.42904195 0.11740079
2552.3228 -696.02661 -383.08054 0.96718705 -0.079631761 -0.24126342 0.08916153
2556.22 -736.7049 -341.54657 0.79199558 -0.57622802 -0.20175292 0.12209182
2565.095 -721.43195 -342.42426 0.87511653 -0.34522408 -0.33910388 0.10955311
2554.5085 -727.75073 -433.8154 0.8055653 -0.08059717 0.58699971 0.15669328
2556.2681 -690.86957 -427.33493 0.86698258 -0.23068447 0.44173059 0.088293299
2550.3628 -714.70605 -383.48801 0.94070846 -0.16889092 -0.29418263 0.087780423
2554.5515 -708.94934 -430.25092 0.86855584 -0.098099016 0.48578528 0.10837169
2627.6125 -713.18286 -269.26483 -0.64565903 -0.015984681 0.76345849 0.14246854
2626.9604 -728.16675 -271.29175 -0.66898042 -0.018473191 0.74305046 0.077755362
2550.9443 -684.13568 -400.95285 0.99546999 0.012216592 -0.094288401 0.10361788
2625.8665 -757.75061 -278.61426 0.79422611 0.2285852 -0.56298643 0.084019929
2568.6147 -705.10553 -352.07025 0.85508347 -0.19983414 -0.47843352 0.14634995
2563.0188 -718.04169 -354.46292 0.87893003 -0.26050034 -0.39952666 0.11651994
2560.7068 -727.54932 -354.44089 0.76060587 -0.58473033 -0.28208008 0.12329676
2565.9854 -691.48718 -352.54269 0.84705818 0.13974518 -0.51279992 0.1606856
2631.533 -695.80383 -278.19958 0.8577944 -0.36026981 0.36659852 0.10468236
2637.1038 -680.64886 -278.48572 0.8959555 -0.41795662 0.15025331 0.16383277
2582.2988 -725.91144 -312.21335 -0.63651097 0.41816089 0.64807039 0.10033507
2543.8777 -726.74194 -400.85666 0.96710283 -0.22238384 -0.12352158 0.11075878
2589.5725 -713.67657 -311.23474 0.72028017 -0.22531711 -0.65607065 0.083763853
2622.5625 -742.29633 -276.61142 0.71148777 0.14664334 -0.68722695 0.068269342
2547.6721 -712.04919 -401.35071 0.97743845 -0.17442946 -0.1191152 0.092152387
2573.0825 -739.22858 -312.78009 -0.61303753 0.43370107 0.66036987 0.1291652
2549.2422 -697.64673 -401.61621 0.99404317 -0.073810533 -0.080188312 0.086540766
2622.6228 -753.04858 -280.07764 0.73616987 0.22857457 -0.6370303 0.078050159
2551.5298 -678.79468 -402.89819 0.98806792 -0.13798641 -0.068421833 0.10936651
2569.6704 -732.21857 -321.05646 0.71941334 -0.52481669 -0.45498559 0.10889303
2560.5999 -720.69629 -358.33374 0.87631112 -0.27836934 -0.39317846 0.11942098
2644.0388 -669.82043 -279.04388 0.784347 -0.61943674 -0.033135477 0.19406706
2583.8247 -716.38928 -316.74411 0.71967524 -0.36305141 -0.5918287 0.10325529
2635.1411 -685.47461 -277.1676 0.85789478 -0.41293782 0.30577582 0.12938769
2619.4717 -733.44 -278.18073 -0.67615867 -0.084322408 0.7319147 0.071993873
2586.6917 -701.45166 -318.30682 0.7919389 -0.18813308 -0.58089477 0.12081868
2623.4368 -718.12183 -273.42288 -0.65467775 -0.012152333 0.75581038 0.10894261
2547.4255 -712.93646 -405.98486 0.99360502 -0.1098398 -0.026158892 0.094236664
2592.147 -713.5257 -238.46184 0.55170572 -0.39496174 0.73459244 0.17955653
2625.8665 -700.04932 -278.02655 0.86247391 -0.45714831 0.21715015 0.16157261
2549.4836 -697.25427 -405.50085 0.99449432 -0.087083668 -0.058288075 0.086899184
2563.854 -707.198 -357.03873 0.87640119 -0.076853476 -0.47540981 0.11487552
2564.3469 -691.20758 -355.41669 0.85016054 0.13414595 -0.5091483 0.15657046
2551.4141 -717.03064 -430.4668 0.8829754 -0.30536315 0.35652176 0.14072527
2554.5439 -700.28839 -426.90793 0.90953314 -0.14525028 0.38942498 0.097215243
2551.2627 -720.85529 -378.14801 0.86884522 -0.24084005 -0.43255529 0.099875987
2545.5881 -738.04504 -378.33786 0.83942103 -0.25593776 -0.4794457 0.14430329
2554.2556 -704.48889 -378.2204 0.9394002 -0.062000979 -0.33716941 0.097663037
2635.7815 -682.91754 -275.49377 0.8619256 -0.44395041 0.24493314 0.14244556
2594.3796 -716.78857 -239.20406 0.75833869 -0.17695218 0.62738371 0.18458359
2579.0193 -715.87134 -324.01517 0.76302773 -0.39915887 -0.50839043 0.092262477
2609.0581 -701.25507 -245.07066 0.63127255 -0.59973109 0.4917495 0.10590188
2580.2007 -701.07452 -327.24298 0.78963798 -0.26509172 -0.55335182 0.11097699
2622.4214 -687.56769 -244.78355 0.67912203 -0.65133548 0.33846021 0.11452772
2553.978 -723.1153 -370.02432 0.88056046 -0.19369963 -0.43254331 0.093190037
2555.1138 -686.63635 -369.32245 0.94866371 0.083866909 -0.30496475 0.093230464
2641.0718 -673.55396 -286.89713 0.88514876 -0.4574838 0.084972292 0.19064054
2612.2253 -717.81793 -284.3187 0.71546715 -0.034509145 -0.6977936 0.093896084
2664.1445 -754.74402 -244.23441 -0.44344881 0.039750323 0.89541781 0.11943392
2557.0427 -707.71698 -368.65714 0.90291125 -0.051551275 -0.42672443 0.088687904
2612.5444 -735.5517 -284.58673 -0.6135447 -0.0979551 0.78356087 0.072641
2616.6072 -755.77356 -287.82855 0.68246603 0.35675284 -0.63794005 0.080728963
2566.9277 -731.13892 -326.38629 0.71202785 -0.57179171 -0.40751758 0.10174681
2570.4526 -697.95209 -344.42108 0.86981571 -0.0091670463 -0.49329159 0.14412913
2557.5876 -721.06329 -436.55823 0.79631972 -0.085778259 0.59876287 0.12691291
2570.8921 -713.65472 -343.26813 0.83938831 -0.32835895 -0.43313694 0.11831323
2546.8547 -723.86267 -388.33017 0.91176438 -0.31278574 -0.26617813 0.10530019
2562.9463 -685.78894 -436.78922 0.79029334 -0.15831321 0.59192348 0.06782046
2552.072 -692.43225 -387.87119 0.98381847 0.035650078 -0.17558567 0.091250911
2562.1636 -704.82629 -439.31076 0.77442163 -0.04741874 0.63089031 0.083188057
2550.968 -707.84174 -388.30026 0.95426083 -0.18668838 -0.23352459 0.081335187
2560.3115 -730.21259 -345.99866 0.85626841 -0.41958299 -0.30125487 0.11151627
2609.4331 -698.32928 -242.0903 0.6646753 -0.61657721 0.42194706 0.092479944
2648.2483 -753.2489 -251.70729 -0.58615381 0.11688177 0.80172467 0.08479315
2623.8635 -685.867 -244.06006 0.68320799 -0.66551399 0.30052948 0.120614
2647.1404 -768.01727 -251.19054 -0.59182787 0.072669104 0.802782 0.11046142
2594.4829 -709.84186 -237.78571 0.73334396 -0.38010675 0.56367147 0.17031744
2562.8706 -691.47375 -357.42487 0.84452868 0.096888907 -0.52667242 0.13648942
2549.0042 -702.44794 -403.43359 0.99141115 -0.091282599 -0.093655773 0.092999585
2559.8259 -725.04242 -358.10782 0.80041522 -0.45744675 -0.38739893 0.1296117
2545.6306 -720.0993 -404.04666 0.98519635 -0.15515825 -0.072897717 0.098677151
2563.7498 -710.64117 -357.2215 0.85412139 -0.19655362 -0.48150116 0.12172925
2572.0657 -699.16913 -451.17816 0.78570783 -0.12469964 0.60589874 0.093835689
2550.8931 -683.10938 -402.08261 0.98842496 -0.12106474 -0.091430239 0.10233866
2547.1978 -718.18353 -411.47513 0.99432635 -0.035106517 0.10041214 0.10221588
2552.8479 -722.20917 -371.05453 0.90161914 -0.15920243 -0.40216601 0.091704331
2554.7405 -716.97308 -370.88251 0.90693891 -0.094130799 -0.4106108 0.084754772
2576.0549 -711.46307 -328.63721 0.80128992 -0.351724 -0.48396766 0.10052411
2550.114 -733.46136 -372.00766 0.88568425 -0.19328214 -0.42214379 0.10711594
2548.0327 -711.12231 -412.71857 0.99491948 -0.040131181 0.092329219 0.10722458
2568.3193 -727.84827 -328.71552 0.76528823 -0.4920283 -0.41502059 0.09648975
2605.6719 -721.09949 -288.49313 0.74509662 -0.044339634 -0.66548103 0.093351327
2554.6667 -697.8656 -371.34555 0.93823278 0.034394987 -0.344291 0.079344958
2597.1274 -737.72498 -292.86011 -0.58688933 0.19744276 0.78522432 0.079892516
2546.9878 -727.21997 -411.77542 0.98387879 0.09607999 0.15083492 0.12645133
2560.1467 -743.0766 -327.06934 0.81761587 -0.42680192 -0.3864511 0.13552327
2548.7151 -693.3175 -411.16669 0.98437625 -0.14880887 0.094124116 0.086522259
2627.6167 -754.16736 -274.30746 0.82758534 0.19052747 -0.52801687 0.079993576
2546.2644 -721.6076 -394.68381 0.9603405 -0.21711601 -0.17494781 0.095220454
2638.9585 -674.79028 -273.21915 0.89883995 -0.40971702 0.15562364 0.1576346
2569.5923 -692.77777 -445.39603 0.70561087 -0.11139521 0.69978881 0.081707194
2622.6672 -722.11359 -270.63205 -0.65378696 -0.22317718 0.72301769 0.13553832
2557.7278 -729.21124 -354.16653 0.91154146 -0.29618406 -0.28524932 0.11907693
2590.6157 -708.54474 -309.97791 0.7347396 -0.076293901 -0.67404521 0.092220083
2583.5068 -721.72528 -312.49942 -0.65364957 0.36412367 0.66344267 0.095466174
2633.4368 -690.91815 -274.46777 0.86490321 -0.32365584 0.38365266 0.11950291
2571.1301 -736.75977 -314.16376 -0.60696816 0.50144309 0.61655855 0.12199802
2560.8428 -694.57324 -356.24591 0.87839019 0.047800526 -0.47554788 0.094260104
2561.2429 -712.57129 -355.34937 0.90809339 -0.09894716 -0.40691015 0.11206618
2550.2937 -688.19983 -394.40756 0.97602481 -0.14119802 -0.16564614 0.095522404
2563.446 -707.18262 -440.82162 0.74561286 -0.055673998 0.66404957 0.088107705
2548.968 -705.66431 -394.37927 0.97396863 -0.10783751 -0.1993895 0.081202678
2628.0154 -708.57074 -267.35083 0.8873381 -0.042394362 -0.45916647 0.15484622
2624.8301 -737.82349 -272.92618 -0.68729788 -0.066284403 0.72334498 0.068617612
2619.7083 -742.70026 -279.88248 0.71755034 0.15264732 -0.67957366 0.065829642
2616.4326 -725.19641 -279.21014 -0.676265 -0.051737659 0.73483938 0.093770236
2558.0198 -717.83246 -363.52899 0.89085019 -0.15226978 -0.42801848 0.0947107
2642.2202 -669.3653 -283.99683 0.90599871 -0.42328036 -0.00037027433 0.15593849
2577.1599 -723.82355 -319.70047 0.72405469 -0.46290714 -0.51133335 0.097583339
2580.4158 -693.83362 -322.38193 0.84791327 0.026045397 -0.52949482 0.11471061
2586.2625 -711.75708 -316.61716 0.75611615 -0.25171575 -0.6040923 0.10173925
2625.4614 -759.93646 -281.91333 0.83984035 0.22225876 -0.49524665 0.075871199
2619.0776 -712.23456 -276.07849 0.70688629 0.02799513 -0.70677298 0.13277526
2559.6099 -702.95874 -363.30399 0.89387834 -0.026528576 -0.44752401 0.099108137
2595.749 -718.43182 -244.50723 0.57964301 -0.42359173 0.69612068 0.14967392
2554.4939 -731.49719 -361.85373 0.85068953 -0.32724804 -0.41138303 0.11208924
2556.9851 -686.66644 -364.13025 0.93014657 0.10393018 -0.35217303 0.093259484
2614.8118 -692.39648 -240.78564 0.61424404 -0.67513388 0.40853217 0.10524867
2600.7351 -704.59741 -239.95999 0.58641803 -0.61112666 0.53163719 0.11979668
2571.303 -735.32935 -317.33847 0.67139274 -0.52469081 -0.52338451 0.11698019
2627.835 -680.5694 -243.53528 0.72004175 -0.56708384 0.39994472 0.1481341
2555.8313 -680.76025 -417.47687 0.89300287 -0.37076002 0.25511348 0.10656565
2554.9692 -690.14459 -373.4313 0.96069723 0.068398803 -0.26903975 0.08727055
2555.8945 -710.03198 -372.78854 0.90430933 -0.12319729 -0.40871397 0.096269995
2550.9355 -727.52997 -374.41833 0.86254835 -0.25036874 -0.4396883 0.10452333
2549.0049 -717.78833 -421.54718 0.95938033 -0.10177264 0.26311931 0.12547456
2579.6775 -700.7431 -330.7092 0.85578477 -0.2488497 -0.45354855 0.12300578
2565.7502 -730.41846 -331.61249 0.65767157 -0.68777263 -0.30730587 0.11461167
2551.1929 -699.19092 -418.64774 0.94794643 -0.15172397 0.27995962 0.09516602
2574.7764 -717.49512 -330.37775 0.777116 -0.43763533 -0.45228979 0.095428623
2554.4207 -726.01385 -366.39325 0.86225706 -0.30694875 -0.40285885 0.092708021
2549.043 -701.64374 -410.00818 0.99281567 -0.11962242 0.0027492587 0.092360877
2561.4443 -710.3454 -362.65253 0.86965346 -0.12452271 -0.47769967 0.095340438
2550.7795 -682.09845 -408.00717 0.9920758 -0.12530869 -0.0091307117 0.10493589
2559.5703 -691.65399 -363.92654 0.89844573 0.091387905 -0.42946893 0.13598675
2547.8015 -719.99377 -411.01535 0.9965452 -0.031124322 0.07699959 0.10641173
2549.5413 -694.17365 -399.23651 0.98235786 -0.11066779 -0.15075037 0.084953949
2628.1299 -760.28082 -277.38763 0.80620885 0.27223766 -0.52527511 0.079920523
2628.0647 -710.19812 -268.34262 -0.50868553 -0.025611259 0.86057138 0.16232781
2561.6572 -718.61713 -355.9837 0.88607562 -0.19318454 -0.42136645 0.10957353
2623.874 -726.25397 -272.39136 -0.62997931 -0.075245939 0.77295804 0.092641957
2562.7278 -692.6264 -437.77792 0.72322834 -0.2053594 0.65936965 0.065557137
2590.47 -713.96338 -310.06619 0.72112465 -0.22491035 -0.65528202 0.083761327
2547.9009 -711.28699 -399.38254 0.97453505 -0.16950983 -0.14679186 0.091901883
2638.8796 -676.5191 -274.8475 0.85175037 -0.50270373 0.14768301 0.16261363
2555.967 -732.84106 -356.81683 0.8776722 -0.3353692 -0.34237263 0.12726773
2632.4326 -692.34631 -275.63446 0.86457956 -0.36058614 0.34997126 0.10950171
2561.5503 -709.3786 -438.86725 0.73325753 -0.050019823 0.67810869 0.09426228
2582.6204 -727.08905 -311.43951 -0.62917691 0.41819316 0.65517241 0.095897347
2544.1311 -726.67285 -399.42984 0.96898907 -0.2082417 -0.1330245 0.1081425
2563.5486 -700.86218 -356.62494 0.8711096 -0.048979234 -0.48864004 0.11841965
2575.939 -742.12573 -307.81934 -0.57257414 0.46045727 0.67833471 0.1402669
2625.9895 -744.38727 -273.1817 0.73420197 0.14142886 -0.66403717 0.070012309
2553.4678 -701.0448 -375.17401 0.94711959 -0.012243519 -0.32064709 0.083140314
2549.1008 -733.79962 -374.55725 0.87974817 -0.19603449 -0.43314391 0.11250126
2565.2478 -727.01947 -334.76758 0.84540278 -0.40192279 -0.35178426 0.099912032
2616.6802 -697.33966 -251.66815 0.66108578 -0.52977145 0.53132641 0.10828762
2553.4958 -718.66425 -373.8974 0.90840173 -0.12179317 -0.39996588 0.090223588
2626.9453 -684.95453 -250.02141 0.7363863 -0.61214775 0.28811514 0.11058088
2548.5337 -697.17871 -416.23395 0.97168547 -0.18354973 0.14878438 0.084711164
2548.6487 -723.47211 -415.06073 0.90345562 0.32341656 0.281371 0.13161996
2557.8862 -741.33325 -333.91339 0.87252563 -0.40305182 -0.27613088 0.13135681
2547.886 -712.24402 -417.19366 0.98342383 -0.024273474 0.17968981 0.11896441
2605.6477 -722.87915 -291.2724 -0.65256798 0.21819536 0.72563475 0.079180211
2643.7793 -755.07776 -255.27435 -0.64700568 0.018108187 0.76227009 0.084258728
2573.1187 -712.04541 -334.05951 0.84570819 -0.32360783 -0.42432967 0.11322568
2598.9639 -737.99371 -293.95718 -0.64186901 0.11115725 0.75871485 0.079924688
2606.0994 -711.83948 -249.85138 0.65629703 -0.40073887 0.63928282 0.13255282
2565.7698 -715.10785 -349.56433 0.87898958 -0.23003416 -0.41768599 0.11570296
2595.3796 -707.57526 -305.76154 0.7732681 -0.16641282 -0.61185229 0.094054528
2558.1318 -720.71985 -434.81406 0.76308274 0.034863342 0.64535981 0.12793304
2586.5012 -723.07349 -308.51889 0.65111881 -0.40251637 -0.64344764 0.088688396
2550.7756 -686.86688 -394.65359 0.98636866 -0.059018053 -0.15360261 0.089590199
2573.3396 -738.74329 -312.78064 -0.62571824 0.32663 0.70837104 0.11028847
2560.6838 -704.32452 -437.79434 0.76922953 -0.093019687 0.63216555 0.083342485
2568.054 -698.84955 -348.92465 0.84894115 -0.025825854 -0.52785599 0.14020847
2558.8308 -730.3681 -349.31995 0.84624749 -0.42870489 -0.31634986 0.11788434
2548.835 -704.7533 -394.59512 0.97685456 -0.11129566 -0.18267043 0.079463005
2546.4834 -721.68665 -394.89462 0.95484155 -0.22731672 -0.19132349 0.097603157
2566.0535 -720.12781 -344.45297 0.87524539 -0.36188215 -0.32091564 0.11220604
2568.2878 -701.32806 -346.29477 0.86359817 -0.12383641 -0.48873588 0.13032696
2544.748 -729.02655 -389.36789 0.94082773 -0.20341471 -0.27104548 0.10745209
2549.429 -712.57544 -387.33218 0.95575184 -0.15783378 -0.24824776 0.080800399
2556.1743 -704.37006 -431.91049 0.83134466 -0.09692511 0.5472399 0.081322335
2551.2446 -692.10968 -386.46921 0.97772598 -0.047780942 -0.20437437 0.093010545
2554.1475 -723.22864 -431.87427 0.79782891 -0.043980576 0.60127759 0.12128185
2569.6177 -718.40839 -337.67471 0.83962369 -0.40428904 -0.36274284 0.10739742
2548.1646 -726.5304 -380.76849 0.85938036 -0.31048962 -0.40627772 0.11204524
2641.7373 -745.86792 -257.51126 -0.67217493 0.039246056 0.73935145 0.069623046
2551.7017 -678.85541 -381.51398 0.98975724 0.038658392 -0.13742691 0.10704892
2639.1516 -761.8476 -258.40463 0.75554085 -0.062292222 -0.65213317 0.081424817
2596.8486 -730.74579 -296.64264 -0.66031951 0.26281035 0.70349765 0.082884304
2573.3433 -704.69879 -337.61926 0.86404777 -0.24143693 -0.44173479 0.12295771
2552.9856 -696.89154 -381.44864 0.96322566 -0.051874705 -0.26363862 0.087781481
2613.8079 -722.00555 -257.11911 0.84982497 0.024681961 0.52648681 0.16030322
2627.938 -692.78583 -262.36774 0.83490753 -0.38000086 0.39815667 0.12713206
2636.2549 -677.83032 -260.07642 0.80016762 -0.58073729 0.14991987 0.1115944
2565.6946 -729.25031 -335.85104 0.72357589 -0.5880354 -0.36145857 0.12016568
2601.2522 -715.77472 -297.5563 0.70892912 -0.31612435 -0.63046402 0.065469779
2616.2231 -706.59436 -257.65289 0.71091342 -0.37112978 0.59738159 0.12414163
2550.7009 -711.95691 -382.91168 0.95007384 -0.13675855 -0.28045818 0.080660746
2592.2593 -746.02826 -296.44394 -0.59661973 0.21154623 0.77414024 0.11505494
2549.4717 -695.88678 -415.11832 0.97486621 -0.15798861 0.15708429 0.088066481
2556.7827 -704.80298 -370.20795 0.919505 -0.042955853 -0.39072409 0.091464579
2554.9932 -684.93549 -370.32935 0.94736135 0.06157086 -0.31419015 0.095462531
2575.0232 -697.96741 -333.14645 0.83640122 -0.16107942 -0.52391452 0.11592676
2553.7957 -721.34778 -371.45096 0.88557702 -0.18024591 -0.4280943 0.090499304
2599.8735 -717.74109 -248.41347 0.60701388 -0.43856245 0.66271949 0.14767937
2606.1084 -713.02789 -291.08762 0.76286268 -0.19630119 -0.61604089 0.091477267
2607.7678 -703.00037 -245.93246 0.66953993 -0.54315871 0.50665069 0.10378893
2619.8821 -688.88269 -244.05873 0.668329 -0.6651364 0.3330614 0.095269531
2599.0625 -729.14807 -294.29993 -0.65913743 0.24710724 0.71026462 0.078661963
2548.467 -714.14685 -417.42746 0.97247636 -0.057887051 0.22569624 0.11917808
2572.4973 -716.22076 -332.26633 0.82091153 -0.36443654 -0.43964788 0.10127769
2562.0615 -733.12738 -333.25113 0.84391844 -0.43540442 -0.3134082 0.10087055
2649.2495 -751.05286 -251.34344 -0.58338219 0.12352649 0.80274934 0.079322562
2567.7817 -706.2099 -355.00092 0.85906565 -0.16857964 -0.48330852 0.13948803
2587.8242 -736.48907 -298.71078 -0.60883301 0.48136315 0.63056475 0.10015906
2568.4307 -715.34833 -343.52792 0.88217258 -0.26162261 -0.39156753 0.10847902
2570.1626 -701.58716 -344.37311 0.86069465 -0.12521863 -0.49348259 0.13255127
2561.4338 -728.29352 -344.37015 0.85585141 -0.3860696 -0.34419271 0.10457259
2637.8105 -726.8678 -261.57812 -0.67005259 0.040454656 0.74121046 0.083662637
2636.0994 -742.13275 -261.57199 0.75090498 0.025556114 -0.65991563 0.059879176
2597.6909 -710.61511 -301.92047 0.75240076 -0.22119498 -0.62045616 0.075677112
2595.9702 -723.97363 -299.33661 0.69349873 -0.34872332 -0.63043755 0.072819069
2636.2351 -757.0108 -262.07855 0.79004943 0.0022676704 -0.61303896 0.071417496
2622.9458 -706.86444 -264.25183 0.77109951 -0.28669333 0.56851774 0.17023127
2631.6187 -692.90118 -268.86755 0.87283844 -0.31433603 0.37329069 0.12033438
2546.3274 -717.47925 -409.74991 0.99728978 -0.065227188 0.034036923 0.1027464
2551.5166 -683.09564 -409.97391 0.98209077 -0.18176939 0.049574498 0.10128804
2557.2388 -706.01074 -367.10468 0.91505456 -0.041278228 -0.40121228 0.083263919
2555.8862 -685.79437 -366.6861 0.93487489 0.10190838 -0.34003478 0.091317087
2553.0732 -722.26947 -370.4736 0.90914732 -0.14296056 -0.39116934 0.092672862
2548.4656 -701.13062 -409.98804 0.99601984 -0.088760637 0.0081293145 0.080564708
