# .PCD v0.7 - Point Cloud Data file format
VERSION 0.7
FIELDS x y z normal_x normal_y normal_z curvature
SIZE 4 4 4 4 4 4 4
TYPE F F F F F F F
COUNT 1 1 1 1 1 1 1
WIDTH 633
HEIGHT 1
VIEWPOINT 0 0 0 1 0 0 0
POINTS 633
DATA ascii
2513.0061 -471.63135 210.02161 0.72946239 0.64113665 0.2383872 0.13186286
2485.9631 -407.7543 204.87535 0.96144563 0.24523468 -0.12442789 0.055151138
2497.6033 -452.1629 208.98921 0.92478794 0.37965187 0.025133969 0.13618626
2537.3801 -623.81061 215.75816 0.87020206 0.11941237 0.47800529 0.20394343
2580.0305 -611.01263 172.29445 0.56446642 -0.28298998 0.77543169 0.099266268
2619.5942 -580.13794 175.28011 0.8990097 0.42523494 -0.10467491 0.17452566
2575.3306 -597.96851 177.65041 0.55057603 -0.32541275 0.76874739 0.14638707
2536.0476 -512.16217 210.50146 0.76579601 0.31336901 0.561566 0.11496977
2623.7749 -594.32257 176.28944 0.98155808 0.1422773 -0.12767512 0.18807539
2583.0664 -547.14667 168.44826 -0.62844557 -0.66246921 -0.40766495 0.06715285
2563.7141 -523.23981 170.01952 0.80311203 0.35615355 0.47766697 0.12104452
2617.0754 -599.80127 137.6001 0.65786862 -0.26046258 0.70665979 0.25142139
2563.5198 -634.98352 173.30785 0.59990996 -0.41198465 0.68584013 0.12147471
2572.9058 -623.8028 172.08635 0.55364883 -0.31649798 0.77026099 0.10390361
2529.8882 -496.83594 209.10988 0.76785177 0.30946887 0.56092131 0.11979029
2647.7729 -619.29846 132.04628 -0.54669785 -0.49614325 0.6745097 0.19938527
2598.2749 -560.86401 172.7572 -0.62843227 -0.74885809 -0.21043852 0.045391656
2536.2288 -611.13025 213.39616 0.74017054 0.0544171 0.6702137 0.16567126
2636.075 -595.53436 137.10255 -0.21048455 -0.71447074 0.66725391 0.21823069
2562.342 -512.43359 165.84389 0.81622112 0.31988025 0.48110265 0.15197287
2610.7014 -602.82831 147.67833 0.58485955 -0.8069948 0.081845894 0.18409735
2514.6379 -475.70782 222.39157 0.81877285 0.41348061 0.39830238 0.14394923
2561.5312 -604.17841 187.58743 0.6544047 -0.21975376 0.72350729 0.1385632
2588.8494 -549.26508 146.06226 -0.67237109 -0.73931956 0.036382399 0.15174627
2606.832 -568.13171 147.73869 0.70159394 0.69354516 -0.16358818 0.11659563
2566.1492 -538.89172 186.0724 0.7532056 0.54679883 0.36563972 0.089670427
2518.1267 -487.06042 223.46837 0.83907604 0.3096737 0.44727352 0.10263269
2557.1582 -518.37915 181.37105 0.83669442 0.41512495 0.35723063 0.10439772
2560.4006 -616.35889 185.54573 0.70933139 -0.28433657 0.64498192 0.12266122
2557.2734 -627.60022 183.54063 0.66278636 -0.42680758 0.61526382 0.14847358
2632.1506 -591.91785 146.2977 0.87657529 0.4377819 0.199907 0.11844108
2611.5513 -593.5816 148.90817 0.88085616 -0.4177902 0.22258422 0.22875182
2566.3381 -596.35449 180.88953 0.64647973 0.3255178 0.69000155 0.14354059
2559.0386 -526.49811 183.72859 0.83327073 0.42152691 0.35773587 0.087201066
2492.8662 -464.81598 261.02438 0.86475587 -0.030996956 0.50123495 0.1004454
2520.2778 -499.28131 224.77759 0.80833381 0.13202402 0.57372993 0.081086814
2503.8811 -462.32025 223.80659 0.90600079 0.42255971 0.024613863 0.15830044
2494.0566 -439.18332 261.45187 0.91184545 -0.12529893 0.39094508 0.13841008
2494.4856 -416.69128 264.57077 0.97872293 0.19441378 -0.065610446 0.13700241
2491.6589 -450.96896 262.83716 0.89940709 -0.08185938 0.42937854 0.12067351
2496.9268 -425.9444 262.54343 0.94250518 -0.19611087 0.27060038 0.15033707
2652.0173 -620.31775 135.34483 -0.54013723 -0.45041063 0.71090227 0.22829701
2592.9333 -631.15527 151.59698 0.56354266 -0.50303572 0.65526694 0.095106959
2606.6819 -595.09003 154.98647 0.90215856 -0.36288637 0.23328838 0.21613638
2590.0972 -547.90411 150.02705 0.69814515 0.68904394 0.1944524 0.12622653
2611.6628 -603.07373 153.20537 0.60787672 -0.7888568 0.090502962 0.16136371
2614.8054 -574.44366 152.88422 0.75109428 0.66004568 0.014039553 0.13220516
2584.1824 -537.50293 147.89455 0.76255482 0.55447537 0.33326745 0.15281731
2623.7026 -587.49512 152.21873 0.92194712 0.31522867 0.22504319 0.18630868
2595.3105 -556.85052 168.78377 -0.61782438 -0.76207501 -0.19373894 0.046336748
2565.9182 -639.84973 166.1458 0.50338304 -0.51992643 0.6901319 0.12063479
2539.2334 -604.09589 211.87617 0.81358176 -0.063250475 0.57800007 0.1614648
2622.0972 -589.59076 172.03822 0.95485026 0.29646775 -0.019180339 0.18512696
2540.9048 -618.96893 208.52095 0.7804966 -0.0078385854 0.62511086 0.17521447
2570.8887 -629.46326 170.30545 0.53994185 -0.28150478 0.7932325 0.099391371
2612.1802 -596.14276 168.02881 0.60921216 -0.61393452 0.5019412 0.16157404
2611.3264 -572.77228 171.00874 0.82000464 0.57193494 0.02197401 0.15875694
2540.8252 -630.88251 211.40508 0.89042133 0.126773 0.43712518 0.21465746
2631.9478 -598.2771 133.20776 -0.0086961947 -0.71283472 0.70127815 0.22615455
2626.9834 -597.66693 133.48726 0.0017425477 -0.88046062 -0.47411606 0.24771
2579.0022 -618.45721 168.56367 0.54488379 -0.29640749 0.78437507 0.086714715
2497.9583 -448.91022 246.22966 0.95475769 0.021658059 0.29659522 0.1384075
2560.8738 -511.70517 165.06073 0.77099615 0.42052123 0.4782539 0.16327083
2502.0452 -474.03937 246.59457 0.93756181 0.29575226 0.18305326 0.13063323
2499.1628 -461.9928 246.57841 0.96604311 0.0032141809 0.25836101 0.12902571
2533.8669 -509.2644 211.38199 0.78809762 0.28104532 0.54764563 0.10320354
2506.6196 -482.71585 247.20824 0.8763119 0.48137057 0.018970331 0.14912224
2561.6599 -519.83191 169.76534 0.79844081 0.37147599 0.47381204 0.1305348
2501.1396 -439.25696 243.60316 0.95605206 0.031255387 0.2915262 0.11224983
2573.979 -537.31274 168.40826 0.77460879 0.54373568 0.3230058 0.097030848
2531.9141 -498.70828 208.78644 0.73677254 0.23514065 0.63393623 0.12005368
2498.5146 -457.0784 223.35251 0.99431181 0.0871493 -0.061229207 0.13972642
2501.6294 -467.84247 227.58412 0.82173973 0.52546567 0.22052127 0.12889437
2491.6724 -425.54358 270.34848 0.83454418 -0.43348786 0.34003565 0.17079856
2546.6138 -620.26428 194.44775 0.86186552 -0.16803442 0.47848955 0.15725979
2541.3857 -623.04523 189.93748 -0.58869046 -0.79346985 -0.1544317 0.16826141
2561.322 -595.18982 187.07802 0.67488301 0.047842909 0.73637217 0.14687128
2549.8662 -521.39062 190.1722 0.76736665 0.59184051 0.24672507 0.07721851
2490.9087 -435.0582 264.76849 0.97425818 -0.1344997 0.18091659 0.19289573
2463.6838 -411.11578 300.53793 0.55299413 0.20253664 0.80819333 0.043934993
2506.4148 -472.2699 226.81862 0.87231803 0.44196266 0.2091179 0.13432902
2513.4019 -486.8183 228.59039 0.77779764 0.56219244 0.28101695 0.09868408
2498.9082 -455.87164 224.65923 0.98067474 0.18729012 -0.056563687 0.13598497
2489.165 -444.89893 266.41251 0.96681225 0.13394949 0.21755823 0.16262169
2488.9844 -425.54114 269.21683 0.65236509 -0.54756415 0.52401656 0.154341
2470.7207 -415.11618 296.59149 0.54960185 0.22851545 0.8035661 0.021734403
2456.8936 -419.78265 306.43152 0.52517468 0.12774925 0.84135109 0.056917954
2585.6782 -549.56439 167.74403 -0.63087416 -0.69679856 -0.34127638 0.066690437
2636.3591 -599.57147 138.03328 0.68117368 0.49669328 -0.53786445 0.18480548
2584.1184 -603.05585 172.14493 0.60650665 -0.28577524 0.74194485 0.10922041
2538.9109 -627.54205 215.92555 0.879749 0.21084639 0.42612845 0.21303153
2567.8167 -527.96826 167.94272 0.7926017 0.45013118 0.41129613 0.10953673
2537.4387 -514.27899 210.05986 0.78828305 0.39451697 0.472193 0.10649325
2598.2246 -560.41199 171.60968 -0.64171475 -0.74650848 -0.17586157 0.048763894
2579.8994 -615.93115 170.1954 0.57341456 -0.29175094 0.76555675 0.089241594
2571.4248 -628.06244 170.83798 0.55573213 -0.3307586 0.76273227 0.10494557
2617.9519 -601.90076 130.95833 0.40730059 -0.8420921 0.35353512 0.25492802
2536.3167 -613.99615 214.25751 0.77584177 0.0094190706 0.63085723 0.18474214
2620.9429 -583.01917 173.00908 0.93762815 0.3142404 -0.14868239 0.17587078
2563.4988 -515.90948 165.68301 0.84230334 0.30629236 0.44352007 0.15012017
2611.167 -590.32593 165.47313 0.093618967 -0.52522713 0.84579664 0.19374311
2537.1121 -600.00403 214.08961 0.78039926 -0.028148912 0.62464762 0.14281678
2531.2463 -499.93445 209.58771 0.75740933 0.24861339 0.60375702 0.11161257
2500.3552 -463.07382 244.15782 0.95251733 0.026587063 0.30332139 0.12438773
2503.0649 -478.82941 244.20427 0.89346808 0.18832573 0.40773541 0.14173704
2499.9683 -450.18716 243.31984 0.97398263 0.060125172 0.21850124 0.11153071
2508.0923 -486.84488 247.11745 0.87643188 0.453899 0.16075723 0.15468957
2560.2471 -620.67297 183.25423 0.67886686 -0.29485714 0.67245746 0.12524447
2553.2405 -634.70825 184.40987 0.75568473 -0.29022798 0.58711863 0.19414318
2564.3723 -606.44409 184.52382 0.65406716 -0.21163802 0.72622693 0.13121288
2609.9387 -600.65173 144.66048 0.41869769 0.61951727 0.66399592 0.21826603
2561.364 -518.8396 173.87263 0.8566373 0.30924699 0.41296351 0.12198517
2496.0103 -446.32269 210.03777 0.95012081 0.30976796 -0.036252197 0.12788484
2507.5977 -466.5296 211.56932 0.79839426 0.59359342 0.10106182 0.13567226
2496.8774 -440.1348 252.11476 0.877509 -0.030505909 0.47858891 0.12483441
2497.4368 -429.82935 256.98712 0.60107255 -0.47114801 0.64554727 0.14985718
2516.8389 -479.43225 214.43282 0.76157534 0.51538855 0.3929092 0.12349568
2561.5928 -527.68384 179.27954 0.8145979 0.43454272 0.38419119 0.087197788
2531.3826 -500.39935 211.15819 0.74432242 0.1854202 0.6415633 0.10739372
2577.5022 -548.55066 180.03128 -0.63367897 -0.65609515 -0.40986598 0.041092608
2623.2517 -578.28064 186.6219 0.82756847 0.52494705 -0.19889961 0.11458603
2621.4648 -585.27789 143.77281 -0.55959612 -0.73577732 0.38142353 0.1742962
2553.4597 -633.31366 183.06018 0.58238059 0.20972098 0.78539795 0.1664941
2536.0549 -626.16437 218.45111 0.84279591 0.17367396 0.50944322 0.22156379
2526.4131 -485.99512 205.66679 0.82709002 0.44340792 0.34541491 0.15176281
2563.5334 -624.28918 177.75635 0.58270407 -0.2126072 0.78438139 0.11782379
2502.0554 -454.64963 241.65382 0.95476496 0.056672256 0.29191107 0.11451007
2490.8237 -414.39957 277.94431 0.85829955 0.16739321 0.48507869 0.16977157
2573.6553 -609.8222 175.12459 0.58782643 -0.29197979 0.75445867 0.12725979
2618.4062 -600.72217 170.96548 0.88116544 -0.3421188 0.32634678 0.19504212
2504.6653 -470.96649 239.82362 0.83087921 0.086028397 0.54976255 0.1056601
2566.1309 -525.37201 168.65788 0.77926344 0.43272066 0.45332247 0.11307155
2538.0186 -501.59775 204.28455 0.70729929 0.22685695 0.66952491 0.11434399
2622.1709 -586.63708 173.80901 0.9437784 0.29253954 -0.15395765 0.17292139
2501.3926 -441.02942 241.259 0.96999723 0.14466529 0.19539015 0.12349641
2579.105 -544.89142 170.04721 -0.66358578 -0.68607384 -0.29825586 0.071056001
2607.9771 -568.02185 172.998 0.72106057 0.68999738 0.063049689 0.066539258
2558.2009 -508.89774 167.12076 0.78565031 0.39983842 0.4721047 0.16516601
2581.1665 -632.46478 160.21446 0.52811754 -0.47252384 0.70555872 0.10799026
2543.5942 -629.3313 199.94066 0.69557965 -0.43849736 0.56911248 0.18191753
2621.4724 -589.10168 162.18233 0.97055155 0.19343437 0.14357173 0.19158722
2543.915 -589.92645 203.73393 0.77856153 0.062575296 0.62444079 0.13614032
2565.0872 -546.7691 203.22916 0.79685843 0.58814645 0.13820408 0.14351419
2609.6277 -597.30475 161.80679 0.55198967 -0.68188131 0.47994304 0.21873085
2591.9717 -552.03406 159.99159 -0.62801397 -0.75550157 -0.18659006 0.075459689
2547.259 -620.08984 200.96184 0.74633855 -0.11831868 0.65496528 0.14743732
2594.8665 -608.36108 161.27406 0.52445358 -0.29559773 0.79848003 0.13881853
2610.7524 -571.9173 162.11322 0.7602312 0.64852291 -0.038295403 0.13095023
2593.0193 -621.0874 158.38051 0.53237194 -0.38953808 0.75155854 0.090301819
2546.4712 -605.99701 201.70622 0.74068737 -0.00087726215 0.67184931 0.1386741
2558.3171 -537.83801 201.08755 0.86471087 0.44186422 0.23881187 0.12527089
2576.793 -535.13538 157.91772 0.79427803 0.51916814 0.31557381 0.13964379
2506.7524 -478.65536 236.88335 0.86332619 0.42177531 0.27708018 0.14349678
2512.1687 -496.51672 236.82832 0.81952047 0.23123425 0.52432519 0.072468899
2550.2949 -523.95209 199.25453 0.81569713 0.45546874 0.35663211 0.10490131
2635.0322 -611.99347 133.7753 -0.10891214 0.11327817 0.98757595 0.20761099
2620.3469 -598.64197 134.01247 -0.30914232 -0.77201432 -0.5553602 0.17884798
2577.1516 -605.67407 173.05779 0.55118483 -0.22225073 0.80423868 0.11086462
2620.0205 -585.72137 168.47627 0.95950216 0.13230808 -0.24869704 0.21923272
2541.1802 -620.13147 208.12611 0.88719791 -0.053490195 0.45827797 0.21851221
2579.5991 -619.32886 167.86075 0.54514891 -0.29919142 0.78313291 0.087867379
2617.0637 -595.11749 165.18454 0.63673741 -0.63179284 0.44204441 0.14877966
2566.7874 -643.56464 169.87453 0.5208388 -0.16453195 0.83764917 0.13532186
2575.0491 -631.39539 165.71902 0.55732733 -0.35441229 0.75085163 0.096067108
2539.5867 -622.76996 204.37367 -0.62918574 -0.76546329 0.13487472 0.1586929
2639.7134 -603.96436 136.88438 0.78778023 0.27670044 -0.55030823 0.16183402
2487.7437 -424.07178 280.38135 0.81510532 -0.14394006 0.56114572 0.16276255
2585.2888 -549.48761 167.49699 -0.62925261 -0.73835504 -0.24263753 0.06615632
2536.0791 -506.88663 206.92044 0.81547433 0.33931768 0.46889782 0.1094275
2538.4663 -499.50974 201.5208 0.76700431 0.25541645 0.58861434 0.11904783
2567.9321 -530.21075 167.4043 0.84961057 0.39948031 0.34435064 0.12443055
2487.8928 -411.16074 280.67993 0.80058503 0.041416753 0.59778613 0.17555495
2505.354 -480.26941 244.8421 0.88720083 0.4500598 0.1015916 0.1345775
2562.1616 -516.12463 167.40126 0.79904932 0.29031503 0.52653331 0.15795082
2501.0737 -470.78339 244.283 0.94909233 0.19145873 0.25013453 0.12849101
2499.4988 -456.88388 243.60606 0.98480034 0.032680534 0.17058814 0.13167664
2605.7937 -567.49023 167.91484 0.76456904 0.64351904 -0.036295585 0.14385338
2547.1123 -525.38873 206.56067 0.80166602 0.44051871 0.40407279 0.10037233
2499.5017 -443.1767 243.78479 0.95199293 -0.067239553 0.29864404 0.12909581
2549.3408 -627.57275 195.98981 -0.24099392 -0.97052604 0.0010500558 0.17143257
2585.9243 -634.6441 157.3438 0.53281116 -0.29955897 0.79143965 0.10940979
2549.2859 -622.18152 194.68839 0.7425791 -0.35457823 0.56819934 0.1770805
2614.3591 -579.29602 154.09853 0.89910597 0.41533226 -0.13823032 0.22813627
2550.4753 -607.73706 197.28751 0.71747977 -0.21362898 0.66301239 0.16924503
2506.9084 -471.62753 229.28026 0.88969219 0.36482722 0.27449757 0.15431134
2593.5588 -605.78339 159.7907 0.62074518 -0.19914883 0.75829756 0.12275228
2556.2542 -531.14691 195.1355 0.83159673 0.4735465 0.29017329 0.10588934
2490.2212 -449.2124 268.65958 0.95463037 -0.091278844 0.28345892 0.14032546
2621.4885 -592.14532 153.3143 0.73139578 -0.64422113 0.22369474 0.19863454
2493.8752 -434.74997 265.7374 0.87389332 -0.27598169 0.40018064 0.15629053
2563.0234 -541.55615 196.50783 0.7937454 0.5668357 0.22060266 0.13291787
2546.374 -514.95514 193.51648 0.76258045 0.57991529 0.28665194 0.087205082
2574.3325 -532.82404 152.67075 0.80316305 0.56695449 0.18300739 0.15833403
2592.5449 -552.64026 152.71835 -0.64339447 -0.75875026 -0.10169401 0.082236305
2511.9299 -485.47382 231.36464 0.81971508 0.42697823 0.38178101 0.13476653
2599.3855 -620.34381 150.95618 0.66679507 -0.48999748 0.56150407 0.12904245
2516.9434 -498.96713 232.85262 0.8190254 0.41793653 0.39309853 0.052791387
2489.1721 -463.80316 269.31085 0.92268533 0.057250403 0.38127974 0.10889522
2561.4192 -637.10077 171.25014 0.55194604 -0.60104084 0.57801861 0.12664993
2605.3953 -565.59821 172.02295 -0.70065981 -0.71233428 -0.040690951 0.06485302
2626.5386 -597.11993 134.8252 0.076333568 -0.72562206 0.68384635 0.20092174
2576.8262 -601.94983 175.44876 0.5708369 -0.29691461 0.76549786 0.1320758
2568.9644 -627.41699 172.66641 0.57979697 -0.32636264 0.74654061 0.10677627
2617.2339 -596.2973 131.78337 -0.033716027 -0.96582985 -0.2569747 0.24996135
2620.1685 -595.00391 171.53639 0.86407143 -0.40377489 0.30057681 0.15502031
2540.2959 -623.23523 214.78731 0.90535295 0.41897878 0.069230027 0.18346785
2576.1619 -615.50629 172.8201 0.54813927 -0.32284158 0.77156764 0.093842477
2621.7578 -584.41626 175.19696 0.93762815 0.3142404 -0.14868239 0.17587078
2532.1946 -501.87094 209.72595 0.73462301 0.25962976 0.62683445 0.11611589
2567.7832 -529.005 168.90715 0.79805392 0.44530225 0.40597522 0.10872514
2541.1931 -518.88086 209.12479 0.74578565 0.46006918 0.48180923 0.098879285
2564.3406 -517.55035 165.71156 0.86004704 0.28617081 0.42240423 0.14887448
2527.3394 -488.37909 206.83646 0.78936714 0.36591867 0.49295342 0.12307115
2585.7083 -550.51324 169.86594 -0.63919991 -0.7009815 -0.3163043 0.051218178
2561.9954 -550.21155 138.30287 -0.24502836 -0.53941101 0.80560338 0.070566282
2558.9277 -525.37701 180.32701 0.81477445 0.4337028 0.38476551 0.089060724
2619.6172 -591.45844 142.35283 0.098557651 -0.71204686 0.6951803 0.23876539
2629.7734 -601.38739 134.17845 0.75044501 -0.31488001 0.58110487 0.25412863
2567.8765 -622.89343 173.11852 0.483208 -0.20332327 0.85156894 0.091843054
2578.9561 -510.99734 155.93536 0.56225735 -0.033777729 0.82627219 0.1160664
2489.009 -439.12256 272.67343 0.97924459 -0.078468114 0.18687642 0.19108099
2567.8638 -521.91693 161.56419 0.81121022 0.1117232 0.57398254 0.13999513
2532.6169 -501.737 200.14377 0.82644111 0.51669669 0.22365071 0.11617713
2498.2327 -460.68686 230.84088 0.99570912 0.091866538 -0.01113145 0.14035507
2456.762 -412.5444 305.41461 0.52517468 0.12774925 0.84135109 0.056917954
2491.5398 -426.39175 272.78336 0.87207937 -0.31893492 0.37115774 0.16462076
2614.4104 -597.909 162.31038 0.749865 -0.64571542 0.14406277 0.1812412
2503.7842 -456.81036 232.28868 0.91748047 0.39350191 0.058187962 0.15825406
2499.5215 -470.03171 232.26065 0.84261411 0.53621453 -0.049753509 0.15263969
2475.1792 -422.39072 294.62964 0.60404044 0.12961709 0.7863425 0.089611441
2496.6772 -432.82013 258.25931 0.87201345 -0.26712003 0.41017005 0.1541757
2493.0671 -448.32874 259.14929 0.91897184 -0.059620567 0.38978988 0.12657124
2555.3267 -630.13092 183.91014 -0.49779129 -0.77649993 -0.38633105 0.17881982
2520.179 -481.76877 209.90929 0.74821621 0.65895671 -0.077127382 0.14809218
2631.4507 -595.09473 139.40967 0.67049587 0.63011855 -0.39164516 0.20792767
2580.7305 -549.81146 177.30299 -0.62120581 -0.72541428 -0.29644138 0.055154186
2566.2551 -532.93042 175.78764 0.76565498 0.48679659 0.42047778 0.092181742
2498.373 -447.01575 246.51236 0.93683696 -0.010750876 0.34960109 0.12926039
2562.3235 -613.54218 183.25795 0.59498829 -0.34985253 0.72359663 0.13266896
2483.1304 -406.9863 285.13303 0.6980738 0.073424108 0.71225131 0.17004642
2497.6636 -460.6199 247.64786 0.95819604 0.06430807 0.27879161 0.14217487
2486.8 -434.08774 281.45956 0.68673509 -0.37314886 0.62382275 0.12566301
2614.6533 -609.9339 141.8838 0.52540034 0.34618777 0.77724415 0.18044403
2621.2659 -580.05237 180.39546 0.92486316 0.35599488 -0.13377517 0.15251884
2502.0764 -475.89584 248.65488 0.95382243 0.25834894 0.15322718 0.14230935
2560.4617 -519.79822 172.11487 0.79049492 0.41017815 0.45483151 0.12357733
2526.927 -498.60583 214.12575 0.79184711 0.38800037 0.47162893 0.10410914
2557.6414 -627.21802 182.06165 0.62546259 -0.28842503 0.72498798 0.15485191
2518.0659 -480.93002 211.31844 0.75604135 0.50727838 0.41360626 0.11606942
2499.4285 -432.2861 248.6378 0.85741204 -0.17153661 0.48520076 0.15020682
2631.4004 -607.39441 132.34341 -0.057183336 0.15314014 0.9865486 0.15062848
2616.3113 -579.78247 150.18793 0.83207297 0.55160886 -0.058157489 0.18409
2607.606 -602.74127 149.98759 0.63281637 -0.77419347 -0.01295746 0.19678515
2623.2524 -590.94141 149.8157 0.92420548 -0.33102667 0.19043525 0.19584416
2599.9783 -559.01367 148.05423 -0.70363438 -0.7094909 -0.039003547 0.085871287
2589.4009 -546.5531 147.60529 0.70634866 0.68605393 0.17436059 0.13721229
2608.9993 -609.48981 148.56941 0.60517681 -0.75741249 0.2451272 0.15707771
2590.0776 -528.90265 144.58992 0.69426233 0.34026855 0.63420588 0.11929704
2561.8567 -538.5401 193.94214 0.79553503 0.58025092 0.17445025 0.11745349
2598.5378 -618.62872 154.08002 0.57771105 -0.23617296 0.78132725 0.13040771
2594.02 -600.21008 159.58429 0.63294154 -0.018942706 0.7739678 0.12743266
2611.3562 -576.42218 152.11562 0.82699841 0.54223859 -0.14849573 0.23940584
2570.9824 -535.159 157.00848 0.73964924 -0.085877486 0.6674909 0.17030969
2552.0715 -524.88806 194.17213 0.80065614 0.49128297 0.34291515 0.091582678
2579.0837 -543.32147 148.30392 -0.5727793 -0.81708568 0.06553565 0.11875188
2589.989 -632.67181 153.51218 0.55036223 -0.46255869 0.69508338 0.099953838
2546.1577 -618.39966 197.61365 0.86088622 -0.14770555 0.48688602 0.14924175
2546.2615 -632.47974 195.58452 0.8511073 -0.095806949 0.51617581 0.21501024
2507.0476 -476.54205 230.10486 0.84801584 0.46065056 0.26204997 0.13128804
2544.7163 -510.76999 191.61308 0.78059572 0.5594002 0.27882212 0.094467595
2620.2888 -591.74768 151.98355 0.8323676 -0.50516415 0.22797666 0.20869485
2630.0872 -574.35681 196.50151 0.68435144 0.53876024 -0.49132523 0.12680092
2492.3765 -433.42981 266.73444 0.95501065 -0.26465607 0.13383508 0.18484473
2502.4009 -464.82477 226.37251 0.94538844 0.32126901 0.055017348 0.14159249
2490.1306 -442.80539 267.27386 0.98139918 0.0892867 0.16995162 0.15351176
2556.6692 -621.35461 186.64388 0.67322397 -0.35669729 0.6477164 0.14944442
2552.1699 -633.69958 186.32983 0.74892527 -0.27107739 0.60467178 0.1723316
2569.438 -540.43781 182.71696 0.73315877 0.57111895 0.36919019 0.077782519
2609.6133 -573.77942 146.08473 -0.6437664 -0.70140117 0.30594313 0.1561159
2557.7559 -523.14886 181.76048 0.83842468 0.40642318 0.36313123 0.091231607
2609.4292 -597.05939 147.35616 0.8835668 -0.24492431 0.39915136 0.22784962
2559.5327 -608.37775 187.90695 0.6185928 -0.33651024 0.71000266 0.14232902
2626.2458 -588.78235 143.14259 0.97931367 0.078545831 0.1864814 0.19476387
2624.0962 -577.39386 186.67514 0.82982904 0.43046466 -0.35508299 0.12638305
2612.9255 -603.83459 146.08284 0.44646618 -0.89475447 -0.0090780212 0.18277632
2554.4622 -600.60004 192.28105 0.55515063 -0.62980825 0.54327649 0.13743618
2577.9353 -617.9635 169.91161 0.55963796 -0.31625399 0.76602137 0.093378238
2628.8867 -597.76099 133.72781 -0.016890081 -0.70947349 0.7045297 0.22196119
2589.6724 -553.17993 169.28076 -0.61298567 -0.7474969 -0.25592366 0.052104708
2618.8096 -594.11035 165.70761 0.60102904 -0.6523419 0.46175119 0.14555673
2580.7598 -605.82593 172.26222 0.58999497 -0.27689788 0.75844151 0.10578463
2574.3843 -537.73639 168.16971 0.77480191 0.53157407 0.34221491 0.10063718
2573.6313 -629.05688 168.09077 0.54067463 -0.37257126 0.75422919 0.096373521
2623.0283 -596.6897 133.66498 -0.10726752 -0.86697328 -0.48667344 0.23247461
2561.7708 -639.76941 168.72878 0.54132193 -0.54460609 0.64060497 0.14345537
2539.4131 -616.56116 211.13275 0.97119123 -0.21793701 0.096389994 0.17748536
2613.7268 -574.54303 170.98727 0.82737923 0.56162453 0.0046344264 0.16122821
2622.1631 -590.1131 171.65617 0.95686257 0.27760002 0.085745387 0.19098438
2543.3337 -627.51581 211.94432 0.89504606 0.4168708 0.15846533 0.2198198
2563.9832 -521.1333 168.09909 0.81700671 0.35705554 0.45278183 0.13491741
2501.7405 -474.80847 247.18465 0.94108385 0.24347126 0.23469745 0.13194275
2500.1125 -463.94788 244.78564 0.93595582 -0.0082883909 0.35201985 0.13198207
2560.8738 -511.70517 165.06073 0.77099615 0.42052123 0.4782539 0.16327083
2498.6072 -449.01004 246.20154 0.94894987 -0.015706353 0.31503564 0.12257792
2535.5386 -511.01093 210.83002 0.77348882 0.30135533 0.55758411 0.11470977
2499.2612 -437.17523 248.45781 0.82147914 -0.18350327 0.53990602 0.13442379
2529.9006 -497.18906 209.39975 0.7614938 0.3249228 0.56084973 0.11749212
2617.7334 -598.49908 133.36592 0.1909328 -0.98005182 -0.055164728 0.24865945
2650.2041 -626.03003 134.29057 -0.27626997 0.040663972 0.96021944 0.14275603
2618.6941 -595.74451 137.97957 0.21667048 -0.60679924 0.76475394 0.22142477
2587.3335 -550.78473 167.6993 -0.62146586 -0.73156583 -0.28034201 0.055245571
2604.8396 -596.6239 166.49248 0.29359242 -0.59468234 0.74843597 0.15971729
2565.0242 -637.30499 170.68378 0.54827285 -0.39049155 0.73953581 0.12542021
2622.6428 -591.54352 169.22256 0.96463478 0.050620012 0.25868383 0.16180459
2633.8806 -608.2998 136.1386 0.098028474 0.41188502 0.90594763 0.21941911
2613.9294 -592.3833 136.09882 0.60719842 -0.18250027 0.77330703 0.1514038
2573.1306 -624.08392 171.20261 0.51198786 -0.32866415 0.79362983 0.092495278
2609.5278 -570.3642 169.98021 0.7914623 0.61031753 0.033165559 0.12730934
2578.7192 -610.35187 172.06961 0.5383718 -0.2633298 0.80050808 0.092067726
2540.27 -618.53888 210.77956 0.96334118 0.25575581 0.081010774 0.22513044
2569.5081 -529.22375 165.6405 0.83178782 0.42816249 0.35327876 0.10931097
2506.1902 -475.1452 236.5733 0.86297804 0.12654042 0.48913842 0.15040387
2499.4688 -443.38916 237.66374 0.99362034 0.085333019 0.073735468 0.13480026
2495.3091 -428.32562 237.39389 0.9364298 0.33632141 -0.099935643 0.11706477
2546.6367 -520.16541 203.15678 0.7636385 0.49164933 0.41849399 0.092403367
2542.6697 -485.83707 205.7184 0.4012731 -0.20116384 0.89359558 0.11936429
2501.2546 -458.43817 238.41519 0.98149347 0.11482652 0.1532497 0.14978795
2565.6562 -515.90601 163.12184 0.84852296 0.22990806 0.47660369 0.15389387
2490.3875 -416.32397 278.9649 -0.042626537 -0.99683195 0.067149535 0.19719069
2535.7524 -500.1113 202.84207 0.78848851 0.35428193 0.50276256 0.12529792
2603.209 -602.79584 152.02829 0.8340975 -0.10691372 0.54115689 0.18718219
2630.1206 -579.23688 193.1694 0.70554727 0.58867913 -0.3945376 0.12283877
2493.0432 -451.89749 259.44446 0.86112142 -0.09226267 0.49995747 0.11587373
2520.2351 -490.66702 221.93462 0.81452215 0.30784932 0.49171379 0.10039876
2555.04 -604.68616 193.84875 0.65793252 -0.40153137 0.63710076 0.20052239
2600.1089 -558.88434 146.00359 -0.68534309 -0.7278707 -0.022563692 0.085614435
2491.2346 -463.90707 262.28418 0.86646771 0.03602536 0.4979316 0.10294046
2562.804 -533.67151 184.44083 0.8074612 0.45332572 0.37749469 0.084868193
2624.6562 -586.336 147.58304 0.76431227 0.64288652 0.050236057 0.15867274
2594.2124 -631.29181 149.14595 0.57889903 -0.52047729 0.62767768 0.11283592
2589.7751 -547.19678 144.63454 0.70791042 0.7017315 0.080223069 0.14524342
2523.7712 -504.47141 223.23351 0.80680674 0.30950668 0.50325793 0.089262478
2548.2146 -630.86133 190.63426 0.76792383 -0.29864785 0.56665903 0.19220369
2569.0427 -543.47406 187.89368 0.71064067 0.61982071 0.33288455 0.074615441
2510.6777 -474.23401 220.88905 0.77942824 0.56608713 0.268397 0.13995883
2617.1704 -592.5426 148.70833 0.78770745 -0.55985022 0.2570695 0.2325768
2554.6016 -517.19366 182.82748 0.83799487 0.4074865 0.36293158 0.094911627
2553.7319 -616.64838 190.52498 0.72255021 -0.270486 0.63620639 0.15616566
2497.0146 -439.02298 258.18124 0.94905883 -0.10319399 0.29772189 0.1033258
2498.8096 -426.30981 259.38947 0.85189444 -0.32603273 0.40985185 0.14877346
2613.6294 -595.69208 134.88055 0.69483459 0.094376273 0.71295023 0.16241869
2577.8337 -626.1864 165.12434 0.54418266 -0.24613994 0.80204761 0.094046898
2589.6038 -614.51477 161.24588 0.57130879 -0.18336351 0.79999006 0.10396997
2591.4104 -550.84192 157.50706 -0.64031869 -0.74199831 -0.19857106 0.084677488
2623.7122 -593.02075 157.52083 0.86110437 -0.41676858 0.29120997 0.16110274
2621.3867 -585.12958 159.185 0.92647332 0.35149932 0.13451928 0.17633726
2574.2637 -529.79474 157.30493 0.78667897 0.41887969 0.45351514 0.14488108
2569.728 -637.66345 164.2617 0.50174624 -0.52726316 0.68574357 0.10245986
2577.0798 -627.05121 166.11249 0.54224652 -0.34824726 0.76465189 0.097097382
2612.0752 -593.14716 133.02025 0.57119352 0.41399187 0.70876563 0.16144015
2581.1147 -614.50482 167.63388 0.54608095 -0.24730879 0.80039608 0.093671404
2627.9307 -597.67664 131.78635 -0.19775818 -0.63808221 0.74413896 0.16417825
2547.4956 -628.7276 201.62421 0.21875538 -0.89092416 0.3979952 0.12808824
2541.5806 -621.32385 206.62425 0.95187396 0.30216405 0.05131181 0.22635482
2620.8787 -586.37109 167.2413 0.9347145 0.31096566 0.17207311 0.18553112
2505.8977 -462.60791 200.52841 0.78672671 0.57712197 0.21906924 0.10830183
2499.0613 -451.8541 198.73946 0.90829009 0.40013731 0.12206264 0.087087624
2584.813 -548.09784 165.35236 -0.64295709 -0.71341789 -0.27864149 0.081579752
2543.519 -501.4978 198.02553 0.70740104 0.27263469 0.65211511 0.11087824
2611.8809 -571.76202 166.79445 0.74776351 0.66213423 0.049275193 0.095506452
2573.3691 -533.75476 164.20079 0.75879306 0.50397879 0.41259962 0.10126764
2493.4756 -435.87299 198.0103 0.96593565 0.25793526 0.020922739 0.021185633
2569.1455 -521.38721 161.97781 0.75851798 0.36862552 0.53736925 0.13394454
2488.4307 -423.13336 198.10791 0.95747882 0.22429265 -0.1814582 0.024748392
2486.4617 -412.08578 198.40764 0.96886367 0.23179731 -0.087023839 0.039482843
2513.4128 -473.79318 202.71927 0.7658596 0.59521836 0.24325739 0.086944394
2596.0864 -627.45941 151.98134 0.63514072 -0.25664046 0.72851354 0.12717573
2604.2104 -565.54156 145.50386 0.73268795 0.66757226 -0.13234659 0.11984964
2550.1218 -507.94089 183.06013 0.82232201 0.39892268 0.40576741 0.10073588
2621.2651 -584.01685 146.65041 0.88373095 0.46488434 0.053871825 0.20403515
2541.2666 -623.82263 186.20538 -0.53775096 -0.82715666 -0.16320466 0.16607738
2543.8638 -623.0686 192.69649 0.82119149 -0.132054 0.55516326 0.17009325
2578.8999 -540.03577 142.8475 -0.69881994 -0.71435291 0.036750127 0.19132333
2629.7686 -595.29663 144.32585 0.94071358 -0.14267133 0.30773827 0.14945944
2502.5947 -461.16287 179.00304 0.92788416 0.37280381 -0.0069493703 0.018979598
2570.6714 -604.09686 179.26173 0.61321008 -0.25178671 0.74871683 0.12739487
2619.1509 -576.77881 179.39056 0.81921196 0.57158512 -0.046714608 0.1229494
2625.3884 -585.8725 138.30006 -0.52323502 -0.78129405 0.34030092 0.14734408
2558.3586 -616.3797 183.12218 0.5202198 -0.32810032 0.78849322 0.13329408
2561.3086 -525.87286 176.14667 0.81869054 0.40418676 0.40789565 0.095254034
2553.1282 -635.69879 184.1937 0.70634484 0.29996583 0.64116883 0.17490233
2591.7832 -556.46564 174.80927 -0.582228 -0.75466156 -0.30248392 0.040418915
2633.1436 -594.8335 137.61819 0.030922702 -0.82538718 0.56371963 0.2241201
2551.7183 -507.76962 177.59654 0.80849564 0.33838394 0.48148841 0.13786668
2555.3733 -628.46118 181.99387 0.60104203 -0.16344649 0.7823258 0.16317888
2497.6836 -452.25436 208.2049 0.90872252 0.40248251 0.11059488 0.13103458
2492.8069 -438.0506 207.95885 0.94743049 0.24822927 0.20188539 0.081101701
2537.1533 -474.73001 210.30875 0.44312316 -0.14131868 0.88525188 0.15525478
2486.7507 -410.05966 207.0224 0.96886367 0.23179731 -0.087023839 0.039482843
2490.7808 -424.51544 208.41016 0.95865828 0.22266254 -0.17718835 0.020269975
2496.5039 -448.63425 206.86627 0.91758943 0.38897762 0.082012571 0.11515572
2488.9456 -419.10571 205.95135 0.96079296 0.21017739 -0.18083778 0.027094483
2491.9121 -431.77597 205.0773 0.96786118 0.23773198 0.082025588 0.038534977
2516.2058 -475.73962 210.12848 0.70953262 0.70457554 -0.011695646 0.14585963
2623.1409 -599.98999 131.9436 0.094776407 -0.08223515 0.99209619 0.19363847
2622.293 -592.02026 132.22595 -0.11667535 -0.41145578 0.90393084 0.13950291
2550.1104 -609.54865 196.95885 0.71995759 -0.18718909 0.66829735 0.17059037
2546.6482 -629.09827 192.15735 0.48253006 -0.7652629 0.42607212 0.18815796
2551.6184 -622.16504 193.2054 0.71112573 -0.38588968 0.5876984 0.1712371
2560.6121 -601.28424 188.15462 0.68074214 0.11833545 0.7229017 0.13730229
2613.835 -599.60547 154.63147 0.67979884 -0.72911441 0.079156563 0.17363146
2602.1233 -611.88214 152.17845 0.71740627 -0.52816743 0.45427683 0.17526595
2641.1953 -613.2276 134.0087 -0.28744653 -0.036253318 0.95711035 0.21419497
2623.635 -591.39893 136.04265 -0.10408674 -0.71671826 0.68955117 0.14002036
2612.7771 -592.03693 135.89781 0.6614489 -0.078144632 0.74590802 0.15806419
2557.7297 -618.66382 191.2597 0.75722551 -0.21389769 0.61713636 0.12046663
2578.7671 -532.13434 150.8669 0.77621323 0.44786647 0.44374388 0.17345458
2613.5312 -602.89294 154.6042 0.607692 -0.76161194 0.22507253 0.15510361
2617.512 -575.93713 154.01419 0.77945 0.61800331 0.10261387 0.11617346
2565.0657 -607.94489 187.55341 0.68728089 -0.072992772 0.72271502 0.099668801
2613.1633 -595.69855 156.24756 0.8434149 -0.50640118 0.17946926 0.2178971
2600.7983 -557.31696 151.90535 -0.6918608 -0.7071988 -0.14559723 0.071230158
2615.0681 -581.97675 154.98293 0.9207111 0.3144719 -0.23108114 0.24623346
2557.7463 -527.47473 188.7625 0.83662784 0.40077099 0.37341189 0.086071514
2564.8513 -599.02209 186.04539 0.61697018 0.27124572 0.73876488 0.12936008
2573.2944 -517.24194 158.41293 0.65106434 -0.11084601 0.75088507 0.13494381
2594.7664 -609.49921 163.07713 0.44934273 -0.34749362 0.82300627 0.11634099
2573.8701 -632.29681 166.46339 0.55580217 -0.34592983 0.75592095 0.097381853
2582.0947 -621.89709 165.35159 0.55324531 -0.3202478 0.76899999 0.095047228
2542.9358 -621.39746 205.83769 0.76929897 -0.091533557 0.63229799 0.16852535
2640.3162 -613.66705 133.14116 -0.30891189 -0.12237896 0.94318444 0.22201163
2541.9077 -609.15723 207.07153 0.72558129 0.036893263 0.68714678 0.13411233
2585.5969 -596.56305 170.06799 0.59746218 -0.21065587 0.7737332 0.11238734
2543.0391 -628.83386 202.64351 0.53445119 -0.55019903 0.64159411 0.18709421
2500.4666 -454.41089 243.59035 0.96655005 0.071773186 0.2462309 0.11437327
2504.6772 -482.18454 241.02223 0.81971484 0.13259633 0.55721247 0.14683226
2621.1013 -592.72595 168.5531 0.95469022 -0.033125553 0.29575214 0.19651593
2531.8286 -489.32086 205.07426 0.7670868 0.21009135 0.60616791 0.15337147
2600.3777 -560.76349 167.85808 -0.62533891 -0.76721311 -0.14260207 0.048977882
2584.0532 -546.91541 165.39832 0.66311902 0.6560294 0.36041453 0.078662172
2567.175 -525.34222 166.61855 0.79294008 0.44387373 0.41739932 0.11301383
2535.9094 -502.36737 206.23112 0.78798777 0.26543587 0.55553496 0.10566903
2500.2412 -441.08377 242.98299 0.97777283 0.017215043 0.2089591 0.11320399
2543.2192 -518.24304 207.06111 0.752648 0.52539247 0.39684221 0.095380194
2619.6655 -600.11414 131.83669 0.32351261 -0.74209964 0.58705002 0.21176973
2499.728 -464.77515 244.4957 0.95380229 0.12410557 0.27360368 0.11827812
2502.9463 -427.5274 245.53162 0.87628293 -0.1568628 0.4555462 0.15554652
2617.2932 -578.45081 170.1992 0.87953788 0.47140568 -0.064728558 0.16195884
2562.4187 -513.23932 164.65092 0.80844235 0.3328287 0.48543382 0.16106464
2495.5176 -421.60907 265.3616 0.97766721 -0.10974933 0.17922592 0.15540001
2510.6841 -480.20905 228.54315 0.84162349 0.40913573 0.35253072 0.13005811
2491.3906 -454.65866 264.21463 0.85460526 -0.17343855 0.48945779 0.10673479
2492.9785 -438.53638 264.75089 0.91499394 -0.14039095 0.37825453 0.13799533
2494.9561 -418.25885 270.19849 -0.58923453 -0.73354501 0.33869511 0.17428352
2497.6147 -446.03485 224.06549 0.98194665 0.08888261 -0.1669749 0.12165637
2502.3442 -462.45343 225.07356 0.92516899 0.37616399 0.050626341 0.14519039
2497.1689 -441.01776 253.08669 0.88579786 -0.093071289 0.45464262 0.12873808
2500.9441 -426.12476 255.31235 0.78241849 -0.33624277 0.52417755 0.17151085
2495.855 -457.0466 254.42987 0.89235467 -0.048650745 0.44870514 0.12887463
2475.7329 -414.034 292.66644 0.62310809 0.079296291 0.77810562 0.1254514
2620.4971 -587.95636 172.37538 0.96997339 0.016957717 -0.24261908 0.21613233
2564.2949 -518.26917 165.63751 0.84212142 0.3215121 0.4329682 0.14746699
2633.5564 -594.10382 137.88246 0.80354512 0.42860171 -0.41305673 0.16799933
2501.189 -435.97821 241.75327 0.96801633 -0.0043843035 0.25084898 0.11829093
2482.9465 -438.67245 281.0116 0.7873652 -0.34231099 0.51271749 0.17518307
2537.8447 -507.58194 205.34177 0.79594779 0.40096909 0.45353162 0.11097398
2493.2537 -416.58615 277.83746 0.89351064 0.13187927 0.4292396 0.15665972
2503.436 -479.57263 243.8326 0.89187056 0.19918646 0.40606856 0.1419225
2557.082 -544.65424 203.61934 0.87507391 0.12146334 0.46850002 0.14085402
2500.2297 -450.43448 242.77319 0.98201966 0.063021198 0.17794873 0.1165228
2489.9448 -427.02133 279.00742 0.86403376 -0.11985514 0.48895851 0.15557274
2593.7239 -555.75708 169.2115 -0.62168306 -0.75307685 -0.21537271 0.043919805
2504.2473 -466.43338 239.75195 0.85687244 0.042427812 0.51377958 0.11595537
2549.179 -527.7738 203.89461 0.7615028 0.36286789 0.53706646 0.11128706
2613.3596 -573.23444 172.06366 0.79865354 0.60099262 -0.030990168 0.13687946
2570.5273 -532.13361 167.67458 0.81195319 0.46057153 0.35861659 0.10366302
2605.3167 -571.59381 149.34219 0.70611531 0.61352134 -0.35354316 0.17915186
2613.6743 -585.36267 149.28444 0.99015361 -0.063282125 -0.12486476 0.24353699
2518.8054 -476.78064 220.11491 0.79586959 0.3272495 0.50941086 0.11015971
2606.9238 -563.74609 148.43034 -0.66024858 -0.74738324 -0.074095041 0.066963464
2617.3608 -598.1264 151.11913 0.67548728 -0.71901459 0.16350834 0.17080329
2581.229 -541.40674 147.20805 0.74141383 0.66980028 -0.040904123 0.17632243
2556.0605 -517.91376 183.60968 0.83347529 0.41204736 0.36815208 0.096858174
2625.1748 -592.64899 134.06166 -0.1289093 -0.6108163 0.78120792 0.13537276
2596.7695 -558.04352 167.19286 -0.61928344 -0.76967686 -0.15519513 0.050804302
2544.489 -613.92438 203.88684 0.80443805 -0.040276323 0.59266961 0.14561285
2582.2041 -627.1394 163.19403 0.5508275 -0.36656117 0.74981463 0.096506149
2615.3816 -591.40045 165.70294 0.73993534 -0.41648602 0.5282377 0.20415407
2631.5935 -603.05896 131.66489 -0.27992904 -0.35584226 0.89163673 0.19682039
2587.4409 -601.15674 167.59004 0.58556658 -0.20810585 0.78345627 0.11361612
2543.6731 -598.89294 207.60672 0.79994535 -0.19446711 0.56768823 0.14552774
2541.7036 -627.62476 204.18314 0.82177228 -0.23786464 0.51779413 0.18381895
2613.6592 -575.97064 167.67821 0.83845246 0.52015024 -0.16260736 0.19829956
2503.0264 -430.65283 241.8593 0.90501285 -0.21288672 0.36828113 0.16290972
2500.9131 -459.12576 239.84686 0.98378253 0.11383787 0.13861038 0.14097077
2488.2358 -409.83209 278.52069 0.82125407 0.18153876 0.54091167 0.1881358
2502.2854 -471.30872 240.90347 0.94495285 0.19883485 0.25986308 0.13533099
2567.1885 -523.40271 164.65216 0.8022753 0.40317369 0.4402332 0.12642357
2565.2229 -510.41812 162.68625 0.79012829 0.18588579 0.58407515 0.16094775
2498.8625 -444.22165 238.92952 0.99413091 0.10309693 0.032784089 0.13633193
2489.1794 -434.98166 278.54132 0.86240298 -0.33284956 0.38140833 0.13929956
2576.3442 -538.91992 165.6729 0.72622979 0.58348399 0.36350614 0.099568598
2556.9473 -534.95074 199.37999 0.86716974 0.231509 0.44093111 0.11824048
2531.7815 -494.4718 204.1898 0.81686562 0.33011365 0.47302803 0.12735924
2540.8315 -511.52176 203.37653 0.80694765 0.46406141 0.36535263 0.11051268
2561.9231 -599.59357 188.91029 0.49857649 -0.55502224 0.66586167 0.14232364
2552.1614 -629.52484 179.68062 0.097310357 -0.98340875 0.15309463 0.18853605
2564.9194 -610.42847 182.98515 0.65024149 -0.3029874 0.69669551 0.12562403
2550.7729 -511.68671 181.7093 0.80331284 0.4610427 0.37699887 0.10190782
2562.241 -531.23682 181.49893 0.81382293 0.44274178 0.37639335 0.080736287
2494.5413 -466.02197 256.76611 0.89007145 0.042652026 0.45382118 0.11626125
2572.0698 -544.8537 183.80865 -0.65410143 -0.66395944 -0.36236602 0.050687473
2520.9636 -491.66147 220.59586 0.81493753 0.286295 0.50389683 0.11138559
2530.1497 -614.97949 223.39044 0.81256962 -0.019597868 0.58253455 0.23340814
2515.1924 -478.80331 218.9697 0.80393922 0.51637387 0.29502496 0.13893066
2557.9832 -624.17212 183.1702 0.62659425 -0.3703599 0.68572098 0.13892823
2616.4023 -572.18292 182.68034 0.73801219 0.61106408 -0.28624928 0.13937196
2492.9082 -450.22177 258.7417 0.90656227 -0.034027129 0.42069826 0.11390038
2503.6941 -462.99762 217.90512 0.87054998 0.49183372 0.015567668 0.14143865
2471.177 -412.54034 295.47214 0.60667789 0.2369377 0.75881648 0.054320313
2495.427 -436.21393 258.40491 0.89571959 -0.20035362 0.39691919 0.14822857
2498.5667 -424.53616 259.56067 0.79454607 -0.42787436 0.4308365 0.16314925
2489.8008 -436.75412 264.50659 0.94932157 -0.05187346 0.30999625 0.1756144
2496.9463 -422.49573 261.56824 0.932464 -0.2374948 0.27222618 0.16156636
2498.2766 -417.93951 268.77731 -0.050695758 -0.8368327 0.54510641 0.15701158
2587.4856 -603.41571 171.4527 0.54333985 -0.34234595 0.76653838 0.13118887
2535.7605 -616.15381 213.63411 0.68668187 0.047165148 0.72542638 0.16919009
2607.7471 -568.24347 173.75554 0.70309073 0.69774455 0.13717143 0.058102049
2543.7766 -629.91534 206.68398 0.60842514 -0.26944628 0.74647003 0.12693238
2571.4031 -627.83276 171.16429 0.56161463 -0.33838525 0.75503933 0.10897972
2612.0354 -591.73364 171.58034 0.5140065 -0.64879191 0.56112957 0.17692922
2536.97 -603.22577 211.97081 0.70621139 0.052620269 0.70604289 0.13729797
2629.99 -599.65326 136.29958 -0.11553259 -0.85728443 -0.50171262 0.27354923
2576.9216 -615.65381 172.87079 0.52082956 -0.33734632 0.7841773 0.09416616
2615.9895 -594.51062 139.0706 0.29253247 -0.53922445 0.78972256 0.21707459
2622.1687 -585.95343 176.30434 0.94282508 0.31750661 -0.10134303 0.18130141
2532.0266 -502.92056 210.46167 0.7445575 0.39657107 0.53699672 0.11245917
2560.8586 -515.51868 168.32886 0.80263585 0.36475423 0.47194281 0.14463557
2530.2935 -490.45001 206.87315 0.81499261 0.21491253 0.53814459 0.1411261
2587.9368 -552.61761 171.3692 -0.61106265 -0.72164583 -0.32531473 0.045926359
2546.3994 -524.99011 206.72557 0.73175281 0.39067814 0.55848765 0.1032734
2569.7122 -531.73248 169.41444 0.80837184 0.45980549 0.36757848 0.10502722
2610.0593 -595.62421 147.63257 0.87406379 -0.39305934 0.28551149 0.2217828
2533.9294 -620.93549 214.46877 0.38459924 -0.067439809 0.92061681 0.18609123
2561.0659 -627.48785 182.92233 0.69514114 -0.48294187 0.53249031 0.12436132
2567.0264 -593.97119 183.05429 0.62631649 -0.0045422642 0.77955568 0.15739803
2627.5586 -589.43445 144.88055 0.95539165 0.22275123 0.19392951 0.17100431
2607.0122 -562.75372 144.8793 -0.6694144 -0.74279922 -0.011562551 0.070081197
2611.3086 -573.65833 147.17673 0.69862151 0.69370121 -0.17523305 0.15591927
2560.2783 -528.90826 184.40331 0.83133495 0.42624044 0.35665298 0.086333022
2523.2083 -503.02676 222.49899 0.81422025 0.22048609 0.537058 0.090101205
2516.2551 -486.31927 224.67708 0.79428238 0.43075198 0.42844862 0.1144968
2615.1006 -603.38995 144.69905 0.57346219 -0.77369678 0.2693221 0.1843317
2565.519 -617.88129 182.47479 0.71895999 -0.29972336 0.62710643 0.093944952
2571.3586 -544.12756 185.65663 0.72406644 0.58320242 0.36824277 0.078717157
2625.96 -576.599 188.70581 0.76622492 0.46458238 -0.4439173 0.12940256
2568.376 -606.20386 181.90378 0.67098248 -0.18194059 0.71880466 0.1271746
2599.5549 -607.61292 159.37279 0.51698101 -0.44956565 0.7284376 0.16840392
2550.0664 -605.38562 198.96773 0.71535236 -0.25865167 0.64913046 0.15734236
2593.0725 -592.88354 164.2847 0.67066002 -0.24902782 0.6987133 0.13360643
2553.5798 -597.6488 201.41298 0.5974952 -0.69456214 0.40072799 0.15706562
2585.4827 -632.651 156.84613 0.53912985 -0.50307852 0.6754635 0.079608522
2549.502 -619.36395 196.07249 0.77609807 -0.19760853 0.59885108 0.15938233
2546.7234 -629.17841 194.10138 0.6363616 -0.59023416 0.49665645 0.18665574
2594.4302 -620.20923 156.73886 0.56831485 -0.39604637 0.72122502 0.098862365
2579.2717 -517.13464 154.59489 0.5829187 0.04541925 0.81126004 0.12709202
2611.7913 -571.81519 159.9599 0.7408796 0.67160076 0.0070597031 0.103151
2498.4231 -448.08057 232.0376 0.98832804 0.13804825 -0.064423077 0.148671
2539.875 -504.37885 194.16801 0.79700398 0.51712996 0.31202754 0.12644191
2574.343 -529.29449 157.87857 0.76611125 0.40241775 0.50113219 0.13015346
2509.022 -479.7478 233.02167 0.84892195 0.32096016 0.41990009 0.1509769
2620.4868 -586.48157 160.58687 0.94654441 0.31071877 0.086646244 0.20921837
2491.7166 -426.62863 273.569 0.91421759 -0.26450148 0.30699369 0.16229424
2548.3254 -518.49695 195.72134 0.76395434 0.56282383 0.31559956 0.10146028
2584.5671 -545.4035 158.17859 -0.67339116 -0.70822185 -0.21205218 0.11426738
2556.2798 -532.68768 197.75774 0.83281815 0.47937328 0.27679452 0.11877822
2493.6553 -414.94803 273.55789 0.98668021 0.14742798 0.068754584 0.17231637
2504.0972 -464.61227 232.36516 0.9568131 0.20180205 0.20924774 0.17606942
2577.124 -633.3833 162.86584 0.56147993 -0.39528814 0.72697151 0.10429528
2546.4163 -621.2655 200.33403 0.74894452 -0.28339174 0.59897512 0.16260239
2574.1875 -529.88702 158.0984 0.78136581 0.47060344 0.4098779 0.12312104
2502.145 -460.80746 234.6467 0.97484583 0.20418939 0.089344062 0.15936337
2586.2639 -620.58844 162.9191 0.53689903 -0.30018941 0.78843248 0.097163543
2547.3425 -608.3916 200.53008 0.72327495 0.077437282 0.68620461 0.14039807
2600.29 -607.35059 160.16399 0.50256181 -0.49132025 0.71136206 0.1560849
2569.1162 -512.7536 160.98108 0.71814603 0.042990077 0.69456327 0.15667246
2510.6643 -488.09027 237.71449 0.82112819 0.44885606 0.35252905 0.13205586
2593.2876 -594.41113 166.10367 0.6693151 -0.37638077 0.64058942 0.12950532
2610.0916 -569.83142 161.88416 0.716236 0.69727486 0.028526876 0.087592006
2506.8223 -475.94321 234.65233 0.88806903 0.2635951 0.37663108 0.15059878
2500.4185 -448.91003 234.96304 0.97031015 0.21596554 -0.10889006 0.13851844
2558.332 -536.88953 199.38663 0.83929735 0.44757906 0.30863076 0.12947868
2589.4329 -549.73737 159.55455 -0.6579591 -0.72945869 -0.18702912 0.085400701
2545.6833 -516.67572 198.56137 0.76027727 0.59808129 0.25352958 0.096349843
2622.7651 -587.89728 163.17281 0.94907022 0.28880918 0.12591667 0.15615638
2491.5559 -436.56943 273.46652 0.93289465 -0.30459341 0.19217283 0.16030875
2538.1714 -502.91031 196.05952 0.8468712 0.44309282 0.29407132 0.12819211
2495.9973 -425.39655 273.92874 0.99381417 -0.054505974 0.096760079 0.14302346
2551.4182 -596.68335 205.2774 0.74676532 -0.54491287 0.38132861 0.15473849
2493.8928 -413.71075 273.40552 0.97017545 0.23677675 0.05192633 0.18151465
2488.5513 -451.05875 274.15158 0.95915598 -0.10220172 0.26376998 0.16765431
2628.4265 -601.98962 130.53947 0.48208329 -0.81081295 0.33193076 0.28985274
2617.4497 -594.89069 138.79089 0.28094158 -0.56086361 0.77878356 0.22022931
2558.2703 -608.86609 189.25821 0.69552267 -0.12762916 0.7070778 0.12027826
2607.04 -608.36145 151.18964 0.64362699 -0.75392061 0.13171178 0.18216698
2554.9595 -622.00922 188.37944 0.73197639 -0.35539871 0.58129364 0.1582502
2550.0935 -629.78552 186.85753 0.34648529 -0.86001277 0.37460116 0.18352297
2492.8613 -443.7645 263.56229 0.89021838 -0.15407041 0.42868814 0.13097107
2494.1506 -418.68079 266.72293 0.97389221 0.20853956 -0.089694984 0.14192437
2621.8396 -586.99774 151.31593 0.97736639 -0.00070104317 0.21155235 0.20694532
2490.6101 -455.94839 267.52316 0.94946235 0.010626073 0.31370106 0.15310313
2561.7695 -535.95233 189.63786 0.82184511 0.48661709 0.29626739 0.089969598
2505.1602 -466.4223 224.87053 0.88507575 0.44500273 0.13643138 0.14718483
2558.6848 -594.46313 192.01591 0.63156915 -0.1736079 0.75563264 0.18466169
2616.7361 -577.33917 152.44261 0.75995564 0.64775306 -0.053697348 0.12795633
2582.4377 -544.98804 148.68219 -0.62699676 -0.77472109 0.081745423 0.13132441
2494.824 -429.65414 265.6391 0.92030966 -0.27066967 0.28243238 0.14362638
2553.3481 -520.80487 188.15741 0.81144863 0.45489413 0.36690935 0.086848907
2583.823 -537.48016 148.49345 0.73834616 0.57641423 0.35013086 0.1511952
2596.696 -594.13776 157.2789 0.72937876 -0.015004463 0.68394554 0.16821964
2518.5066 -495.85791 226.32854 0.81670451 0.22906622 0.52964371 0.081402354
2512.5442 -480.7612 226.2776 0.82961893 0.36410296 0.42327467 0.12375648
2561.3086 -525.87286 176.14667 0.81869054 0.40418676 0.40789565 0.095254034
2558.303 -634.77588 177.57481 0.59596509 -0.35489419 0.7203303 0.1564222
2530.1228 -491.61279 210.93567 0.7646749 0.096076176 0.63721395 0.11071432
2592.9229 -564.8064 178.07825 -0.49766293 -0.64363885 -0.58142978 0.075432315
2533.364 -611.32117 214.74846 0.62788582 0.076507039 0.77453601 0.15038227
2529.9153 -505.03833 214.9417 0.7715916 0.34937742 0.53158426 0.088385716
2581.8127 -594.56012 175.51807 0.60911655 -0.22567642 0.76029414 0.12977865
2536.688 -516.48694 218.25067 0.74700141 0.55979419 0.35863534 0.086538002
2570.647 -622.22571 174.16753 0.56239796 -0.32183692 0.76166236 0.10885429
2618.5359 -582.81635 170.18285 -0.54843158 -0.31540129 0.77443194 0.20983967
2535.9521 -628.34937 215.03136 0.71270466 0.061512548 0.698762 0.18413585
