# .PCD v0.7 - Point Cloud Data file format
VERSION 0.7
FIELDS x y z normal_x normal_y normal_z curvature
SIZE 4 4 4 4 4 4 4
TYPE F F F F F F F
COUNT 1 1 1 1 1 1 1
WIDTH 628
HEIGHT 1
VIEWPOINT 0 0 0 1 0 0 0
POINTS 628
DATA ascii
2653.1277 -999.69604 81.014404 0.99443573 -0.10522699 -0.0049863798 0.17649837
2662.1125 -1012.4159 30.735723 0.86583412 -0.046451159 0.49817026 0.13310812
2659.3291 -1048.5066 175.24219 0.70924652 -0.4587602 -0.53526485 0.113432
2637.8909 -1043.0074 127.30972 0.97650194 -0.16485195 -0.13880834 0.18051945
2642.9482 -1035.8862 81.957382 0.87869525 -0.477034 0.01825301 0.12480687
2645.4053 -1027.5482 127.61494 0.85369837 -0.38812 -0.34722033 0.15945932
2666.3093 -1029.9874 170.97615 0.73358595 -0.34734684 -0.58412486 0.13782807
2686.5168 -1029.4757 -7.9187903 0.59774619 -0.21128675 0.77334172 0.16342002
2665.7893 -1021.6903 160.34648 0.69763929 -0.5652104 -0.44026884 0.17667139
2659.8582 -1034.9247 164.08717 0.77622741 -0.41212726 -0.47709763 0.1303198
2640.6299 -1039.7083 70.00106 0.83861649 -0.54472214 0.00033796413 0.1363499
2662.2261 -1001.9481 27.606749 0.88989699 -0.059744779 0.45223215 0.15663485
2658.1631 -1036.0367 26.089716 0.85947818 -0.19352844 0.47312158 0.13079655
2652.8557 -1007.5918 70.995491 0.98236042 -0.18698603 0.0020645491 0.13547945
2646.832 -1019.7979 116.96271 0.97768861 -0.16395864 -0.13131069 0.1763338
2649.5823 -1024.6586 71.1222 0.95350194 -0.3009772 -0.015708491 0.11889242
2662.0784 -1019.5947 25.939381 0.86094111 -0.18159778 0.47518694 0.12437914
2637.7427 -1051.0759 114.78709 0.93381083 -0.35724175 0.019382548 0.16854943
2642.6838 -1035.3599 115.83997 0.96198201 -0.27261251 0.016524965 0.14973591
2650.5176 -1049.5654 160.83607 0.79643917 -0.35444406 -0.48995313 0.12875625
2654.9048 -1004.2704 55.307182 0.89388019 -0.42867225 0.13121845 0.10878419
2674.7715 -1004.5992 11.320048 0.80110002 -0.33969459 0.49279445 0.16606696
2668.8481 -1022.7718 9.3970356 0.87235671 -0.23640539 0.42790917 0.13770895
2651.6719 -1021.9294 53.942039 0.96336371 -0.20732525 0.17013693 0.10193715
2664.1631 -1047.0378 177.45282 0.72549903 -0.37999719 -0.57380593 0.09754815
2634.0952 -1046.9874 83.884476 0.74044871 -0.66755974 -0.078100584 0.12929854
2648.0017 -1027.1217 130.80028 0.85951173 -0.37781605 -0.34423044 0.15758494
2641.2656 -1042.2375 130.08063 0.9164384 -0.34115657 -0.20917168 0.15847063
2655.9392 -1024.2887 36.74258 0.90432686 -0.21016985 0.3715125 0.11311825
2639.5264 -1057.5636 127.81708 0.98290914 0.16977783 -0.071169578 0.22508259
2649.2583 -1017.0707 86.044769 0.95133382 -0.26030841 0.16493484 0.12175009
2652.2612 -1040.052 37.113361 0.90248805 -0.17948993 0.39153382 0.12208913
2647.8848 -1033.1753 85.341759 0.89949763 -0.43490744 0.041946918 0.13184124
2668.833 -1030.7211 175.77434 0.79008895 -0.31084037 -0.52833492 0.1100295
2657.635 -1014.6472 137.46077 0.87396705 -0.16629408 -0.45664856 0.16351193
2667.7539 -1021.2226 11.276005 0.8786236 -0.22597142 0.42066315 0.1317066
2647.2107 -1009.6776 101.83866 0.9687475 -0.15588351 0.19294731 0.10270634
2677.5183 -1065.2158 203.39659 0.77640879 0.53243417 0.33719912 0.18514104
2681.8943 -1037.1608 200.43968 0.73561829 -0.54918158 -0.39656702 0.14431505
2674.6421 -1049.9254 197.26109 0.91338658 -0.097803906 -0.39517003 0.16836524
2653.2234 -1004.3292 57.307228 0.97680593 -0.20862626 0.048220802 0.10902061
2650.0427 -1022.1537 58.398441 0.95731795 -0.27320325 0.094351932 0.103208
2643.447 -1038.3234 59.617516 0.92077512 -0.35350308 0.16495067 0.10206046
2660.7212 -1037.8171 16.840458 0.91184777 -0.08543101 0.40154105 0.12002855
2668.4482 -1008.3779 16.618174 0.79990065 -0.45529759 0.39097703 0.12625276
2663.0725 -1021.7609 16.96212 0.88980818 -0.22187032 0.39876685 0.12705243
2675.519 -1040.2313 -1.4833081 0.61270934 0.35421371 0.7064842 0.19540033
2644.4924 -1031.0312 83.217651 0.92103624 -0.38108093 0.080433734 0.1203868
2648.5493 -1044.4407 40.246193 0.92348677 -0.15561897 0.3506493 0.13186909
2690.5867 -1011.1121 -7.1528449 0.56593364 -0.10814871 0.81732672 0.23032004
2650.1592 -1012.0786 84.1679 0.94877088 -0.27546081 0.15477461 0.13625102
2652.5491 -1027.4247 39.941525 0.91734314 -0.23551546 0.32095802 0.10883624
2632.8049 -1048.299 82.732124 0.803069 -0.59473264 -0.037058383 0.11245223
2685.1101 -1029.9242 -4.3673563 0.22876301 -0.19045757 0.95466924 0.17165059
2688.4028 -1048.7799 -11.184958 0.44401327 -0.16362445 0.88095361 0.15570369
2642.1519 -1037.5916 64.770737 0.91171306 -0.40168223 0.086201198 0.12113556
2642.6736 -1031.485 111.76165 0.97151828 -0.21504754 0.099532858 0.12818447
2650.6968 -1044.3595 156.65652 0.81404728 -0.41992477 -0.40123582 0.11127995
2682.5151 -1076.3741 207.50067 0.95072931 0.29128966 -0.10613272 0.18417744
2637.407 -1048.1254 112.76616 0.97816259 -0.17180218 0.11696982 0.15335371
2685.1567 -1030.2513 203.76477 0.73201567 -0.64995766 0.20422564 0.1238036
2645.9438 -1010.0193 110.45072 0.95596504 -0.29026422 0.043331128 0.13001461
2656.0017 -999.66675 61.955444 0.94854486 -0.31593797 -0.021114273 0.13422525
2660.5869 -1027.7551 157.20375 0.79179442 -0.46953872 -0.39063406 0.12641512
2650.6982 -1018.0923 63.115273 0.95861715 -0.28312603 0.029879341 0.10287244
2636.822 -1038.6146 126.24512 0.96611673 -0.25265473 -0.052763712 0.14842908
2643.4312 -1023.7495 124.59946 0.8709181 -0.43859074 -0.22167502 0.15125529
2649.4487 -1011.1706 120.97122 0.65244848 -0.63324916 -0.41630101 0.15275532
2654.9233 -1022.3502 37.306793 0.91150004 -0.20775838 0.35497057 0.1083908
2650.7488 -1013.2064 82.581352 0.97844481 -0.18265243 0.096352868 0.13042906
2654.0264 -1001.1028 81.177406 0.99122429 0.068433508 0.11309842 0.22555415
2659.0151 -1004.3234 35.828007 0.91493398 -0.14683867 0.37594441 0.14422981
2643.8638 -1030.447 82.738091 0.91251189 -0.39998329 0.085647009 0.12282608
2652.7 -1011.0281 61.047382 0.96341956 -0.26771346 0.012337227 0.10286713
2647.2791 -1028.4338 62.107967 0.94401062 -0.32014784 0.079682775 0.10599437
2666.1116 -1010.629 18.629684 0.87271529 -0.19991216 0.44542462 0.13161322
2663.0491 -1028.1012 18.249352 0.89584917 -0.19537508 0.39910257 0.12422091
2664.3867 -1029.2434 166.33333 0.75397289 -0.3928 -0.52652925 0.15614514
2654.145 -1046.8362 165.74063 0.7338298 -0.42844364 -0.52719057 0.12527968
2678.5952 -1009.9968 2.016052 0.48724696 -0.51300275 0.70669556 0.17859085
2652.5107 -1034.7007 38.352077 0.91741306 -0.18309303 0.35331327 0.11296965
2673.1938 -1037.1406 -0.62279379 0.69391495 -0.11001876 0.71160239 0.20484963
2682.481 -1024.7423 -3.8341508 0.41419956 -0.29089135 0.86245054 0.17920507
2656.9578 -1018.9916 35.981342 0.8998059 -0.17905287 0.39785597 0.11393402
2676.2927 -1044.2599 201.26385 0.73124975 -0.57129186 -0.37269214 0.13646285
2670.5415 -1051.7955 207.97969 0.92762524 0.33792713 0.15911224 0.19036947
2654.8616 -1028.272 146.38834 0.81680793 -0.44974047 -0.36132857 0.11549619
2643.3555 -1034.7334 99.341927 0.9423179 -0.32144481 0.093328603 0.11554065
2635.2021 -1052.642 101.02747 0.91189378 -0.40922418 -0.031390302 0.12435293
2652.9175 -1025.4387 49.96273 0.96231139 -0.16542397 0.21585102 0.11843045
2645.0732 -1041.0879 53.183159 0.93019974 -0.24844465 0.27019191 0.10707553
2656.2549 -1006.0591 48.842548 0.95679522 -0.11623299 0.26651973 0.14023532
2647.6655 -1015.937 98.927757 0.96126896 -0.18123709 0.20764177 0.10460376
2645.0774 -1045.6252 146.50514 0.812778 -0.49206364 -0.31187394 0.12074835
2672.8611 -1050.9691 193.06958 0.87695128 -0.19466436 -0.43938854 0.13385408
2679.2371 -1032.1401 192.88911 0.81862974 -0.3992551 -0.4128446 0.10395171
2672.668 -1045.7983 1.0971181 0.77305335 -0.066866323 0.63080698 0.18702996
2646.4934 -1018.9963 95.99942 0.95405298 -0.21154872 0.21220279 0.11062399
2644.5178 -1033.2111 136.14322 0.79234421 -0.39035279 -0.46884471 0.12223448
2679.6052 -1028.5645 -2.6228907 0.74429584 -0.19805071 0.6378085 0.15416194
2637.1208 -1045.9565 133.77864 0.89547944 -0.1335288 -0.42460176 0.15365992
2659.8057 -1017.1152 141.6917 0.72852874 -0.5396834 -0.42188588 0.13766426
2634.0869 -1055.0367 94.989113 0.91480225 -0.38727459 -0.11469615 0.12636684
2678.7207 -1007.8852 0.041108701 0.75785106 -0.038164537 0.65131044 0.20679882
2642.0579 -1037.6472 94.867638 0.9078064 -0.41739634 0.040839769 0.12344763
2654.7019 -1011.7824 46.528385 0.92843395 -0.15565033 0.33731788 0.12446918
2646.4893 -1046.5461 44.016113 0.81533068 -0.46754268 0.34152555 0.12851359
2651.6128 -1030.7806 46.744236 0.92880702 -0.25814465 0.26585501 0.11361491
2639.3086 -1037.0093 121.8959 0.97191125 -0.23503232 -0.012177567 0.14856257
2644.1353 -1020.6079 120.42728 0.90018451 -0.39922771 -0.17402607 0.15695937
2636.4001 -1044.7124 76.950455 0.78166986 -0.62358838 -0.011390764 0.13425434
2636.6387 -1050.5776 122.91006 0.991193 0.11154614 0.071371637 0.1926406
2661.218 -1023.0804 27.170786 0.84909779 -0.1632923 0.50236303 0.11962529
2656.7009 -1040.0427 28.118233 0.84228235 -0.24439836 0.48044759 0.13140172
2646.9688 -1027.595 76.965889 0.93031228 -0.36547521 0.030773299 0.12019526
2643.6597 -1036.7747 81.040779 0.8146534 -0.57993054 -0.0045258785 0.12676519
2649.1064 -1017.8911 123.42053 0.73805785 -0.56238496 -0.37281868 0.17138861
2642.8894 -1032.9541 126.02769 0.899584 -0.37406203 -0.22544681 0.1583855
2650.6875 -1050.1448 34.427113 0.83615369 -0.17603894 0.51947796 0.14845827
2690.0994 -1054.3608 -13.8223 0.59922844 -0.13204166 0.78961402 0.12598853
2637.5012 -1046.7677 125.1043 0.9937489 -0.07265424 -0.084761053 0.18550105
2628.6858 -1053.9385 79.503479 0.80189008 -0.57878679 -0.14825028 0.13817325
2655.6492 -1033.4432 32.737869 0.86248624 -0.20424618 0.46303451 0.11655496
2648.5569 -1022.502 80.898987 0.94324309 -0.32547501 0.066019073 0.1189341
2642.0093 -1054.5205 125.10318 0.72628659 0.68357944 -0.072297134 0.18136799
2638.3914 -1046.8097 127.05884 0.95040733 -0.29712799 -0.091873981 0.18024296
2635.3472 -1045.2975 79.484978 0.63082099 -0.77313739 -0.065753415 0.13782237
2670.3889 -1034.9858 177.56761 0.80763304 -0.28990081 -0.51350403 0.10176501
2651.0244 -1017.1324 127.92547 0.79188633 -0.44298461 -0.42033398 0.16107824
2666.0449 -1049.3463 180.62103 0.65178144 -0.43610868 -0.62047577 0.096578218
2645.0693 -1031.5759 128.33098 0.86577314 -0.39449731 -0.30791035 0.15592997
2645.0654 -1033.942 79.647354 0.86225468 -0.50457329 0.043848012 0.13623354
2650.043 -1019.581 79.8452 0.96095312 -0.27507931 0.030008743 0.12633732
2662.6582 -1029.8621 163.60994 0.91129273 -0.23169667 -0.34038544 0.14291844
2678.8652 -1049.9524 204.63002 0.86978084 -0.24736138 -0.42695865 0.19709772
2642.572 -1056.1028 152.53105 0.88147432 -0.24479708 -0.40382841 0.13249545
2654.1619 -1042.033 160.83904 0.7624017 -0.46754593 -0.44737503 0.12061647
2672.4792 -1060.2052 209.4929 0.8548196 0.43371055 0.28491858 0.18159902
2661.6677 -1020.726 26.261978 0.86092758 -0.17708512 0.47691149 0.1217918
2658.9314 -1037.7588 24.76873 0.84702188 -0.25840607 0.46452156 0.12469496
2654.292 -1054.8594 27.53327 0.82363629 -0.16357119 0.54301721 0.14026144
2643.1313 -1036.8357 76.032494 0.83845836 -0.54493695 -0.0055952752 0.12854944
2649.6665 -1019.898 76.006157 0.956092 -0.29253405 -0.017662458 0.13512254
2655.8474 -1036.1713 30.483564 0.8554455 -0.17284857 0.48819703 0.12523082
2663.7217 -1021.9111 24.694071 0.86360985 -0.10134909 0.49386877 0.11251262
2689.613 -1053.5642 -7.5211926 0.32633856 0.40064672 0.85614562 0.16595212
2694.4421 -1041.1334 -10.995059 0.27053687 -0.2126347 0.93893361 0.1299631
2651.0251 -1053.6826 32.94635 0.85679269 -0.11639409 0.50235319 0.15072687
2629.0088 -1052.0895 75.026154 0.73624694 -0.67643392 -0.019430218 0.14798374
2643.9072 -1036.8531 63.782421 0.87332916 -0.47859395 0.090796597 0.12194043
2644.7878 -1026.588 107.71114 0.97509277 -0.18160421 0.1273343 0.11845972
2670.1013 -1012.6009 12.990183 0.88519025 -0.090621479 0.45631781 0.14028537
2660.2864 -1048.4728 13.476777 0.83985651 -0.38403928 0.38360775 0.13140015
2666.4114 -1031.2422 14.155009 0.87406325 -0.18457516 0.44938344 0.11774357
2688.0828 -1026.5538 201.65993 0.65281612 -0.547378 0.5236491 0.11231893
2639.0771 -1044.9501 108.65217 0.93527925 -0.33595404 0.1112994 0.13695079
2658.4055 -1026.1571 152.41666 0.7863065 -0.4980652 -0.36558595 0.12277421
2650.613 -1017.6879 64.120331 0.96609288 -0.25433329 0.044486698 0.10203211
2677.7656 -1067.1608 205.89818 0.77640879 0.53243417 0.33719912 0.18514104
2649.71 -1043.4021 154.61784 0.78798389 -0.44626033 -0.42418519 0.10261459
2678.7864 -1045.3995 201.85359 0.88161719 -0.25778696 -0.39534411 0.16601594
2675.4409 -1013.6792 3.9604375 0.82007533 -0.1687402 0.54681182 0.1787283
2647.2524 -1039.3508 142.85774 0.8263334 -0.46110678 -0.3233476 0.12445732
2641.282 -1050.0072 51.710896 0.87981981 -0.38832343 0.27408385 0.11766931
2670.7549 -1046.8237 5.092443 0.84587395 0.084958814 0.52657312 0.1812775
2671.6562 -1029.9172 3.7801778 0.82574093 -0.19865401 0.52790958 0.15830773
2676.3994 -1067.3413 192.4736 0.95733011 0.19452882 -0.21372309 0.14327189
2676.3184 -1046.3987 194.96155 0.87389827 -0.18217616 -0.45068133 0.094595425
2656.3435 -1024.7057 144.16196 0.82807767 -0.40800914 -0.38446832 0.12597737
2652.5576 -1018.3149 52.352055 0.95696485 -0.19347203 0.21630272 0.10440069
2646.7686 -1026.5708 95.237549 0.95525575 -0.26096573 0.13922411 0.13260989
2649.1663 -1036.4347 50.754131 0.94592285 -0.25381306 0.20201202 0.11771366
2643.2646 -1040.3208 96.261673 0.84889644 -0.52815402 -0.020691372 0.1225853
2638.7073 -1052.4156 141.96559 0.77637947 -0.59451389 -0.20925613 0.15523192
2670.4446 -1053.6979 190.7475 0.88860083 -0.096235365 -0.44847226 0.13649626
2652.9163 -1044.2616 32.537998 0.83729893 -0.23911357 0.49168608 0.14390053
2638.5608 -1052.7123 124.73079 0.9091869 0.41584963 -0.021172099 0.20365828
2657.8384 -1027.369 31.378021 0.87604165 -0.17484313 0.44942281 0.12124062
2638.729 -1042.9658 124.97299 0.96803349 -0.25072286 -0.0070104352 0.16194554
2692.5486 -1046.3914 -14.969473 0.62882859 -0.15613556 0.76170617 0.11101568
2643.3308 -1025.7762 123.48861 0.89467746 -0.39233962 -0.21359287 0.16334896
2650.3162 -1015.3528 80.078651 0.9642998 -0.25846809 0.057620738 0.13023992
2633.6133 -1048.0597 78.823837 0.78426892 -0.61816418 -0.052870464 0.12269275
2647.2332 -1031.6715 79.76329 0.87765729 -0.47881651 0.021271087 0.13444459
2661.3511 -1029.1763 161.80428 0.79986852 -0.40161002 -0.44600418 0.14332287
2650.5679 -1046.332 158.80031 0.81495726 -0.34133285 -0.46833378 0.11701757
2668.3037 -1028.5059 15.786959 0.87277383 -0.13448822 0.46923214 0.10665777
2670.7244 -1047.9852 203.56044 0.91590023 0.36095923 -0.17559943 0.19174378
2647.6389 -1028.553 64.933762 0.94905299 -0.31171346 0.046185847 0.11858112
2650.5479 -1004.9255 108.51988 0.82097071 -0.56910527 -0.046112169 0.12479824
2646.4358 -1022.134 109.76095 0.9811756 -0.18615453 0.051389702 0.13828519
2652.916 -1010.4087 65.077232 0.9818148 -0.1882422 -0.024586899 0.1154492
2665.6221 -1005.1272 20.897713 0.87287784 -0.068444155 0.48311457 0.13976358
2662.5659 -1021.8732 154.91685 0.69448018 -0.60803854 -0.38468993 0.14356002
2653.4358 -1037.2418 155.64684 0.80664575 -0.4076834 -0.42792156 0.1037243
2689.782 -1022.7042 205.702 0.46085361 -0.62518126 0.62989074 0.12964849
2639.9653 -1039.9923 110.99611 0.97043711 -0.2154188 0.10884175 0.12724392
2654.0095 -1001.0452 76.693069 0.98927426 -0.1182114 -0.085804999 0.18308616
2646.9998 -1010.4763 118.89481 0.91202521 -0.37113777 -0.17454723 0.16426276
2642.4016 -1027.0658 120.61916 0.93200886 -0.3564291 -0.065709762 0.16703828
2649.9668 -1016.9808 75.958473 0.94937474 -0.31386456 -0.01328967 0.13469958
2636.3501 -1042.6268 121.75777 0.96877694 -0.20605536 0.13788545 0.1576101
2642.4329 -1034.9719 74.622276 0.88108695 -0.47083017 -0.044774286 0.12141873
2659.9829 -1009.2294 30.479921 0.89368528 -0.068745464 0.44339678 0.14400257
2658.2927 -1029.0542 29.16901 0.85500628 -0.15836515 0.49384692 0.11273314
2691.5107 -1026.7366 -8.0002174 0.4276717 -0.23026586 0.87411356 0.15345758
2638.5259 -1041.4077 127.39769 0.95687073 -0.24185286 -0.16095226 0.16113539
2658.4707 -1013.7079 130.08713 0.60478836 -0.70234847 -0.37541664 0.1720878
2651.1477 -1042.5055 37.868538 0.90574414 -0.21319304 0.36630073 0.12399257
2682.5671 -1042.8142 -7.7155414 0.50520599 -0.21693844 0.83528715 0.20562971
2633.4062 -1048.5482 83.709366 0.79887354 -0.59762442 -0.068162031 0.11763328
2649.7791 -1015.5306 84.660179 0.9676103 -0.20447831 0.14805032 0.12322431
2641.6162 -1026.8468 125.53211 0.842143 -0.46380687 -0.27509698 0.15724325
2655.2517 -1025.8142 36.700481 0.90467966 -0.22456515 0.36211216 0.11148693
2689.2024 -1013.8036 4.2929387 -0.51351434 -0.36288598 0.77757108 0.22896849
2644.9233 -1032.5424 84.722855 0.8989867 -0.43521756 0.049077708 0.11750592
2645.2976 -1052.6765 157.79762 0.74045444 -0.57564187 -0.34693468 0.11322261
2666.75 -1025.9994 15.886831 0.88605273 -0.14185509 0.4413476 0.11786538
2649.0759 -1030.5773 62.928024 0.92786384 -0.355874 0.11145566 0.10529502
2637.1365 -1055.8683 110.86941 0.97769988 -0.14913863 0.14785351 0.17055848
2662.0046 -1041.6793 16.111393 0.85064554 -0.3292779 0.4098514 0.12189379
2641.9705 -1041.8293 62.57032 0.69552398 -0.70774984 0.12384105 0.12192586
2663.5186 -1023.6869 158.21111 0.78681576 -0.51174647 -0.34501675 0.14822921
2644.8247 -1039.5953 111.06826 0.92321026 -0.37870878 0.065287858 0.1313401
2644.6177 -1021.3915 111.41245 0.95399028 -0.28747404 0.08521305 0.12026054
2660.801 -1060.3479 16.209986 0.82601988 -0.12827933 0.54884934 0.15420587
2654.9351 -1038.811 159.20901 0.7728079 -0.4449873 -0.45249784 0.11455902
2658.0144 -1016.0836 169.1124 0.93941784 0.3409448 -0.035365388 0.20723918
2690.2053 -1058.1261 -13.347699 0.58818394 -0.061539106 0.80638242 0.13553993
2642.46 -1037.5048 121.60482 0.94662613 -0.3132621 -0.075932808 0.15293629
2651.1594 -1056.272 33.81226 0.86501986 -0.074449576 0.49618331 0.16359784
2640.251 -1041.0488 76.049042 0.81538332 -0.57873869 -0.014546937 0.13172826
2635.4807 -1055.2372 121.76337 0.95179635 -0.3040041 0.040806524 0.20946018
2663.1472 -1036.0844 169.89609 0.7398048 -0.42396855 -0.52243614 0.12427291
2648.6411 -1025.9539 75.657021 0.95067817 -0.30591124 0.051277358 0.12722911
2655.5029 -1039.3387 30.676077 0.86027062 -0.22781929 0.45610616 0.13951969
2647.4509 -1018.6217 119.60388 0.89153779 -0.38199309 -0.24339604 0.17491679
2650.7954 -1053.7943 168.03316 0.72412866 -0.46480879 -0.50950027 0.10718423
2693.7615 -1039.0265 -10.991781 0.32574379 -0.18983625 0.92620361 0.1230207
2658.8191 -1019.1505 31.427088 0.87515211 -0.16084433 0.45633096 0.1240897
2661.4763 -1056.0247 206.90353 0.3083854 0.35223478 0.88364536 0.16905539
2641.4492 -1041.9984 131.22661 0.88872337 -0.39088434 -0.23954163 0.1535888
2647.6809 -1032.6742 85.352135 0.90242851 -0.42859766 0.043895599 0.13086744
2652.2849 -1040.5822 37.258419 0.89575315 -0.21823543 0.38729787 0.11817333
2649.4297 -1018.0881 86.195602 0.96638149 -0.19281355 0.17008761 0.12315705
2648.9631 -1026.4711 131.67584 0.87177789 -0.33018795 -0.36191055 0.16291986
2638.99 -1056.4546 128.64249 0.98690617 0.13489246 -0.088431947 0.21778302
2665.0325 -1046.9883 178.5993 0.72074556 -0.37057951 -0.58582991 0.09878359
2657.9844 -1025.2521 34.844929 0.87162083 -0.19007216 0.45182922 0.11094994
2634.009 -1046.937 84.875008 0.72977269 -0.67768764 -0.090395391 0.13076304
2669.4172 -1030.8248 177.36145 0.82341975 -0.24749637 -0.51061285 0.10220715
2658.1096 -1012.8475 135.61632 0.84656316 -0.3001796 -0.43957141 0.15223001
2670.2844 -1037.545 3.9569771 0.83335835 -0.22099833 0.50662965 0.17026742
2677.8442 -999.69012 4.40447 0.79848778 -0.11476538 0.59097052 0.18042512
2672.1514 -1017.8325 7.4099121 0.79575956 -0.30792221 0.5214889 0.15403342
2648.0815 -1036.1075 48.441658 0.91348064 -0.24787574 0.322662 0.11332954
2638.2593 -1044.1934 93.033752 0.88415974 -0.46699795 0.013207424 0.13882938
2655.5701 -1023.0823 42.800552 0.92722499 -0.1555642 0.34066632 0.11084616
2649.8403 -1024.359 135.91611 0.74129856 -0.4263519 -0.5183633 0.12797818
2673.0068 -1033.7147 1.2392417 0.77399725 -0.22232679 0.59287357 0.18098021
2643.4338 -1040.1112 137.78799 0.82860255 -0.3783417 -0.41264433 0.1348414
2676.6133 -1015.9483 1.7077368 0.79331404 -0.10599287 0.59951508 0.18093161
2646.833 -1029.5016 92.691391 0.93865967 -0.32298809 0.12081706 0.13103919
2649.2363 -1009.6115 94.93998 0.94489115 -0.17851774 0.27443051 0.12827881
2678.4253 -1006.9218 -2.5498261 0.81866688 0.38103092 0.42965102 0.17477907
2640.4187 -1055.8358 137.20082 0.92561978 0.034396142 -0.37688848 0.17943916
2661.5349 -1020.9376 152.34219 0.80146468 -0.4895702 -0.3434754 0.14258064
2673.6326 -1060.957 206.04356 0.87233877 0.34561667 0.34579495 0.18332955
2688.3489 -1025.4541 202.47774 0.65281612 -0.547378 0.5236491 0.11231893
2650.2417 -1038.9003 151.47893 0.79968017 -0.46874937 -0.3752141 0.10240064
2641.7615 -1056.4015 152.61983 0.88614959 -0.33017373 -0.3251527 0.1325518
2639.6865 -1039.9664 129.57971 0.9400534 -0.27645704 -0.19967754 0.14766271
2646.6628 -1027.8125 82.775391 0.94024152 -0.33457583 0.063284174 0.12012615
2651.2983 -1008.2897 82.142311 0.97045606 -0.21656032 0.10637968 0.14208195
2641.7402 -1054.3617 130.61314 0.84782785 0.50804728 -0.15190725 0.20351577
2670.5417 -1021.1124 175.69328 0.85636455 -0.17768246 -0.48483878 0.14586684
2650.2917 -1022.6848 131.32033 0.84434944 -0.37576729 -0.38193318 0.15430558
2665.9578 -1040.5801 177.69363 0.78925765 -0.31802431 -0.52529317 0.10593092
2635.2439 -1046.1344 82.796402 0.80379963 -0.59364909 -0.038560379 0.1170901
2653.9136 -1014.1272 86.37336 0.9895944 0.0069588604 0.14371668 0.15651698
2644.0732 -1035.4871 132.58984 0.86005592 -0.39024019 -0.32865843 0.14247124
2688.8804 -1016.1489 -7.872016 0.64002234 -0.13221584 0.75689524 0.19503622
2653.6494 -1035.3268 38.290447 0.89390099 -0.23553108 0.38140023 0.11036931
2654.7917 -1014.1919 42.890404 0.93295896 -0.19198987 0.30451193 0.11080887
2652.1079 -1019.9777 132.21631 0.75935227 -0.48318785 -0.43579078 0.14837088
2647.2139 -1023.72 88.287178 0.94382143 -0.30693847 0.12243316 0.12221752
2646.3535 -1048.5469 43.227146 0.9192012 -0.17020917 0.35510275 0.1368143
2632.4719 -1044.6366 126.50996 0.94450688 -0.093844011 -0.3148016 0.16938695
2673.8699 -1029.0917 0.47167802 0.72848618 -0.20549232 0.65351421 0.18665546
2640.7935 -1039.8848 87.998894 0.87315714 -0.48741633 0.0046827863 0.11672081
2671.5278 -1042.3298 2.4070039 0.79932201 0.17734428 0.57413703 0.20418619
2660.8735 -1043.9932 171.12796 0.68915153 -0.50217181 -0.52239221 0.10113977
2639.4902 -1042.3182 120.92997 0.96468246 -0.2620365 0.026918223 0.15648144
2645.3967 -1032.5963 74.073944 0.88634342 -0.46280956 -0.014237266 0.13018174
2665.0283 -1027.9821 166.68887 0.77795041 -0.37667009 -0.50290442 0.15409008
2644.7905 -1057.5455 165.85368 0.68119711 -0.58801246 -0.43613279 0.13785565
2651.9221 -1019.932 74.955696 0.98564994 -0.16876365 0.0036154548 0.12158762
2633.6821 -1057.0896 120.68324 0.90731901 -0.41797477 0.045490317 0.21282268
2651.6367 -1054.6498 34.778954 0.81258529 0.11385509 0.57161361 0.15297048
2658.1858 -1024.7831 30.624168 0.87027031 -0.21392931 0.44369334 0.12548126
2634.1833 -1045.9265 73.046066 0.65887088 -0.75207049 -0.016709264 0.14571637
2644.5745 -1025.6354 120.68948 0.91221523 -0.36810073 -0.17990325 0.17972334
2668.5659 -1035.0475 -2.4848013 0.73586768 -0.061342333 0.67434108 0.2422957
2653.4653 -1040.0901 32.808758 0.85265887 -0.14376348 0.50229967 0.13777906
2646.0042 -1051.8961 40.713203 0.90090638 -0.06725575 0.42877072 0.16134644
2636.0708 -1056.4736 124.04104 0.98414117 -0.17685045 -0.013787712 0.21689889
2674.0291 -1019.4384 0.9627583 0.44193918 -0.39864719 0.80359828 0.1691142
2667.6865 -1026.1334 173.67497 0.89021015 -0.17304347 -0.42140463 0.15341961
2674.8708 -1033.295 -2.3682799 0.6185419 -0.11658294 0.77705491 0.2017763
2637.0188 -1044.0165 78.999657 0.75157517 -0.65950578 -0.013670576 0.12591675
2651.2749 -1013.91 80.78923 0.98171151 -0.18691264 0.036141556 0.12867969
2654.2717 -1021.6783 38.666763 0.91756183 -0.21177967 0.33649614 0.10602746
2647.1038 -1029.1052 79.737854 0.93144476 -0.36044925 0.049869731 0.12793635
2670.8364 -1040.0762 -1.4812469 0.62192255 0.50099963 0.60184026 0.18670292
2652.3247 -1057.2272 172.73065 0.67763394 -0.47420517 -0.56208688 0.089333087
2642.3674 -1040.3511 126.23219 0.91323304 -0.38602296 -0.13035202 0.15363513
2651.5129 -1038.1188 38.243958 0.91026974 -0.18473516 0.37051573 0.12085194
2646.449 -1024.188 124.88396 0.89732385 -0.37555221 -0.23188454 0.17447947
2664.7246 -1042.8138 175.67863 0.74207395 -0.38682845 -0.54743946 0.10383695
2636.9604 -1048.9482 103.13464 0.95144272 -0.30476934 0.043270938 0.13143237
2658.2168 -1030.4741 153.4752 0.80647856 -0.46896335 -0.36009124 0.11736652
2643.3345 -1033.9493 103.53813 0.95431364 -0.27354309 0.12024857 0.11067798
2649.9321 -1043.6656 151.82625 0.76038754 -0.57389659 -0.30406159 0.093668975
2649.7354 -1021.739 57.590412 0.95236677 -0.28876594 0.098039351 0.10410531
2646.4507 -1038.0203 55.469612 0.9163183 -0.35216373 0.19063443 0.11333804
2672.4631 -1050.9988 192.41019 0.89152342 -0.16298288 -0.42263764 0.13714033
2684.582 -1071.2743 197.20369 0.7687937 0.58499348 0.25833875 0.17341223
2637.4192 -1053.1077 56.443962 0.8657316 -0.41290179 0.28287974 0.10496818
2644.9812 -1015.1966 105.21786 0.97137386 -0.16649029 0.16945143 0.093684696
2674.2595 -1038.1804 187.88698 0.8762179 -0.19197989 -0.44202483 0.10034067
2645.1001 -1060.361 132.74719 0.86773264 0.44900537 -0.21315305 0.19949268
2651.0723 -1029.8665 138.87105 0.81270593 -0.42961594 -0.3936232 0.13811052
2642.3416 -1044.8262 137.18217 0.85181201 -0.4642278 -0.24271145 0.14396127
2659.217 -1017.4962 142.31519 0.87810773 -0.20389819 -0.4328422 0.15511484
2654.1501 -1016.1154 42.910229 0.93064511 -0.21514659 0.29599255 0.10925718
2672.8611 -1020.5419 2.7042289 0.60868502 -0.40293095 0.68348312 0.1755905
2649.5967 -1035.1979 42.887623 0.92127931 -0.23553926 0.30946022 0.11897938
2668.8118 -1036.0385 1.7972518 0.81028116 -0.16834602 0.56134135 0.20228574
2671.676 -1039.0215 -0.22539774 0.70862859 0.29136571 0.64261305 0.18269871
2650.321 -1049.3644 37.234196 0.8858071 -0.07468906 0.45800367 0.1471573
2665.1863 -1021.9745 26.815794 0.85357291 -0.12515967 0.50571567 0.10152663
2649.7065 -1018.5749 126.72066 0.80013001 -0.46556842 -0.37820363 0.15589081
2649.0435 -1023.9432 81.730927 0.95830476 -0.28333372 0.037067048 0.11795698
2640.6846 -1039.5953 81.998207 0.85966271 -0.51086169 -0.00057495019 0.11764345
2628.6946 -1053.5367 80.875031 0.78337461 -0.60536051 -0.14093596 0.13410136
2637.2327 -1046.2096 126.29019 0.99817479 -0.017099049 -0.057919733 0.18767169
2679.9749 -1031.0403 -4.218379 0.51947117 -0.18164441 0.83495808 0.19302641
2642.3689 -1033.491 126.71606 0.9238351 -0.33137774 -0.19161822 0.14977765
2653.6208 -1033.5612 36.196541 0.89290005 -0.19116464 0.40765864 0.12168219
2670.1792 -1026.5334 6.2484303 0.84876144 -0.20776188 0.48624998 0.14798713
2667.5554 -1044.1162 6.9175854 0.85953259 -0.064221345 0.50702995 0.1741392
2676.144 -1011.0349 4.0977945 0.81120563 -0.19649912 0.55075723 0.17895757
2672.6936 -1050.3735 197.30431 0.94523555 0.13147601 -0.29873711 0.16357726
2687.3855 -1027.1721 204.47766 0.69531864 -0.65148294 0.30348304 0.15664473
2658.3879 -1030.4858 25.387587 0.84723222 -0.17038994 0.50315487 0.11776
2650.6931 -1014.4556 67.061104 0.95262188 -0.30406299 0.0075661805 0.1136328
2654.333 -1045.6517 28.260305 0.84174782 0.025871249 0.53925067 0.14748028
2663.1819 -1013.098 24.714983 0.87058485 -0.18445927 0.45613244 0.13972776
2645.2632 -1033.1364 66.91584 0.8945753 -0.44481009 0.043347988 0.12748009
2630.4958 -1050.8773 66.985291 0.78277177 -0.61374432 0.10288986 0.14541309
2663.5869 -1031.1436 19.085976 0.85205179 -0.21378718 0.47781041 0.1203282
2680.8167 -1070.9121 207.57835 0.76225746 0.58753937 0.27158991 0.16435127
2639.5063 -1045.3999 111.97308 0.93502527 -0.3545711 0.0026517292 0.1419398
2636.7405 -1055.1401 113.50979 0.73804277 -0.66013443 -0.13969736 0.14048316
2661.3108 -1030.8389 162.35609 0.82336819 -0.38911337 -0.4131048 0.148766
2644.866 -1035.9229 67.568695 0.86702317 -0.49550298 0.052417595 0.13112836
2643.9351 -1029.5294 111.63609 0.97018909 -0.23525335 0.058215391 0.13532862
2652.0859 -1045.1331 160.2645 0.73102635 -0.53545934 -0.42294657 0.1067661
2660.4441 -1046.9906 16.346762 0.81077564 -0.37218091 0.45180115 0.12111481
2632.7693 -1048.5232 66.486 0.66142797 -0.73436153 0.15240134 0.14413543
2649.5862 -1020.89 68.996193 0.96634936 -0.25707918 0.0089009656 0.11119357
2671.0032 -1029.9856 3.3830965 0.8175751 -0.16106655 0.55283684 0.17448474
2653.4131 -1013.4362 48.452541 0.91424429 -0.20473756 0.34962821 0.11479973
2679.6208 -1014.7602 -1.2115037 0.74499363 -0.12952308 0.65437627 0.19632827
2647.146 -1017.5879 93.689262 0.94737738 -0.2680631 0.17498085 0.12308741
2632.062 -1052.7969 91.372177 0.87016958 -0.48078838 -0.10792349 0.13347632
2642.3245 -1048.7262 49.461018 0.91975677 -0.24286175 0.30832711 0.14266708
2665.741 -1039.3124 5.3784885 0.8725149 0.3210178 0.36832777 0.16432813
2642.2749 -1037.1124 92.019653 0.92356914 -0.37769955 0.066053554 0.12330876
2649.553 -1032.5653 46.891792 0.92407912 -0.2046393 0.32280108 0.11540961
2647.8472 -1028.9164 134.07494 0.80593729 -0.44083601 -0.39513123 0.13925743
2634.5723 -1046.4814 88.319176 0.69112051 -0.71700495 -0.090864561 0.1315766
2656.5933 -1007.9363 40.83604 0.91781777 -0.1437908 0.37004688 0.12629603
2638.4878 -1042.7651 130.60025 0.93294787 -0.27189374 -0.23597047 0.15580802
2678.5918 -1022.8776 -2.3421288 0.74683636 -0.22408974 0.62611437 0.17683476
2649.218 -1043.0629 41.083267 0.90201694 -0.26010069 0.3445476 0.12328001
2653.842 -1025.9644 40.940662 0.91594839 -0.20652582 0.34407207 0.10853917
2682.9253 -1006.1323 2.2624972 0.52311319 -0.38129851 0.76220995 0.22039717
2656.4646 -1015.0688 131.1541 0.57222056 -0.6720258 -0.4700478 0.15455182
2649.4458 -1016.2088 88.379234 0.96222371 -0.21420158 0.16805719 0.12207536
2676.2043 -1041.0282 -2.8085711 0.72622359 -0.10011421 0.68012977 0.20192827
2643.7322 -1033.2893 88.060745 0.92728072 -0.36637527 0.076939367 0.11635734
2664.0266 -1013.476 24.102142 0.86037225 -0.20207533 0.46789443 0.13586402
2660.3467 -1030.8511 23.652374 0.8654362 -0.19733581 0.46052015 0.11638449
2658.9675 -1049.1202 20.176598 0.81947106 -0.29379791 0.49208733 0.13658547
2653.0664 -1009.5585 53.519962 0.93818867 -0.29757348 0.17678249 0.10340671
2668.8923 -1060.7266 188.02054 0.86000484 -0.15408687 -0.48646569 0.14162354
2638.3987 -1054.401 133.08908 0.95969504 -0.11323889 -0.25722048 0.18228009
2645.9722 -1037.0491 136.00359 0.86061561 -0.42131808 -0.28606272 0.1362364
2639.6641 -1041.387 87.995819 0.86404735 -0.50338113 -0.005440251 0.1137711
2649.3865 -1034.8662 45.133587 0.92155588 -0.23572966 0.30849025 0.11535515
2647.5317 -1023.9483 87.484566 0.94743818 -0.28729105 0.14080039 0.12018766
2650.8704 -1020.5363 131.02879 0.76948839 -0.50426894 -0.39191893 0.15156908
2674.6804 -1030.1278 -0.95201653 0.74957472 -0.22970285 0.62078524 0.19029716
2655.2778 -1017.5468 41.957558 0.92277968 -0.15363173 0.35337645 0.10649524
2652.0183 -1004.5327 87.403145 0.94934589 -0.25056767 0.18962643 0.14551249
2668.9431 -1038.376 181.38039 0.79293805 -0.31604749 -0.52092534 0.10368221
2679.2339 -1012.311 1.499004 0.57882488 -0.3159323 0.75176364 0.19495441
2656.3069 -1017.4676 135.6212 0.88457298 -0.19157416 -0.42524105 0.13948868
2653.6592 -1043.9171 31.740118 0.81295156 -0.34140423 0.47175518 0.14204869
2642.4922 -1056.2549 126.05971 0.84010398 0.53207946 -0.10543595 0.20418061
2640.1616 -1045.1504 129.39767 0.90706253 -0.37797904 -0.18538988 0.15943651
2662.0396 -1049.8479 176.64398 0.69866294 -0.4105905 -0.58590573 0.10558525
2648.1377 -1030.4062 131.43129 0.88791889 -0.33561036 -0.31458813 0.14012958
2668.2129 -1034.6533 175.563 0.76566148 -0.33724475 -0.54774857 0.10756335
2643.6243 -1035.4475 83.755104 0.86277556 -0.50327593 0.048287004 0.11492041
2635.6218 -1044.8127 84.583389 0.5419935 -0.8250941 -0.15957075 0.12388486
2657.26 -1028.564 33.53915 0.87401658 -0.18621607 0.44879687 0.11560866
2648.4519 -1020.485 84.202202 0.94030726 -0.31412169 0.13095738 0.12360823
2653.8496 -1004.7693 74.807388 0.95670199 -0.2893596 -0.031501312 0.14890996
2639.2654 -1040.3816 74.443954 0.88253772 -0.46784621 0.047403026 0.11922826
2649.1836 -1024.4164 74.799629 0.96434319 -0.26256162 0.033220988 0.12547699
2658.1338 -1036.256 26.503319 0.8638472 -0.22422874 0.45109808 0.12638746
2662.145 -1018.4954 26.391678 0.86111963 -0.152209 0.48508283 0.12363814
2646.0166 -1015.8812 118.58878 0.90944284 -0.3734405 -0.18290944 0.16141683
2640.6074 -1031.8971 120.03592 0.96115613 -0.2759558 0.005224735 0.15509899
2636.6782 -1051.0411 120.2275 0.96049553 -0.27188075 0.059407245 0.18122658
2643.0635 -1035.0262 87.007057 0.91954631 -0.3794857 0.10210373 0.11821207
2663.3547 -1027.8931 167.2776 -0.6518054 0.34093508 0.67743117 0.11960627
2639.8884 -1044.1698 130.97404 0.92843115 -0.27929801 -0.24496578 0.16740575
2649.2583 -1017.0707 86.044769 0.95133382 -0.26030841 0.16493484 0.12175009
2654.6663 -1024.9246 38.873238 0.91459632 -0.20689164 0.34743267 0.11078946
2658.6116 -1006.6781 36.557522 0.91660428 -0.087073259 0.3901985 0.12792395
2648.6985 -1026.3301 131.58324 0.82598752 -0.42513824 -0.37013799 0.16114536
2660.2615 -1047.162 175.44322 0.69776899 -0.46251801 -0.54698771 0.10790087
2648.9675 -1043.2141 40.845634 0.91372204 -0.22331211 0.33947569 0.13288999
2658.3352 -1009.6759 134.77191 0.83278757 -0.29040179 -0.47130841 0.16681558
2638.9502 -1038.1868 121.96616 0.97141862 -0.23734456 -0.0036721311 0.14719304
2650.8787 -1011.6498 76.530388 0.93683708 -0.34613049 0.050299391 0.13429543
2661.1377 -1005.0095 27.924742 0.86601341 0.0044178865 0.50000131 0.14988858
2645.2151 -1029.0868 75.967018 0.91938794 -0.39332953 -0.0042028623 0.12722328
2659.8738 -1024.5233 27.821199 0.85824126 -0.19240625 0.47581699 0.11915395
2643.0781 -1022.0621 119.839 0.90662903 -0.40568423 -0.11594871 0.15004554
2644.6096 -1029.8512 79.514702 0.91587436 -0.3950792 0.071319968 0.12284537
2651.2295 -1014.7652 79.856918 0.9874447 -0.15691505 0.018181847 0.13423908
2657.3696 -1023.29 32.730827 0.86727083 -0.18363616 0.46273005 0.12371497
2655.7612 -1011.4901 121.87054 0.60174388 -0.69387871 -0.39552075 0.19587675
2646.1904 -1023.5464 124.03019 0.86797613 -0.42071858 -0.26384336 0.17149645
2660.1606 -1004.5438 33.381927 0.90507597 -0.1557087 0.39571738 0.14922164
2639.5803 -1039.2924 123.95473 0.9741835 -0.22561933 -0.0079021342 0.15092094
2654.0068 -999.59869 79.673409 0.99920803 -0.03086265 0.025115501 0.22573936
2642.002 -1038.0685 123.70878 0.94589633 -0.30460811 -0.11177655 0.16221996
2646.9277 -1022.3424 123.74334 0.90806311 -0.3351343 -0.25120986 0.180246
2636.8447 -1053.5326 122.08118 0.99032331 -0.13719514 0.020910088 0.19896753
2661.5498 -1043.3373 172.59241 0.72058302 -0.44207269 -0.53416461 0.1067789
2666.7039 -1028.3138 169.84888 0.76906872 -0.37829852 -0.51519269 0.15495242
2651.5178 -1058.3662 169.73996 0.69003272 -0.37443694 -0.61939633 0.097461209
2670.769 -1049.8604 190.18407 0.80935878 -0.25146663 -0.53075689 0.12627667
2678.7542 -1064.0051 192.58849 0.80205119 0.59315276 0.069883451 0.12701117
2636.0901 -1052.7015 107.18478 0.97352952 -0.22102328 0.058215011 0.14823578
2659.8755 -1024.1892 20.360924 0.89994645 -0.22291037 0.37470967 0.1187792
2650.3066 -1012.9816 61.145195 0.95138592 -0.30779681 0.011224551 0.094779551
2645.1084 -1015.5646 108.09586 0.97335356 -0.18782379 0.13154863 0.10308518
2647.0215 -1031.2716 61.84396 0.93586981 -0.34452912 0.073806301 0.11726116
2636.0125 -1047.6879 62.801388 0.84697312 -0.51951104 0.11289292 0.14047287
2640.5283 -1033.4733 107.839 0.96789545 -0.21841684 0.12438864 0.11822312
2658.2783 -1042.6128 19.47007 0.89004827 -0.1547152 0.42880914 0.12691122
2646.4326 -1039.4369 52.404694 0.92339051 -0.28160962 0.26085627 0.1097355
2650.9885 -1019.2159 53.426537 0.95434487 -0.19376467 0.22733486 0.098231867
2645.3645 -1043.6494 145.29227 0.8121956 -0.44811636 -0.37353715 0.11349689
2654.0925 -1027.0553 144.95284 0.78680909 -0.46954024 -0.40057886 0.11587525
2643.4656 -1028.2544 99.83754 0.94742012 -0.26612085 0.17769314 0.1093286
2667.9463 -1034.2291 7.4998794 0.86464602 -0.20929223 0.45671001 0.15461834
2636.2844 -1046.6324 99.147659 0.89476216 -0.44472748 0.040225849 0.12404214
2676.7358 -1057.5427 7.5950031 0.70018893 0.43502274 0.56611896 0.16410406
2674.8845 -1018.4637 3.9049027 0.85216427 -0.089340538 0.51559126 0.16768603
2681.0967 -1071.615 207.74998 0.80579019 0.54859412 0.2230397 0.16752476
2658.5725 -1050.8864 17.783413 0.8679418 -0.23068649 0.43984184 0.12660147
2649.896 -1044.938 156.05344 0.78579921 -0.46849659 -0.40377048 0.11121474
2649.8396 -1020.2429 65.035744 0.95980012 -0.27769428 0.04086104 0.10564763
2664.5852 -1032.8805 15.747641 0.86887687 -0.22032839 0.44329262 0.12136554
2657.4246 -1027.7567 152.92952 0.78881109 -0.49145651 -0.36911732 0.11814145
2669.2683 -1014.6735 14.321813 0.86870575 -0.059941307 0.49168828 0.12247537
2643.1182 -1037.9481 65.79612 0.86900324 -0.48576596 0.09415327 0.12292481
2638.1157 -1046.354 110.08591 0.95062071 -0.30160019 0.073195778 0.1428405
2644.1035 -1028.3977 109.66305 0.9727717 -0.20226209 0.11316019 0.12183144
2687.3721 -1026.2249 199.80574 0.78132021 -0.47228134 -0.40803078 0.14844069
2666.2786 -1041.0194 9.4899187 0.87293941 -0.30218148 0.38296619 0.13650723
2652.4102 -1013.0969 60.009991 0.9729113 -0.22996023 0.023703719 0.10046732
2670.6897 -1025.2056 9.1224747 0.87170833 -0.13041477 0.47235215 0.13594645
2673.541 -1010.1517 8.2600536 0.87226886 0.015640471 0.48877648 0.14286335
2660.9446 -1021.3181 151.17184 0.83042765 -0.45711643 -0.31848779 0.13404465
2648.6023 -1029.868 59.691902 0.94524276 -0.31491178 0.085713156 0.11083626
2645.9858 -1043.407 57.003716 0.83710653 -0.5290606 0.13909547 0.12953211
2678.5105 -1063.8387 195.91467 0.87493294 0.24790861 0.41597319 0.20294559
2646.4697 -1020.6707 103.5669 0.97765177 -0.12725441 0.16734198 0.10852976
2653.6567 -1035.7638 151.18819 0.8072592 -0.48891988 -0.33059019 0.10765774
2641.6057 -1050.5532 146.38095 0.84905493 -0.36573374 -0.38124076 0.13038041
2642.1599 -1037.6237 102.58901 0.95867276 -0.27261662 0.081404805 0.11446777
2666.6643 -1013.9439 18.81851 0.87028885 -0.1454522 0.47057518 0.11866166
2662.7036 -1032.1562 18.359446 0.87361586 -0.19399568 0.44627461 0.12463068
2646.2146 -1027.8701 78.060074 0.9304446 -0.3655625 0.025237732 0.12220874
2645.2966 -1021.3741 120.77824 0.84166539 -0.45100394 -0.29697609 0.16601153
2651.7673 -1009.9884 78.40873 0.94327593 -0.32521042 0.066848718 0.13529944
2638.5605 -1042.9252 78.144867 0.74515682 -0.66615039 -0.031385072 0.12839667
2639.3376 -1037.0751 122.86743 0.97028351 -0.24147852 -0.015427591 0.14783889
2660.2102 -1004.3473 28.316273 0.87065035 0.06312371 0.48783538 0.15291427
2654.5679 -1017.1381 130.72362 0.82713592 0.40909368 -0.38534215 0.2013564
2659.8184 -1022.5093 29.21924 0.86482632 -0.13338479 0.48402888 0.12238005
2652.4404 -1011.128 115.63153 0.77184659 -0.60437977 -0.19742824 0.20173691
2639.5557 -1041.1204 115.06404 0.97120619 -0.21030641 0.11193662 0.14729659
2656.061 -1018.903 164.80408 0.79135364 0.61111265 0.017344082 0.19607338
2676.3049 -1067.1624 209.26382 0.77640879 0.53243417 0.33719912 0.18514104
2645.3367 -1026.1815 116.61998 0.9608584 -0.26221853 -0.089401133 0.16453955
2663.3472 -1029.6873 165.40779 0.78578264 -0.37642512 -0.4907645 0.15617777
2652.863 -1044.1071 160.597 0.77050185 -0.42025387 -0.47928447 0.12183041
2648.8357 -1013.7613 94.255562 0.93766165 -0.28300217 0.20174345 0.12403517
2643.7283 -1031.0853 93.653358 0.93431669 -0.34014058 0.1065676 0.12167992
2654.626 -1009.3 47.592983 0.92566097 -0.17082347 0.33759615 0.1156592
2648.9385 -1027.4347 49.570126 0.91329867 -0.28009906 0.29568577 0.10785674
2641.6875 -1037.1349 98.809486 0.93383068 -0.34934458 0.0769329 0.11868707
2648.8677 -1034.3418 144.88107 0.77456856 -0.4690029 -0.42435813 0.10303523
2673.1636 -1054.178 194.44313 0.89354664 -0.13667074 -0.42766288 0.14303401
2641.2026 -1050.7596 144.63185 0.88445097 -0.21607012 -0.41359422 0.1231801
2659.1792 -1017.8997 144.48291 0.73637664 -0.51092714 -0.44351202 0.14501551
2647.3123 -1016.8793 98.62394 0.95088828 -0.25243723 0.17912817 0.10867276
2637.146 -1047.1473 123.37426 0.99300003 -0.11229071 0.036629394 0.18144193
2647.6689 -1017.2837 120.7317 0.77701169 -0.53534663 -0.33114463 0.17413436
2657.2827 -1034.4135 29.457943 0.85477251 -0.18449977 0.48510188 0.12225611
2658.9736 -1004.2318 26.450136 0.79110843 0.37088484 0.48640716 0.15404536
2649.9771 -1024.0459 78.364075 0.96441883 -0.25845823 0.055638537 0.12293434
2653.696 -1004.8162 78.859642 0.9559195 -0.28938043 -0.049768429 0.1516217
2660.0208 -1015.6116 30.922117 0.86546248 -0.16982001 0.47131285 0.13186432
2641.3728 -1031.7039 123.47548 0.94911569 -0.30098805 -0.092658274 0.16335291
2640.7397 -1039.222 77.879913 0.87185895 -0.48941723 -0.0182402 0.13426228
2676.2976 -1006.5843 -2.9379556 0.66009533 0.65113926 0.3745555 0.19326405
2658.8872 -1020.7029 139.58823 -0.37321323 -0.92725855 -0.030057581 0.15633577
2638.5974 -1042.1083 93.269402 0.90769076 -0.416255 0.053190276 0.12711674
2643.4534 -1038.5751 137.04774 0.809089 -0.36900929 -0.45739168 0.12187728
2647.4331 -1028.1871 92.636375 0.95891988 -0.25526351 0.12374654 0.14212912
2650.6094 -1023.3258 135.38277 0.75220793 -0.44598114 -0.48506084 0.1426239
2655.7861 -1004.4925 43.459408 0.93229431 0.04983186 0.35825151 0.12852478
2678.1045 -1015.57 -0.090655848 0.80494314 -0.11952759 0.5811882 0.19118898
2653.8555 -1019.4302 45.988106 0.93807 -0.16999465 0.30187169 0.11115389
2675.8105 -1032.6556 -1.2708845 0.76415479 -0.24521333 0.5966053 0.19356345
2649.6389 -1009.111 94.169518 0.95320827 -0.1656543 0.25288856 0.12851091
2648.6218 -1034.3375 47.912209 0.92359483 -0.21973112 0.31415093 0.11763019
2642.3079 -1055.0369 152.0976 0.85914844 -0.38601029 -0.33594644 0.12861493
2645.908 -1024.2959 105.3599 0.97401136 -0.1675932 0.15236282 0.11654615
2677.1746 -1064.3873 199.90489 0.907785 0.32922843 0.25987509 0.17456539
2659.7114 -1026.045 154.1685 0.78837186 -0.48140708 -0.38303655 0.12605193
2649.061 -1039.8273 151.50087 0.80169004 -0.44785634 -0.39587599 0.096494973
2651.2368 -1007.3452 106.83006 0.93362516 -0.3467643 0.089991838 0.1491996
2642.7839 -1040.2767 105.19147 0.95563197 -0.28238013 0.083839379 0.12687868
2642.3577 -1036.3285 79.044464 0.8710916 -0.4908458 0.016427347 0.1269757
2656.5508 -1030.7639 32.209953 0.86916262 -0.14160095 0.47382012 0.11492839
2637.7974 -1046.2727 123.93103 0.98287213 -0.18401894 -0.0099722808 0.18089952
2643.552 -1030.2024 124.84684 0.90854633 -0.33311832 -0.25214231 0.16217183
2649.4019 -1015.8076 121.54762 0.73426604 -0.55141193 -0.39597759 0.18078667
2650.3118 -1020.8823 79.515953 0.97013533 -0.23646615 0.054048549 0.12533514
2660.0029 -1013.6271 31.935049 0.87064642 -0.1625466 0.46427733 0.13356337
2652.6597 -1003.3769 79.848923 0.996207 -0.084565058 0.020503931 0.16328859
2687.5317 -1029.7928 -7.7505693 0.51540482 -0.22799398 0.82606089 0.14908439
2669.0105 -1042.8954 183.68398 0.78401208 -0.34918121 -0.51322269 0.1211597
2670.0691 -1062.131 185.76653 0.92759562 0.062937543 -0.36824614 0.14511628
2649.501 -1020.7173 60.481022 0.93850178 -0.33998874 0.060184136 0.11412405
2669.6123 -1018.7468 12.306534 0.88285148 -0.16107357 0.44116724 0.12526052
2664.0562 -1035.0155 14.025707 0.88137281 -0.24465215 0.4041377 0.12986512
2644.5652 -1024.3402 106.2054 0.96924311 -0.21068592 0.12719755 0.10900038
2653.9211 -1006.357 61.051311 0.99795842 -0.063664198 -0.0050805802 0.12841834
2643.2046 -1036.7759 61.988224 0.92558569 -0.35661325 0.12695736 0.11277182
2639.7439 -1042.6124 106.83957 0.94849217 -0.29272029 0.12115053 0.12567545
2688.6138 -1045.5548 -9.9081001 0.36401707 -0.12513174 0.92294836 0.15073994
2651.0344 -1019.3727 76.825195 0.97236025 -0.23297064 0.015500497 0.13074452
2661.2317 -1046.0742 173.2675 0.68123174 -0.47390226 -0.55797845 0.10370453
2647.822 -1030.4756 126.06392 0.92270929 -0.29093024 -0.25291726 0.17252104
2646.1406 -1032.7483 77.052124 0.87953013 -0.47580743 -0.0058335061 0.13053027
2666.6401 -1030.8392 171.22229 0.79519093 -0.35532722 -0.49133891 0.14174968
2651.5837 -1014.7014 127.78729 0.86150587 -0.13292482 -0.49003944 0.1697433
2640.2615 -1044.6884 122.67252 0.92642766 -0.37197527 -0.058019161 0.16907136
2637.2913 -1043.1199 76.429695 0.58609968 -0.80903709 -0.044115365 0.13876083
2635.1172 -1053.5298 122.08434 0.65107065 -0.75564808 -0.071435384 0.18976325
2654.1245 -1045.1158 30.219368 0.82254261 -0.25291583 0.50936943 0.14134146
2657.78 -1029.1411 30.798552 0.87251228 -0.17757748 0.45517972 0.11681916
2641.4565 -1051.6146 49.306023 0.82604682 -0.48022786 0.29500484 0.13237351
2678.1177 -1064.9626 191.99951 0.89804506 0.43990335 -0.00021017155 0.15873343
2646.2498 -1028.7897 95.925995 0.95322841 -0.27185792 0.13209397 0.13025565
2641.4751 -1056.9277 139.50729 0.91865307 0.019091224 -0.39460364 0.17519762
2648.4883 -1037.9283 51.555447 0.93233007 -0.29661861 0.20682862 0.11664651
2675.6812 -1017.5671 2.7199461 0.84913445 -0.069101341 0.523637 0.17671278
2652.9351 -1026.5746 141.44778 0.76112378 -0.46763283 -0.44945535 0.12636741
2645.2471 -1041.08 142.78516 0.82309681 -0.43197933 -0.36865368 0.11498641
2674.4473 -1047.1116 193.80611 0.87006503 -0.21757351 -0.44232181 0.12212661
2652.491 -1020.704 52.712456 0.9645803 -0.18920946 0.18380599 0.10766155
2672.0906 -1032.9421 3.1622775 0.80813628 -0.29383031 0.51046985 0.16518664
2671.5171 -1051.2744 1.4349499 0.79410809 -0.1654363 0.58482748 0.18318169
2641.2698 -1042.3356 96.73774 0.85336101 -0.5149197 -0.081441529 0.12045307
2644.415 -1027.1385 117.14227 0.94741714 -0.31572491 -0.052139666 0.16441928
2650.4702 -1017.0618 121.1367 0.98019832 0.0038999433 -0.19797979 0.19732563
2636.5605 -1045.1464 68.109749 0.80460882 -0.59110248 0.056590062 0.1282534
2643.782 -1056.121 159.0358 0.76958895 -0.48409954 -0.41638988 0.13727362
2646.3303 -1031.1346 68.854263 0.89087707 -0.45286447 0.03538131 0.12911744
2651.415 -1015.4614 70.060486 0.97871286 -0.20395242 -0.022902891 0.12087382
2679.3794 -1070.4828 207.42758 0.77640879 0.53243417 0.33719912 0.18514104
2660.8606 -1041.2849 167.71307 0.7096523 -0.4982833 -0.49810371 0.11365476
2634.7451 -1054.7001 116.98518 0.78242767 -0.61714649 -0.083289206 0.18430623
2664.5605 -1029.3951 167.22942 0.91725904 -0.20886573 -0.33913261 0.14444289
2639.3613 -1042.8182 115.93405 0.9571023 -0.27237263 0.098835133 0.15616819
2673.3777 -1040.3525 189.17761 0.83864546 -0.21459204 -0.50062364 0.11658458
2655.4705 -1021.2759 140.90358 0.79727089 -0.37748483 -0.47102472 0.1365637
2677.3337 -1064.3019 192.02666 0.91028178 0.41238514 -0.036409255 0.14306873
2672.8513 -1050.613 4.3541894 0.79586029 0.16633555 0.58218461 0.19764897
2647.0093 -1025.6943 94.267952 0.95784491 -0.25058648 0.14049762 0.13481684
2637.7681 -1050.6592 134.48946 0.90084702 0.10263757 -0.42182952 0.15022756
2640.2354 -1042.6938 95.118576 0.90349025 -0.4268533 -0.038751077 0.13005741
2652.313 -1016.0892 51.61639 0.93881553 -0.19246612 0.28562587 0.10159817
2671.2566 -1029.5167 3.4174976 0.83131093 -0.19035032 0.52219617 0.16509749
2649.0354 -1036.7786 49.710014 0.94153482 -0.23164859 0.24464498 0.11780148
2645.0769 -1038.5631 140.42268 0.80040777 -0.41856518 -0.42912772 0.11408038
2678.0332 -1012.6859 0.53253049 0.79500973 -0.12696885 0.59315974 0.18768452
2685.5913 -1019.4978 -6.6327596 0.68080366 -0.10030761 0.72556514 0.1794489
2639.5852 -1041.6367 87.210449 0.79489058 -0.60556841 -0.037891891 0.11405095
2650.9221 -1012.7234 86.244797 0.97259027 -0.13676821 0.18804942 0.13011172
2655.2466 -1019.6531 40.345718 0.92120993 -0.18222786 0.34375173 0.11020145
2642.2231 -1038.7598 132.33388 0.9103719 -0.3111439 -0.2727865 0.14723656
2687.3445 -1038.6329 -9.9182634 0.60832095 -0.17863367 0.77332765 0.13132319
2646.6575 -1028.0114 87.420631 0.93237752 -0.34705687 0.10111249 0.12411994
2636.793 -1048.3345 129.09464 0.97176719 0.11734078 -0.2046942 0.19252874
