# .PCD v0.7 - Point Cloud Data file format
VERSION 0.7
FIELDS x y z normal_x normal_y normal_z curvature
SIZE 4 4 4 4 4 4 4
TYPE F F F F F F F
COUNT 1 1 1 1 1 1 1
WIDTH 625
HEIGHT 1
VIEWPOINT 0 0 0 1 0 0 0
POINTS 625
DATA ascii
2542.3826 -687.81427 96.721687 0.37156901 -0.90674907 -0.19935548 0.14484802
2551.4375 -703.80981 87.800781 0.76589119 0.63414782 -0.10614734 0.12337159
2530.2227 -680.97156 48.903175 0.69515806 -0.44066766 -0.56795007 0.15812075
2476.2217 -701.27905 6.2412362 0.74317169 -0.11212636 -0.65963888 0.1271608
2554.7449 -681.43939 87.425858 0.43322369 -0.83714795 -0.33391699 0.13765769
2537.7122 -684.8139 86.104057 0.98192686 0.15101913 -0.11407378 0.15437651
2565.6318 -718.66235 89.151642 -0.61879569 -0.78474241 -0.035654437 0.050734028
2493.72 -683.401 18.676228 -0.52342153 -0.071331777 0.84908283 0.15538755
2523.3945 -691.44098 49.725971 -0.61426777 0.47469682 0.63034761 0.11326136
2512.0774 -703.28552 46.09972 -0.5754081 0.44557294 0.68583548 0.087229706
2506.7795 -687.84338 32.267525 -0.57974613 0.41159156 0.70319754 0.1027959
2577.5168 -670.62537 120.51463 0.16808748 -0.85386276 0.49261034 0.084220044
2539.7178 -682.51074 73.580482 0.71051025 -0.69144595 -0.1306818 0.17480318
2551.4451 -697.2196 115.6914 0.73496354 0.51027715 -0.44659352 0.20195775
2553.5613 -678.16284 74.207062 0.13679145 -0.97806424 -0.15709357 0.087940119
2547.3684 -691.37482 112.6361 0.57728547 -0.5779686 -0.57679617 0.26436791
2538.9663 -690.06622 75.654564 0.98437351 -0.033154864 -0.17294382 0.19226916
2515.1179 -677.09918 31.829 -0.51248181 0.43085492 0.74278289 0.10637864
2498.0393 -699.46014 31.00503 0.68805885 -0.30458206 -0.6586386 0.10660712
2564.7405 -717.56146 77.570312 -0.57839972 -0.80945116 0.10120547 0.048091915
2559.1787 -679.02423 118.95607 0.46589586 -0.80008942 0.37788621 0.13682048
2562.905 -677.25 75.706551 -0.011384639 -0.98786771 -0.15487984 0.059936598
2560.947 -715.16699 76.338882 -0.58974564 -0.80493158 0.0654613 0.048727877
2499.3035 -701.98248 33.549446 0.67514992 -0.40491989 -0.61661369 0.10410193
2522.3486 -679.06384 36.21632 -0.52002406 0.57587856 0.63082391 0.089168318
2536.7454 -689.35608 73.383995 0.96485221 -0.16892581 -0.20130637 0.16775577
2508.0417 -690.26349 34.173126 -0.56891847 0.43726808 0.69651163 0.099015087
2540.9744 -681.79083 74.73455 0.71049374 -0.69179469 -0.12891386 0.17280802
2472.8601 -701.52783 2.4646208 0.82112813 0.1762125 -0.54286075 0.12710188
2512.8206 -698.75403 46.113571 -0.62569505 0.45101449 0.63646811 0.086414665
2584.3308 -731.48962 91.89534 -0.5785405 -0.80408782 -0.13687097 0.088845238
2508.7612 -710.75671 46.547287 -0.58040965 0.36927411 0.72578323 0.11090039
2489.7168 -683.85889 17.339455 -0.58983308 0.010048061 0.80746269 0.12452856
2524.9104 -686.94366 50.069447 0.70734054 -0.44535375 -0.54893476 0.12642908
2535.3013 -681.88324 48.302765 0.31563675 -0.94404918 -0.095627114 0.1463092
2538.6082 -686.42169 87.510429 0.78691667 -0.56076515 -0.25749677 0.14119683
2571.1267 -677.78448 90.919655 0.15854871 -0.98221356 -0.10059267 0.080556706
2544.2935 -695.72229 90.477898 0.81556237 0.56404018 -0.12929298 0.12910272
2557.1123 -713.85461 68.959641 -0.59681755 -0.77313751 0.21463284 0.030452695
2557.1445 -709.15564 110.92284 0.80352366 0.59280276 -0.054172426 0.12165941
2490.1477 -702.40839 23.009966 0.73109996 -0.26018 -0.63071322 0.10772298
2537.8652 -694.7406 67.47728 0.9543798 0.13274309 -0.26746678 0.21199906
2555.7214 -685.05145 109.9757 0.49131769 -0.87095284 -0.006936254 0.1696808
2489.4993 -674.88501 18.557106 -0.53580809 0.13550892 0.83339489 0.16595313
2575.5815 -726.87286 112.06319 -0.59647548 -0.80227733 -0.023833452 0.087466143
2496.6479 -690.3775 25.451296 -0.65037286 0.2994439 0.69810355 0.11755073
2537.2627 -684.60577 108.55409 0.80435944 0.56437498 -0.18570621 0.15215033
2536.1335 -684.48199 65.832947 0.83872837 -0.52697808 -0.1372183 0.17478757
2551.3809 -677.60242 67.099815 0.39107776 -0.92021161 0.016395198 0.16427146
2577.3804 -675.76367 111.48907 0.20345718 -0.94348103 0.26162702 0.073165923
2550.6125 -688.96716 103.74887 0.52256316 -0.82523656 -0.21427177 0.21256679
2547.0811 -696.86273 103.46849 0.81353205 0.56433189 -0.14033957 0.1752097
2529.3337 -697.65271 60.085327 0.82544446 -0.17204276 -0.53762698 0.18989454
2523.9006 -705.31213 51.817932 -0.60981905 -0.27779216 0.74226159 0.12221099
2571.6919 -723.68951 104.68526 -0.64871711 -0.75587147 -0.08845558 0.0708232
2533.3835 -686.31238 58.848763 0.7415477 -0.6038596 -0.2923364 0.1806428
2580.9758 -677.55194 103.44714 0.17790657 -0.94635588 0.26974028 0.086631685
2546.0039 -677.20215 59.894886 0.63954544 -0.76583129 -0.066963114 0.19825277
2472.7896 -699.31366 4.0472441 0.72974324 0.10353893 -0.67583615 0.1342237
2536.7732 -681.22961 49.175457 0.35612339 -0.92842019 -0.1058872 0.15199587
2541.1626 -687.51025 92.42746 0.6569984 -0.71186411 -0.24819869 0.15306596
2478.4443 -705.00311 9.5250835 0.72684145 0.0040381635 -0.68679339 0.12587197
2523.7581 -686.40753 48.734482 0.6805259 -0.54487598 -0.48989248 0.11407036
2549.0947 -699.16107 94.841202 0.78850555 0.60429746 -0.11438361 0.15794939
2574.9849 -678.9231 94.994896 0.19280578 -0.97908109 0.065008886 0.076682068
2510.3823 -698.29645 44.89315 0.62777424 -0.5011158 -0.59563619 0.087022156
2494.3467 -666.79749 21.109955 -0.49064144 0.11691228 0.86348277 0.17689787
2502.0559 -682.03589 25.926846 -0.5657354 0.36301559 0.74038041 0.11902826
2497.9102 -694.86707 28.095236 -0.65950948 0.35753822 0.66122139 0.11228722
2490.6965 -706.26172 25.423401 0.73989093 -0.27803102 -0.61258477 0.11275772
2492.4434 -679.01788 19.873964 -0.56731457 0.25763878 0.78216136 0.13837495
2571.1116 -724.19061 70.293297 -0.58666897 -0.78631979 0.19370247 0.069089413
2494.8584 -692.33948 25.105556 -0.66777992 0.26414812 0.69591355 0.11830056
2553.8286 -686.84222 112.014 0.54106551 -0.84097022 0.0041417847 0.21558432
2490.041 -705.07941 24.372393 0.73078108 -0.25938204 -0.63141114 0.10675534
2545.9644 -678.6828 68.23587 0.57181996 -0.81967336 0.034021594 0.17336425
2584.8052 -675.38367 112.13959 0.070573762 -0.94758034 0.31162611 0.082123764
2548.5808 -703.29926 69.092308 0.80113548 0.57189137 -0.17641482 0.17339513
2536.6965 -685.9895 66.915627 0.90066242 -0.38152888 -0.20794918 0.18886429
2550.2068 -694.99548 110.38087 -0.61830246 -0.28144661 0.73381871 0.26822332
2564.7305 -718.23615 113.97287 0.71229541 0.70182812 0.0085154455 0.080088936
2525.0559 -704.77228 56.832047 0.73822045 -0.17808564 -0.65062743 0.16114613
2537.3113 -680.57178 57.220581 0.81947571 -0.50948638 -0.26245615 0.19517872
2480.5916 -702.08258 12.48727 0.7514351 -0.10494196 -0.65140808 0.12986849
2481.0728 -688.1488 11.815737 -0.66845608 0.092708938 0.73795086 0.11899462
2530.0588 -691.39636 58.210197 0.75573802 -0.49925017 -0.42380342 0.19764803
2476.6497 -673.85675 12.956469 -0.52497441 -0.11572932 0.84321326 0.1350513
2506.063 -691.33246 34.346066 -0.52636421 0.43173721 0.73249143 0.092465572
2576.5129 -677.02728 86.439796 0.15999354 -0.97648937 -0.14446667 0.073767327
2537.3025 -688.93243 84.002655 0.91185254 0.39870754 -0.097761273 0.12698366
2570.0574 -721.94855 85.694183 -0.59639567 -0.80029386 -0.061983075 0.060576316
2544.7576 -689.3844 113.60686 -0.42090568 -0.045002975 0.90598738 0.25367218
2498.2444 -701.15137 33.097477 0.6905477 -0.30039287 -0.65795749 0.10786467
2540.9241 -685.72327 83.552353 0.77657986 -0.58719593 -0.22830833 0.17077544
2492.3372 -711.52539 32.003727 0.76367325 -0.26044455 -0.59073836 0.11480711
2511.7969 -682.01794 33.084942 -0.48956594 0.51211774 0.70573407 0.10006981
2570.9885 -722.7229 94.054489 -0.61178547 -0.79030484 -0.033716582 0.056771316
2472.9746 -698.56891 4.3731618 0.76107818 0.16615087 -0.62701982 0.12126386
2512.5598 -704.97852 48.259434 -0.61559325 0.38619864 0.68694651 0.086872607
2557.946 -680.62549 53.141537 0.18246263 -0.89222473 0.41308883 0.1337958
2522.3877 -692.81403 51.424458 0.65630949 -0.48275077 -0.57983577 0.11388648
2532.7832 -682.48846 53.083771 0.79525554 -0.38285863 -0.47009349 0.18642142
2546.7942 -699.15643 92.279831 0.7749092 0.62126112 -0.11640582 0.11594065
2540.5044 -687.69745 91.064301 0.97698754 0.065628581 -0.2029489 0.15222485
2475.0542 -711.77673 3.3549962 0.83663356 0.046079345 -0.54582137 0.14266434
2567.0415 -680.64417 94.462509 0.50050181 -0.85762823 -0.1182023 0.15901642
2543.3123 -676.11285 56.494873 0.85982293 -0.30699727 -0.40799162 0.19796702
2532.4136 -685.29791 53.194744 0.80481124 -0.39274412 -0.44500664 0.19990374
2476.1526 -706.96204 6.1301084 0.79793543 0.026260028 -0.60217065 0.11883661
2479.4592 -683.69049 12.675035 -0.52655065 -0.10268389 0.84391969 0.1275088
2507.9429 -708.00403 45.416615 -0.58257985 0.39672154 0.7093749 0.095680393
2520.4731 -696.08844 51.438316 0.63200945 -0.47813141 -0.60988063 0.11099482
2514.0476 -693.30426 41.250187 -0.56953323 0.49469006 0.65644014 0.072712459
2546.9326 -702.6723 81.167191 0.74570781 0.65426886 -0.12590529 0.092717849
2535.877 -686.10107 80.864555 0.98308754 0.15718085 -0.093984455 0.13786478
2586.7903 -733.27271 82.965645 -0.60674918 -0.78865939 -0.099357143 0.12049911
2527.2251 -682.07379 44.091286 -0.55415678 0.57636368 0.60059565 0.12135895
2549.2466 -683.13562 82.038628 0.46981525 -0.80496496 -0.3623603 0.15269642
2499.104 -704.86041 35.233097 0.69877464 -0.31676918 -0.64138228 0.10880211
2470.6465 -707.01929 -0.70654851 0.76883942 0.041935328 -0.63806534 0.15667288
2511.4971 -689.79901 39.608402 -0.56879032 0.50767845 0.64710134 0.1000798
2564.5222 -715.80847 94.05822 0.76169431 0.64786088 -0.0099031739 0.10715178
2539.9536 -686.98492 90.87487 0.96910089 0.16522934 -0.18314686 0.1536146
2561.3206 -679.74329 92.393806 0.4585138 -0.84802663 -0.26573667 0.1314704
2504.6362 -701.00824 40.151718 -0.63417244 0.41592708 0.65178984 0.09226653
2520.1228 -683.07037 41.845676 0.53280365 -0.75330085 -0.38556197 0.1061147
2509.7493 -713.76099 46.56926 -0.56612116 0.24628149 0.78667164 0.12093843
2540.7771 -691.77954 112.2382 0.50260127 -0.85082197 -0.15327735 0.22160667
2546.5664 -701.08954 72.675079 0.79805422 0.59405524 -0.10103399 0.15218091
2563.4915 -679.43573 115.90295 0.38709813 -0.8917557 0.23436479 0.10668838
2548.8455 -695.05774 113.25143 0.81678778 0.49596548 -0.29474732 0.22946309
2540.854 -681.13849 70.474174 0.64338279 -0.76395172 -0.049358964 0.16175741
2490.1167 -708.22913 25.585451 0.75013995 -0.22397317 -0.62219459 0.10464661
2565.0789 -717.91541 115.98486 -0.67671436 -0.72472215 0.12975165 0.07500387
2500.6304 -684.01807 25.939713 -0.57863915 0.36129844 0.73119092 0.1189891
2492.6392 -695.20917 24.386135 0.69063514 -0.22947358 -0.68583155 0.11262319
2573.1716 -724.77832 73.967339 -0.60828573 -0.78524268 0.11568236 0.068129487
2534.7629 -687.95575 69.731148 0.90603381 -0.36710808 -0.21055725 0.16572438
2481.1267 -686.82593 12.340157 -0.62390375 0.057975635 0.77934778 0.1170369
2480.9119 -713.30957 13.303251 0.77118731 -0.130244 -0.62314254 0.11014951
2542.3018 -702.53717 63.623817 -0.22031617 0.44605711 0.86746401 0.15599863
2483.1997 -700.66052 13.276746 0.73172969 -0.25790787 -0.63091612 0.11190525
2538.8418 -679.05377 57.770866 0.85389209 -0.33171868 -0.40103745 0.20766035
2498.5059 -680.09216 23.012999 -0.54566801 0.05832104 0.83596957 0.13052349
2532.6177 -691.20599 57.268673 0.8471508 -0.20586802 -0.48985082 0.20949624
2498.0374 -699.30548 30.665949 0.68409485 -0.39126858 -0.61556733 0.10779949
2491.1011 -711.09839 29.515232 0.73280329 -0.34794071 -0.58475345 0.10921424
2512.8286 -678.31622 30.940495 -0.53954488 0.41837695 0.7306518 0.10705268
2507.3254 -688.17999 32.011967 -0.59963977 0.4601953 0.65471554 0.10727917
2569.2051 -669.06183 125.13816 0.19831397 -0.83303636 0.51645136 0.082213849
2497.1223 -700.48621 31.233467 0.69807374 -0.28348219 -0.65751874 0.11063433
2540.2007 -690.68945 81.575523 0.95021087 0.29644632 -0.096014857 0.17084786
2543.5083 -682.85132 78.847519 0.64739746 -0.69665927 -0.30909929 0.1800663
2504.8701 -689.07147 32.071236 -0.55455762 0.44010928 0.7062363 0.096348375
2495.3 -713.33301 35.324203 0.74112678 -0.29936796 -0.60092419 0.11822829
2566.4395 -718.58289 82.941879 -0.5813877 -0.81351966 -0.013196051 0.052244943
2552.061 -696.93311 117.03962 0.64317989 0.43157047 -0.63250816 0.20143168
2543.916 -686.08063 112.35294 -0.6703766 0.15644003 0.72534245 0.27836049
2522.7925 -677.80023 37.228283 -0.56451178 0.54361439 0.62113595 0.099232428
2558.7551 -674.28229 119.90092 0.41711453 -0.57557815 0.70336705 0.12887235
2510.8618 -690.73804 36.935684 -0.55398393 0.47440293 0.68413723 0.083222948
2575.6096 -724.23566 126.83512 -0.6148513 -0.77091116 0.16629456 0.075868152
2502.2073 -702.34216 36.808914 0.65161443 -0.39623189 -0.64683759 0.10259091
2495.1248 -712.83453 34.024399 0.75600415 -0.22644183 -0.6141513 0.11919343
2538.0398 -687.48676 81.443794 0.97476417 0.20953184 -0.077014573 0.15591928
2550.9775 -705.30096 82.652069 0.73814642 0.66910386 -0.086254679 0.087624826
2557.3013 -700.07495 117.51091 -0.49312326 -0.36509997 0.78964007 0.17198578
2565.6077 -668.31763 126.55195 0.21287704 -0.81186479 0.54365325 0.069282405
2542.4758 -686.79694 112.32291 -0.28524554 -0.016667318 0.95830953 0.25393751
2555.2935 -680.9433 82.620834 0.49947858 -0.74694365 -0.43885794 0.18039913
2583.3811 -729.64447 85.381378 -0.50093657 -0.8543579 -0.13832983 0.079632454
2489.4868 -708.16302 24.605247 0.75167859 -0.25178859 -0.60957509 0.10964391
2563.1658 -716.81824 111.99558 -0.70228899 -0.711887 0.0026603837 0.073445305
2492.1763 -696.48004 23.863699 0.69006735 -0.28166375 -0.66668773 0.11064427
2561.4316 -717.297 67.894569 -0.57909614 -0.79363096 0.18654089 0.037580319
2545.6814 -701.95679 68.315102 0.77946544 0.59396386 -0.19909942 0.15011075
2496.3948 -684.19904 23.499016 -0.59075624 0.29791752 0.74983484 0.12526147
2548.2021 -696.52008 109.47662 0.82207203 0.48515901 -0.29802397 0.20532079
2564.9602 -680.10272 111.67496 0.39876297 -0.87317288 0.2802805 0.11202744
2543.6365 -680.07196 68.151169 0.66584086 -0.74558014 0.02767917 0.19287415
2532.3115 -689.92041 65.661964 0.84826064 -0.45483559 -0.27125344 0.17600523
2540.5623 -691.81256 108.29749 0.59020126 -0.79260075 -0.15312263 0.20080426
2546.7588 -691.87433 113.63342 0.57501978 -0.70983297 -0.40680397 0.25931051
2575.0886 -725.51685 77.009987 -0.59166926 -0.80616254 -0.0054267668 0.082131393
2562.887 -678.80414 117.91913 0.47035155 -0.81567568 0.33681247 0.1265375
2510.1797 -686.45178 33.20911 -0.55937499 0.47572482 0.67881185 0.10074484
2548.8975 -696.12958 115.84731 0.7996279 0.52478671 -0.29188028 0.19004273
2493.179 -709.55811 31.687071 0.70883346 -0.38158032 -0.5932551 0.10863545
2547.177 -703.10144 74.626045 0.74743938 0.651806 -0.12838727 0.10843174
2537.1558 -689.39954 73.453812 0.96005672 -0.18776782 -0.20744722 0.1747559
2500.5881 -698.15479 32.393753 0.65470219 -0.39195275 -0.6463266 0.10468368
2564.1882 -716.59491 118.46413 -0.66400385 -0.72983348 0.16260999 0.063874692
2552.6296 -680.39496 75.302628 0.48014918 -0.78452361 -0.3924022 0.19965732
2537.7988 -693.02838 78.267097 0.91456431 0.37069154 -0.16174018 0.11821657
2564.5747 -712.89355 123.99469 -0.61611664 -0.70777136 0.34562981 0.052248895
2556.9456 -679.12494 80.106026 0.37947688 -0.85280269 -0.35878247 0.1339768
2575.2146 -725.15814 81.877983 -0.55908793 -0.82454503 -0.086868815 0.067483649
2551.0371 -695.29767 115.90508 -0.52374434 -0.3211861 0.78900659 0.20690332
2537.6809 -686.97137 78.21492 0.91200149 -0.37413007 -0.16816638 0.17268188
2486.4492 -684.52264 16.281828 -0.66265672 0.14140879 0.735452 0.11968916
2487.9294 -708.61523 23.648527 0.72600669 -0.40479222 -0.55592948 0.11409331
2488.7109 -698.55249 20.11302 0.73207408 -0.25411707 -0.63205379 0.11230116
2539.4189 -684.07666 74.025597 0.85917693 -0.48779923 -0.1544891 0.19051698
2526.9644 -674.65576 34.199211 0.4984248 -0.64691663 -0.57712358 0.10826911
2473.7915 -721.07562 -9.9097109 0.87057096 0.31596315 -0.37719163 0.25020725
2504.0583 -695.69843 34.102917 -0.61750746 0.41395664 0.66882318 0.10242341
2561.2742 -715.63873 75.97702 -0.60358566 -0.79569024 0.050610755 0.052140959
2541.5535 -694.9873 74.52182 0.91578162 0.36322293 -0.17150263 0.18751313
2496.0339 -706.89337 33.536083 0.72034431 -0.4054352 -0.56278449 0.10857436
2517.2571 -684.09308 36.17968 -0.53707528 0.56917018 0.62257171 0.079080351
2464.4207 -681.24243 8.8472424 -0.36384916 -0.28624487 0.88638461 0.11427028
2520.6543 -690.56122 48.445415 0.63828152 -0.54756635 -0.54108024 0.099621527
2566.6018 -678.58466 90.795784 0.37036785 -0.90465283 -0.21078633 0.13054362
2539.5908 -685.76361 88.629379 0.97845012 0.035089605 -0.20347995 0.14772628
2473.2036 -705.15295 0.94159687 0.86311114 0.17321584 -0.47437894 0.12697141
2532.762 -679.02179 50.012054 0.75392079 -0.46058941 -0.46846652 0.18496989
2511.7715 -703.25037 47.054661 -0.60811758 0.42922109 0.66780406 0.087914921
2589.1699 -733.90125 92.329071 -0.52360255 -0.83005613 -0.19195618 0.11018905
2553.614 -705.48273 90.936394 0.76243883 0.64222312 -0.078971401 0.11910301
2584.0549 -678.68976 94.285225 0.27122056 -0.94947487 0.1579141 0.13286656
2541.7483 -695.15765 92.968636 0.79399049 0.59867322 -0.10568571 0.086177364
2477.6382 -718.91083 7.1613851 0.82010716 0.02772595 -0.57153779 0.12394275
2544.5559 -686.33746 63.943451 0.82001328 -0.094384886 -0.56450844 0.16850384
2533.7942 -695.15131 58.511971 0.79081637 -0.093144752 -0.60492438 0.22774005
2562.7375 -716.55865 95.200554 -0.64350462 -0.76466304 -0.034529082 0.046991158
2484.1067 -695.85315 14.278113 -0.67139441 0.15735795 0.72420168 0.10974997
2574.9187 -725.67365 95.896774 -0.52010137 -0.85143995 -0.0674133 0.072356373
2531.0647 -706.55548 57.891369 -0.62529373 0.07062868 0.77718681 0.17621315
2556.3276 -694.99854 94.55159 0.98179966 -0.17333755 0.07761123 0.27366313
2489.1023 -715.58472 29.733318 0.72909039 -0.33725822 -0.59555364 0.13246331
2541.8354 -695.68793 72.403412 0.89143801 0.41250435 -0.18755907 0.19002259
2547.7109 -691.34229 111.02153 -0.54943389 -0.39348799 0.73708183 0.28506544
2552.6946 -682.61212 115.57557 0.46920505 -0.59572595 0.65188742 0.22109517
2497.4026 -702.83948 32.111691 0.68860799 -0.41356722 -0.59563518 0.10724785
2516.5215 -680.70721 33.194977 -0.54632711 0.51715106 0.65884858 0.094797976
2559.3086 -714.24725 73.86132 -0.59706223 -0.79969573 0.063272469 0.045573786
2553.9631 -705.22083 115.30016 0.79065078 0.60203147 -0.11148763 0.11586516
2503.6335 -692.37415 31.563911 -0.61476284 0.42238104 0.66607875 0.10546783
2573.1501 -674.67334 116.27738 0.20203544 -0.90555543 0.37302962 0.071946427
2556.9497 -678.21173 72.326012 0.27796462 -0.94011384 -0.1972858 0.1435242
2539.3145 -684.49615 72.403503 0.89942908 -0.4059895 -0.16186374 0.19653907
2492.9429 -701.15198 25.733578 0.72930199 -0.30064762 -0.61459714 0.11268556
2574.7366 -727.60315 68.206558 -0.6172269 -0.76616132 0.17896312 0.075373501
2565.9448 -719.66821 111.53803 -0.67122179 -0.73707688 0.078606501 0.068594404
2487.1174 -713.04047 23.909019 0.76305991 -0.26252282 -0.59061104 0.11614268
2549.0974 -700.53912 108.90971 0.79878938 0.58440852 -0.1428362 0.12293361
2551.4087 -708.24725 67.521088 -0.65294117 -0.74619985 0.12982142 0.087843716
2543.3113 -687.33063 107.92223 0.93951976 0.2145137 -0.26699537 0.2196414
2534.4199 -693.46686 66.815277 0.93714625 -0.1279282 -0.32464033 0.19460033
2492.2307 -687.9422 21.587906 -0.65265602 0.27566487 0.70572585 0.11977291
2563.4397 -682.0896 110.66945 0.50067657 -0.81366444 0.29542038 0.14905636
2538.5132 -684.16901 66.348518 0.73046499 -0.67476124 -0.10544299 0.19452186
2588.9944 -676.50751 111.16023 -0.01034754 -0.95354754 0.30106476 0.091314025
2506.0459 -694.3407 35.079353 -0.60225344 0.416123 0.68127263 0.10204572
2561.2979 -677.94635 78.709618 0.28805706 -0.9154824 -0.28091827 0.11862008
2494.3975 -717.89142 37.030487 0.74739742 -0.31837431 -0.58312505 0.13955146
2579.8032 -671.5282 118.07624 0.15617788 -0.84461927 0.51208085 0.084084652
2508.9758 -683.7439 31.4002 -0.53375316 0.4710784 0.70227683 0.10803901
2495.2178 -705.38745 31.108597 0.70829529 -0.3053945 -0.63643694 0.10816927
2556.5215 -707.37927 120.94454 0.76793242 0.61493701 -0.17925487 0.090894073
2561.1909 -715.43689 78.922806 -0.60553789 -0.79484785 0.039252799 0.050931558
2539.7588 -694.91113 77.004417 0.92789584 0.33656651 -0.16041285 0.15424071
2546.8081 -693.24188 111.89691 -0.28986788 -0.18149096 0.93970084 0.24567296
2540.2754 -685.24518 77.230377 0.91296673 -0.34708884 -0.21452525 0.18902496
2478.4917 -686.21576 11.510118 0.70707309 -0.017964676 -0.70691222 0.099277966
2536.7058 -688.03265 63.364048 0.93183738 -0.20991476 -0.29599819 0.22187456
2563.4763 -716.53387 106.95935 -0.699292 -0.71277279 -0.054274041 0.07068488
2484.7827 -702.57281 17.667097 0.75697464 -0.15581933 -0.63459414 0.11147819
2483.4607 -715.37811 18.955153 0.79589695 -0.20602064 -0.56930089 0.11730261
2585.8884 -733.63983 108.11131 -0.54557139 -0.83527189 -0.068356894 0.10028489
2590.6731 -677.32477 107.02966 0.056701008 -0.98411012 0.16826247 0.075503558
2540.8579 -700.09528 61.457127 0.86955041 0.4234592 -0.25409532 0.20426121
2543.3008 -692.38074 105.18302 0.8192476 0.55936587 -0.12626621 0.1639646
2562.1194 -687.06311 105.65395 0.66551185 -0.67851758 0.31097883 0.19573835
2549.0344 -711.0459 59.974319 -0.60194314 -0.73913705 0.3022266 0.067234874
2546.7246 -675.81775 68.071983 0.8124845 -0.33069339 -0.48011538 0.219658
2491.5642 -697.0506 22.157921 0.71855348 -0.28007776 -0.63658255 0.11242756
2486.3633 -709.78662 21.503492 0.75858796 -0.2542375 -0.59992296 0.11319929
2546.126 -702.34015 60.899136 0.787682 0.61494774 -0.037368271 0.18711551
2532.6394 -687.58685 59.741535 0.70610166 -0.64804327 -0.28541276 0.17987838
2548.5498 -698.14325 102.65852 0.80367643 0.58525097 -0.10763592 0.17083867
2552.4231 -687.74115 102.86456 0.4896934 -0.85768968 -0.15674426 0.19469853
2488.8945 -682.55322 17.763407 -0.63512021 0.18546858 0.74981582 0.12631164
2576.5974 -678.19763 102.56886 0.21226713 -0.95039952 0.22733998 0.07671582
2545.4475 -677.81702 59.854912 0.62188005 -0.78062785 -0.062332563 0.19580746
2567.1516 -719.8244 105.01649 -0.65189415 -0.75499052 -0.070875317 0.064224027
2577.6362 -677.83911 87.14505 0.16567533 -0.98396593 -0.066050708 0.069392741
2502.8594 -701.7644 37.156471 0.649607 -0.40084895 -0.64601153 0.10047685
2492.5898 -711.52277 32.461483 0.7553035 -0.27746046 -0.59374434 0.11060733
2512.437 -691.21979 39.377422 -0.57775754 0.49045298 0.65242016 0.078490801
2539.7959 -691.70538 84.404198 0.92556393 0.36644018 -0.095147409 0.1439106
2544.4907 -685.39624 121.77458 0.8630951 0.32772997 -0.38426548 0.25457346
2574.4285 -724.90631 86.671776 -0.61149734 -0.7900275 -0.043903839 0.072279178
2519.698 -681.76337 38.261986 0.56990999 -0.58370781 -0.57834917 0.094759777
2541.7554 -685.95026 83.506172 0.66450506 -0.69897449 -0.2643249 0.17104381
2488.0605 -695.81714 17.3307 0.71785301 -0.26382381 -0.64427012 0.10746285
2471.4011 -676.44513 8.0714436 -0.66372943 -0.083680548 0.74327707 0.11150508
2480.9814 -708.35724 13.467151 0.78333825 -0.24943703 -0.56935251 0.11369748
2544.9407 -686.65582 88.512886 0.47859803 -0.84234089 -0.24780189 0.17296997
2567.9417 -720.33459 89.945099 -0.62105733 -0.78310287 -0.032213353 0.052834481
2500.8586 -706.96484 38.683491 0.69343871 -0.35092634 -0.62928009 0.1154801
2575.6938 -678.36102 90.043777 0.18352441 -0.98266464 -0.026249181 0.067134283
2547.9016 -698.29242 88.834793 0.77863437 0.6110431 -0.14267018 0.16675577
2524.5637 -684.68262 46.218258 0.62491941 -0.57316786 -0.53005129 0.11589766
2473.7593 -714.08936 2.2015603 0.83744973 -0.02712694 -0.54584074 0.13731554
2513.2622 -696.09277 43.618645 -0.58248931 0.50430679 0.63748002 0.077115908
2548.8123 -699.23474 109.23195 0.79891068 0.57951218 -0.1609575 0.14521222
2567.7874 -720.8559 111.97054 -0.64026284 -0.76808333 0.010555065 0.07812757
2540.2061 -700.2215 64.162735 0.77819186 0.56479788 -0.2746284 0.15685
2530.9087 -689.53381 62.779949 0.81680375 -0.48851189 -0.30690017 0.16787019
2542.4248 -691.71271 107.69585 0.54326844 -0.82414937 -0.16011637 0.20394969
2569.0579 -679.12134 110.02959 0.41977596 -0.88180506 0.21496029 0.11188342
2537.5703 -682.27319 63.078453 0.57622772 -0.81328309 -0.080822304 0.15307656
2470.0872 -698.76801 2.4739742 -0.65289527 -0.12814853 0.7465291 0.15081762
2477.3174 -712.66864 8.6377983 0.70026785 -0.15282741 -0.6973297 0.14270282
2547.9468 -683.49652 81.330307 0.5000658 -0.79045051 -0.35372612 0.16619314
2503.1621 -702.11121 37.845028 0.64746994 -0.44432887 -0.6191563 0.098437995
2547.5452 -691.31665 113.11692 -0.045804955 0.026610708 0.99859589 0.19786865
2536.6631 -686.37854 111.66051 0.35515705 -0.71311361 -0.6044274 0.27123472
2577.0261 -676.30975 82.938873 0.082317404 -0.97774869 -0.19295432 0.074560933
2569.3376 -720.91925 82.955627 -0.59714872 -0.80209792 -0.0072355061 0.059196681
2513.042 -691.17657 39.105892 -0.57063639 0.49042782 0.65867645 0.07521487
2541.5913 -692.06506 81.650528 0.93316752 0.33668888 -0.12585318 0.18217394
2525.282 -679.6427 41.163437 -0.56732392 0.49205199 0.66032445 0.10020253
2534.98 -690.28101 69.424812 0.92939031 -0.30371758 -0.20973621 0.17767261
2543.6423 -680.40887 70.795807 0.7556451 -0.64820826 -0.093949981 0.22585513
2494.012 -707.24487 31.394327 0.70939684 -0.41668788 -0.56844294 0.10962392
2555.7361 -701.03381 113.24539 -0.62870312 -0.45178193 0.63294977 0.20115541
2549.3906 -691.50134 111.90101 0.5870288 -0.60622275 -0.53655493 0.26172259
2505.6794 -695.84375 35.154171 0.6263864 -0.48931506 -0.60680383 0.095350876
2570.5662 -722.58496 117.25951 -0.66597211 -0.73617494 0.12053031 0.079604872
2510.4636 -685.87872 33.0541 -0.56347322 0.47128403 0.6785199 0.1026565
2555.6816 -710.3476 72.393654 -0.68453985 -0.69973266 0.20439999 0.0881171
2587.74 -732.81604 80.796288 -0.56764603 -0.81814134 -0.091775693 0.10780386
2473.5474 -720.09662 -4.7751641 0.87966329 0.18778163 -0.43695602 0.19350444
2531.4412 -679.43884 44.520401 -0.57267159 0.46989965 0.67174518 0.11324698
2502.1577 -710.5932 43.313259 0.64602172 -0.48729733 -0.58753484 0.12984444
2510.0115 -700.78827 41.541412 -0.58203131 0.43074718 0.68970746 0.089518644
2518.4333 -689.76868 42.196136 -0.55857903 0.5060696 0.6571781 0.080492608
2544.5305 -689.08618 111.56435 -0.56657469 0.094234571 0.81860429 0.28472716
2539.2703 -690.09009 78.285095 0.98606026 -0.020801431 -0.16508317 0.18431786
2546.9873 -683.20789 77.617699 0.49449944 -0.79822499 -0.34395814 0.19109806
2558.0413 -712.26697 80.366241 -0.64898092 -0.75106639 0.12133837 0.060868956
2557.5857 -710.81866 103.12201 0.74777597 0.66346335 0.025445325 0.080772519
2565.0347 -724.52875 61.422707 -0.61111438 -0.69794631 0.37337664 0.038766991
2569.731 -722.23834 104.5106 -0.59316832 -0.80334204 -0.052847948 0.071772434
2542.446 -679.52979 57.627396 0.46614751 -0.88327014 -0.050401255 0.15875523
2531.6567 -685.5517 56.826347 0.68716633 -0.66003215 -0.30357867 0.16648376
2570.1155 -679.33215 104.04105 0.32601026 -0.93822777 0.11595663 0.1069001
2530.5312 -695.93823 60.045715 0.83290416 -0.2549437 -0.49119687 0.21412981
2544.6792 -694.48535 102.47136 0.81983614 0.56035024 -0.1177979 0.15826261
2553.3494 -687.60693 102.89351 0.49315113 -0.85685444 -0.15034102 0.20275344
2474.8977 -711.31567 4.9301496 0.78779638 -0.10565437 -0.6068064 0.13128005
2539.2217 -677.69312 54.390598 0.79741716 -0.14395709 -0.58600533 0.18571585
2527.2478 -685.34357 47.8452 -0.57737827 0.56263196 0.59167522 0.12879951
2521.4458 -695.92853 49.304901 -0.56592637 0.51674265 0.64242071 0.084929518
2476.8481 -698.20642 7.2515893 -0.69854057 0.090109654 0.70987415 0.14127864
2500.1001 -699.46338 32.861267 0.66354084 -0.39563113 -0.6349721 0.10442165
2498.1377 -708.6507 38.899136 0.67189687 -0.5425958 -0.50412738 0.13136131
2512.2378 -687.56897 35.157131 -0.5697245 0.50140399 0.65115899 0.096193068
2548.3083 -696.65948 117.4684 0.80782759 0.55583036 -0.1961306 0.17297737
2557.3062 -711.94531 77.270836 -0.65306538 -0.75006682 0.10442878 0.065609708
2537.8718 -689.80444 74.756516 0.96963316 -0.13283807 -0.20534256 0.1827234
2547.2805 -689.79224 111.63721 -0.67054498 0.29811928 0.67933375 0.27342111
2523.6956 -677.53516 35.928612 -0.53354675 0.55943555 0.63431835 0.093319394
2562.834 -678.09381 117.91643 0.46954444 -0.76756573 0.43631515 0.12761456
2551.2053 -681.35022 75.843086 0.47178543 -0.80464149 -0.36051431 0.19014595
2475.3301 -711.04932 5.720582 0.75465477 -0.10756058 -0.64724565 0.12854089
2465.2944 -695.29999 0.86489958 -0.61045021 -0.25954548 0.74832255 0.13468735
2557.3667 -713.0329 68.414093 -0.6185981 -0.76989716 0.15682711 0.056738093
2517.4868 -679.23718 32.916641 -0.54879683 0.47410846 0.68850797 0.09537217
2538.959 -683.31299 67.276741 0.61524183 -0.78321522 -0.089730002 0.174597
2507.3159 -689.5351 31.310266 0.62503254 -0.51102626 -0.59007329 0.10811097
2532.7827 -691.37628 66.171852 0.88777298 -0.36481363 -0.2806603 0.18174115
2495.8071 -701.69159 29.538702 0.67887527 -0.43250981 -0.59334952 0.10634276
2492.4795 -701.3764 25.307276 0.72407782 -0.29695153 -0.62251997 0.10946044
2557.5161 -709.83929 109.92594 0.7934258 0.60743195 -0.038755156 0.11803377
2495.8103 -688.90991 24.204796 -0.64661998 0.30722952 0.69820672 0.1177901
2538.7874 -696.71344 67.911247 0.9136191 0.31035286 -0.26264283 0.19077751
2551.2837 -678.45673 68.728493 0.46088275 -0.88209057 -0.097485207 0.20818137
2492.6804 -675.90277 20.059551 -0.55262142 0.18611909 0.8123849 0.14987205
2543.3689 -690.06134 108.47113 0.85104871 0.46581507 -0.24234773 0.20315082
2569.5525 -722.92493 70.463951 -0.59017134 -0.78480345 0.18915948 0.062679231
2571.5215 -723.74963 111.07082 -0.61284506 -0.79001558 -0.017214816 0.082012735
2585.7554 -675.71417 110.91942 0.070573762 -0.94758034 0.31162611 0.082123764
2557.2842 -685.42407 110.10201 0.54574233 -0.81471342 0.19597794 0.18956283
2486.6736 -711.6347 21.858255 0.76740295 -0.18217158 -0.61474073 0.1155725
2538.4653 -686.11865 68.554169 0.89853662 -0.407713 -0.16248706 0.2145215
2535.9529 -677.91736 51.757423 0.78887314 -0.40022099 -0.46637148 0.19693084
2549.3926 -686.85962 90.350388 0.45372728 -0.85184014 -0.26172492 0.19429061
2570.2244 -722.0257 89.94838 -0.60269606 -0.79696208 -0.0401107 0.058536373
2474.6787 -697.22705 6.3087239 0.70762718 0.048369404 -0.70492852 0.12985547
2529.1411 -687.90192 52.148552 0.62877685 -0.54712242 -0.55253661 0.14988318
2566.8926 -678.54779 91.061691 0.22890393 -0.96451545 -0.13157864 0.10339262
2474.553 -709.7196 3.9782453 0.81799209 -0.15848997 -0.55296457 0.12460256
2515.4741 -700.8772 47.768978 -0.58868837 0.43319404 0.68248731 0.088211462
2545.0535 -696.82538 88.53508 0.80835325 0.57568842 -0.12307686 0.12591843
2468.9685 -692.8418 6.3286061 -0.47071359 -0.21504317 0.8556782 0.14093509
2518.2341 -686.23993 39.845657 -0.5585953 0.55446595 0.61687827 0.082785308
2559.7446 -710.10687 84.99926 0.79349959 0.57934266 -0.18633443 0.1652274
2472.5884 -705.0658 1.9044448 0.76134753 0.014682849 -0.64817774 0.13960245
2548.0518 -681.61841 80.280029 0.39229944 -0.85079116 -0.34965068 0.11853255
2536.791 -685.76898 80.549385 0.96660745 -0.22699803 -0.11891965 0.15734184
2506.5444 -697.05475 37.256905 -0.60412318 0.41255909 0.68178457 0.10330473
2488.5466 -703.77234 21.093143 0.73067647 -0.3654536 -0.57667637 0.10126408
2501.1282 -683.16437 25.144899 -0.58308566 0.24060887 0.77596295 0.11998399
2495.3633 -693.26544 23.318108 0.680812 -0.33294103 -0.65241498 0.11364833
2483.5676 -667.10181 20.59523 -0.29009977 -0.22313288 0.93062013 0.20492196
2493.4189 -683.78552 20.774807 -0.5963555 0.11005332 0.79514045 0.12079133
2494.2236 -674.16052 23.209368 -0.50291169 -0.23455825 0.8319028 0.15985939
2489.189 -694.83691 18.342096 0.71284437 -0.22639546 -0.66377556 0.1073318
2534.9727 -684.04248 57.127628 0.86687511 -0.33753943 -0.36687145 0.20627935
2543.8484 -678.93616 54.856441 0.43250218 -0.90136933 -0.021798445 0.16165148
2501.5129 -672.39172 23.574972 -0.45602515 0.31048027 0.83405221 0.13358118
2538.1123 -687.00146 70.311371 0.93149608 -0.29972732 -0.20610334 0.20416859
2501.283 -685.46747 27.235312 -0.58927226 0.37879071 0.71363562 0.11282526
2577.4719 -729.54803 115.42222 -0.64363223 -0.76237279 -0.067270458 0.11817499
2556.7603 -700.58368 109.55331 0.053629439 -0.093088888 0.99421245 0.20334971
2540.9534 -691.29919 111.04367 0.49381882 -0.85428953 -0.16227251 0.21546221
2555.2412 -677.68811 71.126625 -0.051590316 -0.99863124 0.008609239 0.091375254
2567.9224 -678.36639 113.68025 0.35084012 -0.89998728 0.25871617 0.098842248
2499.5791 -697.77411 31.4403 -0.64781898 0.34771129 0.67781073 0.10808565
2539.6497 -681.20135 68.843895 0.59747577 -0.79678655 -0.090298831 0.15940067
2540.2466 -693.47394 83.350929 0.86729622 0.48956725 -0.09011776 0.12294964
2514.5732 -683.60223 35.813679 -0.53028262 0.53628856 0.6566543 0.093982339
2540.2358 -685.82098 81.879333 0.92578304 -0.32196796 -0.19814743 0.18090926
2559.1821 -709.02551 124.24371 0.71816486 0.64983457 -0.24890615 0.073997438
2567.9067 -677.18799 86.19075 0.26401442 -0.9206481 -0.28758216 0.096447438
2574.1118 -724.68176 84.731842 -0.57378781 -0.81494009 -0.081487462 0.062485293
2508.623 -693.35431 36.978104 -0.55486292 0.46299344 0.69120491 0.090391427
2497.512 -703.69946 33.202 0.71344584 -0.29575396 -0.63523591 0.11075516
2546.188 -693.6012 112.92873 -0.17826147 -0.032489099 0.98344666 0.22671476
2566.3743 -719.6286 110.65435 -0.70366275 -0.7044698 -0.09263391 0.088202052
2548.2771 -678.56232 67.066696 0.53851157 -0.84247047 0.015773712 0.20124145
2546.4341 -693.42316 108.63627 0.83557141 0.48557323 -0.25698069 0.21667071
2563.0168 -718.63971 67.67025 -0.58775949 -0.78626454 0.19059609 0.039366603
2492.2324 -679.92383 19.952362 -0.57401806 0.2375485 0.7836287 0.13566215
2552.0051 -688.33051 109.36238 0.50898069 -0.84542394 -0.16185483 0.22034322
2573.0908 -677.28485 110.0742 0.2945911 -0.92475563 0.24092127 0.10017285
2493.2241 -693.08734 23.76613 -0.66812211 0.26028076 0.69704145 0.11585871
2545.8787 -701.41022 67.826942 0.81939447 0.55003929 -0.16139872 0.17904659
2487.0217 -705.10199 20.82988 0.76776832 -0.21038373 -0.60520285 0.10545547
2538.1543 -686.07104 66.971207 0.89551091 -0.41246974 -0.16711941 0.21819086
2555.9622 -706.60992 112.03461 0.86177266 0.5064798 -0.028741892 0.17471123
2545.3022 -680.38391 69.672363 0.69621259 -0.66276437 -0.27573797 0.24111335
2488.28 -698.16748 21.093428 0.72311407 -0.1598886 -0.67196852 0.10553846
2533.1387 -682.63513 109.73871 -0.63382506 -0.75968081 0.14543334 0.19095552
2539.8203 -694.0365 70.046265 0.95022738 0.19293734 -0.24462844 0.21613671
2485.0349 -682.85388 16.182144 -0.66553617 0.15355925 0.73039794 0.1251571
2494.0505 -709.0321 33.6763 0.67999142 -0.52942395 -0.50726908 0.12606166
2482.8328 -668.3692 17.049513 -0.43387657 0.041795123 0.90000236 0.14364824
2583.2849 -732.04132 113.99659 -0.55766523 -0.83006567 -0.00070057355 0.11491331
2551.3047 -708.34351 70.480042 -0.64826602 -0.74723464 0.1462584 0.071681179
2552.2878 -677.58917 68.327812 0.25666597 -0.96355397 -0.075408004 0.12978846
2566.9514 -679.90015 110.97387 0.42605901 -0.87524235 0.22896406 0.10796102
2536.5852 -688.83295 67.392952 0.92889518 -0.29929605 -0.2181185 0.20680076
2566.8235 -720.19891 111.98744 -0.66294307 -0.74718326 -0.047156438 0.077952646
2543.2883 -680.3783 67.880501 0.69728154 -0.7163493 -0.025339752 0.20720467
2543.4712 -689.10364 107.49601 0.85740894 -0.46202323 -0.22668129 0.20532309
2488.6113 -694.89996 20.456087 0.70271182 -0.17512141 -0.6895858 0.11134981
2564.1306 -680.54694 111.65624 0.39494845 -0.88964587 0.22922903 0.1101569
2579.7375 -675.35254 113.19207 0.095684752 -0.95391929 0.28439832 0.08094351
2542.5146 -699.74542 66.703812 0.79004121 0.56954515 -0.22683309 0.15055621
2493.6875 -670.25604 21.177071 -0.51156425 0.077624135 0.85573155 0.17189582
2547.6831 -696.88416 109.87523 0.81639731 0.54318345 -0.19607952 0.1805919
2491.1877 -683.12512 19.970076 -0.60602283 0.2139031 0.76614738 0.12511045
2571.6973 -674.77203 117.06718 0.22852421 -0.90853679 0.34976789 0.067809984
2541.3557 -694.48932 72.765198 0.92374378 0.34799448 -0.15999158 0.20786789
2560.2012 -713.05298 116.74767 0.80420393 0.58991426 0.072506472 0.11861008
2490.4138 -700.93951 23.993811 0.71005809 -0.25437617 -0.65658987 0.10893145
2550.5686 -693.28625 109.93948 -0.092756003 -0.11645227 0.98885548 0.25606826
2560.0911 -714.87891 73.989868 -0.59940583 -0.79765785 0.066742808 0.04672331
2545.7334 -688.15094 112.99029 0.51086307 -0.84603149 -0.15247849 0.19312547
2494.2974 -676.01611 21.272417 -0.55277002 0.21037316 0.8063426 0.14712447
2552.0039 -678.91583 71.788994 0.27444091 -0.94719219 -0.1658587 0.12675817
2538.2134 -684.69318 71.720215 0.8290872 -0.53942299 -0.14709614 0.18682672
2500.4783 -690.29926 28.481165 -0.62400734 0.39044785 0.67687911 0.10621562
2556.4226 -707.42603 119.91457 0.76398003 0.61739558 -0.18750268 0.087369002
2544.0598 -689.75909 118.22047 0.51044548 -0.8502295 -0.12866712 0.23057872
2564.5129 -672.42535 122.89488 0.29150987 -0.81013632 0.5086267 0.068376988
2544.8518 -688.27856 115.88475 0.81667382 0.38707739 -0.42803621 0.25297177
2538.0742 -684.39783 100.22845 0.88178343 0.45219669 -0.13407511 0.14565362
2548.5718 -677.66321 59.416145 0.4814769 -0.87298954 0.077905446 0.16659056
2583.2769 -677.77496 104.20975 0.056105416 -0.96784562 0.24520814 0.078901254
2487.9307 -676.98438 18.147894 -0.54932296 0.0041425894 0.8355999 0.1382028
2534.1536 -685.11566 58.263393 0.69302964 -0.68082356 -0.23704265 0.18394981
2559.3198 -720.17688 60.038216 -0.57160997 -0.74060702 0.3532185 0.032699853
2538.2388 -698.55493 59.676788 0.89552283 0.28215745 -0.34413081 0.24001202
2560.0137 -683.12402 101.99252 0.43071771 -0.90248114 -0.0031797506 0.14116342
2484.543 -702.09375 15.914936 0.7573384 -0.27934399 -0.59025878 0.10776988
2563.5293 -716.87323 102.25674 -0.6492371 -0.75911832 -0.04722878 0.054805145
2551.7495 -702.83014 100.7436 0.7829082 0.61783868 -0.073007658 0.11905499
2489.3259 -691.22687 18.766354 -0.69085526 0.1453826 0.70822519 0.11553543
2474.2502 -717.88959 1.1954713 0.83861411 0.074071944 -0.53966635 0.14815916
2568.2224 -720.71326 88.013748 -0.61256582 -0.78951192 -0.037868079 0.052028637
2541.322 -687.21313 85.164124 0.70047522 -0.6676448 -0.25216034 0.17633341
2573.4209 -676.89868 86.616737 0.18014877 -0.96474797 -0.19185351 0.089004144
2521.5781 -685.63147 43.414021 0.58568054 -0.56369567 -0.58243066 0.096577615
2546.0862 -698.46741 85.730759 0.80158383 0.58886451 -0.10345019 0.13026135
2545.4075 -694.43359 114.01138 -0.029095354 -0.040441319 0.9987582 0.19955565
2511.4661 -697.38336 41.440975 -0.56666076 0.46598923 0.67952162 0.075384878
2527.9233 -679.95911 38.687431 0.41590223 -0.84780765 -0.32900992 0.12675302
2501.7571 -708.99451 40.242847 -0.65648371 0.37154952 0.65649074 0.11295721
2554.4175 -681.51672 89.998283 0.36143249 -0.89672947 -0.25542682 0.11186349
2511.4927 -704.14581 46.995472 -0.60946935 0.37445301 0.6988076 0.092131667
2557.3062 -708.54974 93.053429 0.78237391 0.61988813 -0.060247339 0.12778485
2519.4326 -692.26031 48.76638 0.63052315 -0.55467659 -0.54293132 0.099149302
2537.1318 -683.7193 89.979156 0.95588881 0.26809797 -0.12000013 0.13254556
2532.9377 -679.77386 51.283974 0.75786728 -0.45057479 -0.47182575 0.17588808
2474.9646 -708.78931 4.3292928 0.80361629 0.034102902 -0.59416991 0.13131931
2573.751 -724.98486 102.71323 -0.59999019 -0.79634064 -0.0765073 0.068768688
2533.4133 -689.68622 61.222275 0.83631736 -0.44738272 -0.31689423 0.21476543
2480.3826 -702.45544 12.507743 0.77949536 -0.081007861 -0.62114793 0.11957481
2480.6355 -715.49933 13.561028 0.82508802 -0.11332469 -0.55352259 0.1168976
2549.2437 -699.33002 101.73859 0.79871809 0.59446639 -0.093054518 0.15798348
2531.5408 -711.23517 54.416721 -0.58898234 -0.35863003 0.72421288 0.13263999
2528.4263 -701.17828 59.06422 0.83159238 -0.10393791 -0.54557407 0.19297428
2497.7617 -682.67981 22.990005 -0.57959414 0.2567212 0.77341121 0.12222282
2573.084 -678.90576 102.42154 0.27938589 -0.94382775 0.17644474 0.10182475
2556.071 -688.03998 102.59309 0.53844208 -0.82624066 -0.16554914 0.23736693
2542.9705 -678.00867 64.793388 0.8765797 -0.34884045 -0.33153948 0.24451303
2495.7568 -671.05042 22.909124 -0.56962806 0.037954532 0.82102579 0.15472205
2496.6357 -697.5047 27.809742 0.69188917 -0.39559349 -0.60398275 0.10932312
2487.6072 -709.8468 23.309175 0.75131255 -0.29300362 -0.59133607 0.10684097
2500.929 -685.79224 26.503983 -0.5974291 0.34839383 0.72228813 0.11653982
2562.4858 -679.94006 115.44064 0.37674582 -0.90021956 0.21832845 0.10486872
2560.6873 -714.3717 113.68355 0.71238458 0.69675714 -0.083891183 0.070019901
2545.29 -693.30737 111.71658 0.80423212 0.56137425 -0.19511449 0.17656878
2541.6748 -691.22833 111.52178 0.51901674 -0.84400463 -0.13519526 0.22344121
2489.1655 -696.33105 19.636986 0.71994853 -0.26252738 -0.64245892 0.10947631
2493.4255 -683.3902 21.036489 -0.59519231 0.2305079 0.76981312 0.12386952
2492.0798 -705.73468 25.79768 0.72381854 -0.5018878 -0.47349271 0.13933906
2488.2119 -669.13782 20.378288 -0.4945268 -0.08647117 0.86485028 0.17329092
2566.998 -669.99408 123.99595 0.25307661 -0.79759926 0.54752868 0.070539013
2547.5933 -678.93079 75.733002 0.30042008 -0.91386259 -0.27313536 0.10167762
2537.0247 -685.90814 76.940918 0.81188875 -0.55948758 -0.16676418 0.16926201
2546.8071 -695.16809 113.15795 -0.067994535 0.014162382 0.99758518 0.2113166
2547.959 -699.02753 81.011169 0.81075633 0.54234427 -0.22031091 0.17625757
2488.917 -707.24628 23.876343 0.75215256 -0.19064975 -0.63080835 0.10506174
2551.9436 -706.9292 72.254913 0.73886549 0.64984173 -0.17827936 0.12296062
2544.2378 -691.44977 111.78735 0.55889136 -0.79491997 -0.23609902 0.2372528
2559.2388 -702.68677 109.54131 0.1379004 -0.056745648 0.98881918 0.18564799
2500.6304 -684.01807 25.939713 -0.57863915 0.36129844 0.73119092 0.1189891
2569.6594 -677.19543 114.73109 0.37249416 -0.88017321 0.29418227 0.10151234
2567.7097 -720.42651 116.24498 -0.66541559 -0.73570305 0.12634508 0.073479079
2536.6125 -688.16077 69.806137 0.91536427 -0.35241258 -0.19471422 0.18765442
2494.8894 -695.81744 26.206455 0.69199508 -0.29938728 -0.65689421 0.10614952
2543.6248 -680.36908 70.826843 0.65243375 -0.75745195 -0.024428759 0.19472267
2518.6226 -673.95978 31.251211 -0.52654701 0.45188853 0.7201007 0.10820559
2546.4861 -696.92682 88.751648 0.80335802 0.58016425 -0.13425831 0.16077256
2573.7539 -677.51178 89.176949 0.16195892 -0.97989553 -0.11650793 0.073032372
2473.7534 -713.97186 3.1669464 0.82441568 -0.09399619 -0.55812502 0.13996242
2521.7637 -684.77649 43.312664 0.59301567 -0.60291708 -0.53368849 0.10074199
2581.4526 -729.48627 89.133194 -0.57063746 -0.81396604 -0.10877601 0.081302054
2540.5044 -685.88495 86.088104 0.78597045 -0.55472809 -0.27299672 0.15585896
2510.52 -696.20026 41.28043 -0.58449727 0.51034826 0.63079911 0.081235126
2501.5864 -705.87299 38.904995 0.69068295 -0.3551971 -0.62991434 0.11598307
2552.8806 -702.39337 104.89478 0.81956464 0.56455827 -0.097916923 0.1716135
2539.5674 -690.92694 102.02709 0.53553927 -0.81220943 -0.23132992 0.1619021
2567.0564 -719.78107 106.11398 -0.65328437 -0.75382429 -0.070487529 0.066206202
2571.8833 -678.60614 105.92632 0.27975482 -0.94370204 0.17653239 0.09867727
2503.1357 -683.78491 27.567963 -0.57094687 0.39459971 0.71993804 0.11046468
2546.6355 -690.05408 113.34489 0.53891271 -0.82008988 -0.19242042 0.22286822
2571.1367 -675.90314 115.0946 0.35357931 -0.85877067 0.37080261 0.10189583
2550.3936 -704.49927 74.119751 0.76321566 0.62832302 -0.15070511 0.13776124
2490.6558 -706.30267 25.896957 0.73571163 -0.26216227 -0.62449926 0.11128808
2554.8262 -698.75745 111.28844 -0.35095161 -0.2387825 0.90543687 0.21847716
2498.1653 -695.08044 28.833799 -0.66707247 0.32451633 0.67059934 0.10792505
2576.3894 -727.0672 75.24913 -0.61180818 -0.78532398 0.094641797 0.073728547
2568.9805 -721.22711 117.45039 -0.66432291 -0.73261464 0.1481581 0.077586316
2543.4727 -680.11102 72.343719 0.66499352 -0.74257922 -0.079747885 0.18256037
2536.9922 -687.76996 71.863754 0.89455903 -0.41351146 -0.16962431 0.1756907
2539.6423 -678.81372 56.924423 0.81655508 -0.53169084 -0.22481695 0.19551148
2559.4849 -724.23816 54.941338 -0.58559352 -0.69481903 0.41750056 0.037760444
2543.792 -694.69354 97.274796 0.81677544 0.56355959 -0.12360615 0.1298918
2478.7878 -696.11011 10.250355 0.71399814 -0.043981366 -0.6987648 0.1145182
2559.8298 -713.14191 99.093719 -0.70339644 -0.7104159 -0.023295688 0.065730914
2527.9351 -703.55005 59.172321 -0.67715585 0.24155019 0.69506359 0.18882219
2574.5674 -678.98993 98.681656 0.20794465 -0.9660995 0.15300588 0.078689076
2469.3069 -679.21039 6.802371 -0.63372612 -0.11618366 0.76478267 0.11694852
2479.9565 -709.99115 12.031413 0.79981655 -0.16252095 -0.57782388 0.11419859
2531.1453 -690.31958 57.75584 0.78395993 -0.43285009 -0.44502547 0.20140989
2548.6997 -688.35547 97.701385 0.45018581 -0.87202358 -0.19211352 0.18004727
2538.241 -684.45001 74.261818 0.82147944 -0.54327714 -0.17326711 0.17262039
2507.6062 -692.70142 35.451004 -0.58852667 0.4463343 0.67410833 0.097283378
2508.0642 -681.66681 30.35055 -0.49631998 0.43193954 0.75305688 0.10837682
2539.6096 -693.37494 75.391594 0.9720208 0.16832642 -0.16383445 0.18676329
2553.7886 -679.13501 74.46286 0.23800413 -0.94947988 -0.20455305 0.10730462
2493.7961 -713.65088 36.564236 0.72959429 -0.44666046 -0.51786739 0.12755159
2567.8376 -720.00891 77.339798 -0.58113599 -0.80866641 0.091321789 0.059941288
2549.4734 -692.52106 111.12607 -0.3318519 -0.19841796 0.9222281 0.25634095
2559.0413 -712.39746 118.7831 0.81075197 0.57846403 0.089780934 0.12484927
2498.8076 -703.44928 34.292629 0.69389331 -0.3860698 -0.60783398 0.10722031
2552.6318 -681.46997 117.51353 0.45547548 -0.65586698 0.60198057 0.18634088
2576.5994 -672.88666 117.97382 0.16808425 -0.88675892 0.43058836 0.077993535
2538.3601 -686.26703 93.977478 0.90890414 0.39056465 -0.1461252 0.12581709
2514.0188 -704.05402 49.571171 -0.63555443 0.32483473 0.70039487 0.089155324
2558.4275 -710.46277 96.013184 0.77761203 0.62848938 -0.017906897 0.10571601
2539.6504 -686.20508 62.984898 0.83853102 -0.053973909 -0.54217392 0.2087564
2591.9219 -680.3302 97.238953 -0.057746165 -0.98260278 0.17651384 0.05829687
2528.8669 -692.95428 57.019222 0.74982095 -0.37113586 -0.54774696 0.18196101
2475.9172 -705.05457 6.1814055 0.78086156 0.15013124 -0.60639578 0.12228141
2561.168 -682.29901 96.36409 0.43152764 -0.8821184 -0.18881491 0.14540322
2579.8267 -728.22888 115.2405 -0.5050112 -0.85238069 0.13568656 0.12155371
2570.8958 -675.69952 115.87399 0.3046957 -0.87834269 0.36834034 0.09452869
2547.7585 -677.71552 70.223701 0.48819762 -0.87224931 0.029055724 0.15458778
2545.1931 -691.41571 111.74554 0.82549739 0.47775683 -0.30050361 0.21067409
2532.5027 -694.4375 67.496193 0.93328452 -0.17881407 -0.31145713 0.1670377
2558.0212 -710.49353 114.79382 0.7685585 0.63762575 -0.052452039 0.10206575
2534.95 -685.62964 68.690407 0.82724369 -0.55119234 -0.10888043 0.15744989
2564.5972 -718.56592 71.102776 -0.5737673 -0.80583614 0.1463529 0.038464718
2553.0269 -686.99457 115.21572 0.55951369 -0.82667893 0.059551686 0.23649256
2495.2466 -711.1731 35.261017 0.73091525 -0.38165572 -0.56577539 0.11617681
2549.0574 -703.10419 77.782524 0.75374806 0.63861436 -0.15503407 0.12560464
2502.1265 -699.22327 34.759594 -0.64004582 0.36820343 0.67436463 0.10874689
2537.8254 -686.97736 75.368118 0.95030004 -0.24012342 -0.19816814 0.17375512
2512.3379 -688.29974 36.566502 -0.53970277 0.47881415 0.69242901 0.085859433
2544.3918 -684.21198 111.24125 -0.17649993 0.026879001 0.98393357 0.24823798
2563.6355 -676.41479 120.63232 0.37937456 -0.84471309 0.37753776 0.10281258
2565.4746 -716.37115 121.49519 -0.65410286 -0.72250313 0.22391663 0.062542737
2552.7615 -698.33887 111.71009 -0.20396426 -0.19234301 0.95989728 0.19153361
2546.302 -681.13818 75.034714 0.4073118 -0.8805263 -0.24242638 0.16181529
2485.498 -698.88086 18.079052 0.74573082 -0.14603432 -0.65004581 0.10068224
2484.76 -710.8266 19.27182 0.79686725 -0.17517993 -0.57819945 0.1118257
2580.0156 -729.97784 110.00122 -0.57404554 -0.81759125 -0.044903513 0.091459729
