# .PCD v0.7 - Point Cloud Data file format
VERSION 0.7
FIELDS x y z normal_x normal_y normal_z curvature
SIZE 4 4 4 4 4 4 4
TYPE F F F F F F F
COUNT 1 1 1 1 1 1 1
WIDTH 628
HEIGHT 1
VIEWPOINT 0 0 0 1 0 0 0
POINTS 628
DATA ascii
2625.5085 21.914154 338.05466 0.73370147 -0.54419822 0.40685439 0.11143306
2660.8125 4.0246553 252.51161 -0.42305097 -0.89044565 -0.16773325 0.11331132
2611.2339 -5.4879942 334.46188 0.87571907 -0.41628024 0.24459533 0.13845587
2634.3538 28.143158 248.72275 0.86806136 0.48907146 0.085314758 0.062844515
2626.7847 62.427517 289.40558 0.98423427 -0.038111109 -0.17271501 0.085122973
2635.5308 97.514076 250.09007 0.95163608 -0.3020817 0.055994973 0.084098063
2630.5469 48.846558 291.37759 0.92768759 0.1727173 -0.33100519 0.092470951
2626.8867 67.252914 249.33813 0.96193856 -0.24895348 0.112678 0.11111929
2645.0947 49.851032 340.42105 0.77463901 -0.58843493 0.23168676 0.093814328
2626.3972 54.040691 249.06042 0.99864382 0.029080804 0.043184049 0.1256424
2635.0022 87.356544 248.77753 0.95523405 -0.24667825 0.16333321 0.083743997
2636.3455 38.859081 338.42746 0.79264385 -0.50726748 0.3382239 0.10364212
2660.6067 65.490501 344.77127 0.32740232 -0.81758571 0.47366801 0.11808674
2618.4421 8.6693802 336.57077 0.77460158 -0.52445537 0.35346711 0.11537753
2605.8674 -30.700901 330.5246 0.99327463 0.10873049 -0.039788749 0.14319496
2630.5083 75.539284 290.91116 0.93497926 -0.27041239 -0.229545 0.069398493
2603.5681 -21.165197 334.72287 0.87559092 -0.36619774 0.31502345 0.14619565
2644.5227 14.000203 250.01283 0.7876752 0.60382795 0.12230957 0.071278237
2632.1016 37.896793 248.32922 0.91346473 0.34769127 0.21140711 0.084416471
2650.4397 120.33325 295.89645 0.75725955 -0.62540424 -0.18822199 0.075348444
2712.8821 173.83797 258.00385 0.55857271 -0.8066721 -0.1930716 0.060827635
2697.9504 164.57011 304.48044 0.54701591 -0.82098347 0.16358393 0.068473659
2638.8933 104.44617 293.4288 0.94950855 -0.3097654 -0.049788732 0.062478501
2638.6948 108.963 250.19044 0.90682423 -0.42104077 0.019862192 0.087647229
2734.4263 184.10846 309.48105 0.22857708 -0.94415027 0.23734537 0.084038883
2689.2212 156.76114 256.47751 0.60215074 -0.79238582 -0.097668573 0.069309503
2653.7698 128.29041 253.0405 0.73474431 -0.67724234 0.038647197 0.07531064
2686.845 154.91005 302.11795 0.61041254 -0.78748721 0.085208155 0.054678224
2679.4207 148.29884 256.04138 0.56618261 -0.82414633 -0.01483573 0.063665286
2667.2124 138.22527 299.88809 0.56335771 -0.82457572 -0.051989965 0.041485373
2627.6064 56.371719 234.42513 0.98653215 0.065982722 -0.14966825 0.15758841
2735.574 180.7226 286.10699 0.50379223 -0.85450649 -0.12653868 0.039277252
2628.7273 40.125938 274.85907 0.95665252 0.2889773 -0.036167748 0.081426457
2643.8318 10.39876 276.51059 0.79149002 0.58449006 0.17864746 0.14762518
2699.2271 162.19904 282.00656 0.56302446 -0.82643473 0.0030106218 0.046085067
2628.1289 68.85347 232.0822 0.96336263 -0.26751566 0.019179204 0.14226022
2641.4492 20.832388 278.9184 0.82111931 0.56195122 -0.099869639 0.10478674
2641.6892 2.583884 280.56915 0.58927846 0.57246774 0.57011539 0.16042402
2635.0332 97.127869 233.06079 0.98944575 -0.13086443 -0.062222287 0.084643945
2638.6775 111.5123 233.2179 0.92167538 -0.35701045 -0.15184882 0.1020731
2630.8442 84.546349 232.41356 0.95301193 -0.2415393 -0.18283069 0.1095109
2642.5137 12.915623 271.70892 0.77609092 0.59141952 0.21887401 0.12518212
2642.6855 115.27152 272.12399 0.83608615 -0.54829496 0.018235428 0.064513683
2680.2029 148.69061 277.00888 0.5483588 -0.83589852 0.024006138 0.045856368
2652.2307 2.8144586 272.56943 -0.61662203 -0.72804368 -0.29954922 0.17571706
2638.7869 106.0965 272.00241 0.91100395 -0.41226766 -0.010351584 0.063142471
2618.1409 69.908981 221.48709 0.7976712 -0.14171822 -0.5862053 0.14479284
2652.2463 127.26032 273.08249 0.73630261 -0.67658257 0.0097221937 0.055939917
2704.2949 165.16168 279.99524 0.5188964 -0.85482997 0.0035069112 0.049631789
2636.1858 109.98239 227.40021 0.99183333 -0.10987534 -0.064761974 0.10950404
2642.4138 121.25637 227.73683 0.8077696 -0.55855888 -0.18846832 0.10885414
2638.0796 22.239487 271.11929 0.81738287 0.57555759 -0.024874335 0.089785062
2625.6294 49.536392 228.86909 0.88130057 0.41956404 0.21742897 0.13182089
2621.3376 58.053867 223.16594 0.91285753 0.0077588027 -0.4082045 0.24373583
2733.1401 179.7536 283.96054 0.48937052 -0.8611114 -0.1378538 0.03338369
2617.0737 -6.7276406 313.15018 0.91981924 -0.37974572 0.098619148 0.098841906
2648.999 52.335819 319.30624 0.9224171 -0.38457811 -0.035304453 0.12394311
2607.4771 -69.14505 311.36346 0.99372578 -0.041455392 0.1038774 0.13333945
2634.8 97.514427 271.88043 0.93096054 -0.36394286 -0.029292237 0.066207558
2607.7461 -40.032558 312.31815 0.99328732 -0.0117762 0.11507236 0.10205982
2624.4854 7.9417839 314.84308 0.85539591 -0.51756477 0.020604385 0.091202669
2630.3938 83.869514 270.99298 0.94913423 -0.31441826 -0.016891876 0.073247321
2628.1755 77.187599 229.20885 0.94663113 -0.21538956 -0.23978497 0.13776933
2633.9236 34.133488 228.09225 0.93197101 0.36133784 0.029409906 0.14635126
2642.0298 112.86793 272.9516 0.87315375 -0.48700026 -0.020815602 0.060788024
2609.8875 -24.596132 312.61359 0.96673131 -0.18482624 0.17683272 0.10745292
2626.5847 50.383263 226.32347 0.91024619 0.40602946 -0.081190675 0.18425114
2627.301 70.15242 270.96964 0.97119892 -0.23818749 0.0062779081 0.083079055
2606.0642 -84.353798 310.97113 0.99829119 -0.058241431 -0.0047545149 0.072200872
2640.4624 18.549374 229.0717 0.93514562 0.35128474 0.04584467 0.096531041
2607.8582 -54.038601 310.5441 0.99778193 -0.0056157224 -0.066329665 0.12854041
2635.6826 23.812021 270.96027 0.85546827 0.50665587 0.10711592 0.072077036
2624.6697 61.255112 226.70088 0.97570837 -0.10897061 -0.19004899 0.19945712
2598.603 -112.86361 311.32498 0.74788219 -0.25689161 -0.61211026 0.12472325
2605.0679 -98.082123 310.40707 0.98934639 -0.01997404 -0.14420401 0.090653375
2738.9836 182.79579 285.26425 0.4885416 -0.8632443 -0.12702911 0.050170865
2655.8401 130.15688 274.99792 0.7136547 -0.70043713 0.0092109479 0.050809372
2697.9949 161.48398 280.00024 0.54860717 -0.83608019 0.00013600098 0.045175504
2677.5681 146.63152 277.9921 0.56454694 -0.82533652 0.01031405 0.042907238
2631.4978 29.336599 296.42969 0.98160481 -0.14477944 -0.12446257 0.12009719
2619.5593 16.428518 342.10321 0.77767414 -0.5062027 0.37280256 0.12663868
2615.239 -13.72405 294.89273 0.93193465 -0.33798832 0.13138363 0.11220296
2623.9307 11.392771 294.50037 0.92597508 -0.37401411 -0.051803157 0.088879064
2609.3743 -43.013748 294.15216 0.99387693 -0.0099437209 0.11004414 0.1201307
2629.0237 58.94389 292.70233 0.96437669 -0.0045003593 -0.26449463 0.073215865
2612.8269 -28.315498 294.90567 0.94698918 -0.10568567 0.30338433 0.10676166
2657.688 129.60197 256.61496 0.67478025 -0.73383802 0.078443646 0.070982069
2607.9678 -57.68206 293.396 0.99639893 0.053083967 0.066115208 0.1344161
2641.7183 19.18742 253.78 0.78079778 0.62023163 0.075282954 0.064622886
2636.0896 97.190453 254.57248 0.93552434 -0.34672013 0.067671113 0.081393637
2644.999 114.96974 255.31812 0.89320302 -0.44316337 0.076121971 0.08109381
2621.249 -1.2073531 295.45648 0.86730045 -0.46561727 0.17604108 0.11740378
2699.7075 163.13924 262.68854 0.61731303 -0.7760545 -0.12908922 0.060672868
2675.5957 145.50539 259.09027 0.56550705 -0.82447016 -0.021229949 0.060711227
2605.0562 -89.710167 303.20032 0.9839673 -0.14671884 -0.10140003 0.094478361
2605.4968 -73.924561 303.18689 0.92827731 -0.13920529 -0.34485227 0.12696962
2610.804 -25.301353 304.12668 0.98397517 -0.16437104 0.069101654 0.11627141
2608.6738 -41.975784 304.02737 0.99962032 -0.018253367 -0.020639207 0.10582886
2607.7273 -57.934059 304.32129 0.9897455 -0.028716791 -0.13992582 0.13539609
2634.9473 38.017395 304.89981 0.90547836 -0.17984667 -0.38440105 0.10524409
2640.5913 109.70322 267.02957 0.89285535 -0.44812661 0.044630814 0.062733486
2631.0813 102.14161 222.40764 0.90512836 -0.13950944 -0.40159661 0.065215491
2634.4429 118.50622 221.20845 0.93418974 -0.18883497 -0.302706 0.1422978
2614.0098 70.312416 224.95245 -0.37223142 0.058433153 0.92629874 0.071360022
2621.1575 52.451847 228.07056 -0.33153543 -0.063931443 0.94127417 0.11376444
2616.5107 -8.4153414 304.93021 0.92994708 -0.3651022 0.043575756 0.092024043
2624.8425 7.640286 306.16983 0.88639086 -0.46047589 -0.047678173 0.095096529
2668.4204 140.51472 270.86362 0.57010281 -0.82094508 -0.032123502 0.052948166
2633.7185 24.530146 307.67709 0.89086825 -0.41540837 -0.18381949 0.13072209
2701.5452 163.68481 275.03299 0.55283546 -0.83232546 -0.040091492 0.045991417
2653.8647 128.0443 268.98166 0.7358889 -0.67699772 0.011899087 0.05586803
2622.0291 31.894554 343.92319 0.34182322 -0.32856593 0.8804552 0.13324137
2634.3374 69.754097 300.80667 0.82824135 -0.1105149 -0.54936576 0.077700488
2613.8562 -24.633863 292.57477 0.92886537 -0.15397991 0.33689654 0.10756762
2606.4805 -57.594898 287.51239 0.99524957 0.062214639 -0.074883848 0.15200004
2608.9763 -40.851669 289.51358 0.98771274 -0.076637872 0.13619916 0.12878291
2624.4641 7.7377138 291.89267 0.91342205 -0.35205364 0.20425072 0.08836583
2634.5349 46.468655 295.15622 0.89537239 0.10655046 -0.43238327 0.10761712
2742.5549 185.10376 305.41522 0.22336523 -0.94345337 0.24495649 0.078306407
2632.9592 29.20252 291.74863 0.99410337 0.068031773 -0.084440373 0.16294907
2641.0063 102.90056 295.73074 0.94685179 -0.30024275 -0.11543818 0.081380516
2625.5566 12.261772 324.26685 0.82288927 -0.54051316 0.17521074 0.10335273
2631.0247 34.800743 283.14285 0.96982867 0.19813551 -0.1420376 0.12347003
2615.5007 -4.1704607 322.77737 0.86770046 -0.48009929 0.12884313 0.096648134
2632.167 25.894829 326.02374 0.84028405 -0.52885193 0.11932462 0.090423495
2607.8286 -37.045212 320.82928 0.97388202 -0.091417313 0.20783809 0.12006529
2631.1047 19.962498 283.767 0.94973922 0.14974232 0.27490479 0.12361596
2644.3669 44.900562 327.91055 0.88587368 -0.4634136 0.021810599 0.10798391
2607.9663 -21.539536 322.36697 0.94910473 -0.26043129 0.17713208 0.10380951
2681.5022 151.57726 247.55403 0.5730803 -0.81753075 -0.0567667 0.093952127
2705.9792 176.02457 251.01784 0.56235415 -0.66919643 -0.48573035 0.069293641
2648.3916 123.46272 245.0062 0.79593199 -0.60533184 -0.0081026703 0.08308243
2631.5879 75.582901 242.02632 0.94579482 -0.2766206 0.17015626 0.13388227
2700.1702 163.58485 293.94092 0.54093206 -0.83216292 0.12205516 0.05133022
2634.9321 91.540512 242.2103 0.96163195 -0.24413486 0.12514849 0.10197874
2627.6562 56.756554 240.98959 0.99013352 0.032822914 0.13622855 0.13941462
2663.8018 135.16792 247.15056 0.60777807 -0.77250969 0.18394183 0.064519405
2638.6257 106.56337 244.03419 0.92502874 -0.3791995 -0.023012217 0.11311096
2626.2302 70.29908 266.26123 0.97883189 -0.20229387 0.031069625 0.08499147
2621.8574 3.7928081 308.16107 0.86773217 -0.49503806 -0.044476967 0.085626706
2641.7463 21.200659 226.92076 0.76750618 0.41620472 0.48755294 0.12488262
2637.1484 103.12028 268.13812 0.91043681 -0.41253591 0.030314041 0.070937276
2607.3083 -61.935898 303.50244 0.99328899 0.01477863 -0.11471069 0.12930275
2630.8828 86.574013 267.09393 0.94305092 -0.33239928 0.012870014 0.082519792
2615.9177 64.930519 225.35001 -0.52781618 -0.017612403 0.84917599 0.1532791
2633.1775 21.725739 309.46722 0.876077 -0.47842404 -0.059996448 0.12635766
2609.6604 -29.785948 305.93842 0.98645949 -0.15761235 0.045343228 0.12344661
2614.7825 -13.515356 305.97711 0.92895532 -0.36978018 0.017452618 0.10040155
2608.124 -46.01265 304.89542 0.99877256 -0.0059492351 -0.04917267 0.11876787
2646.3335 98.923103 307.70773 0.78111625 -0.19411515 -0.59344482 0.10093808
2640.5352 36.555614 311.54843 0.89742661 -0.31267065 -0.31122747 0.13168281
2650.0833 54.906761 314.23358 0.93551707 -0.30669534 -0.17534484 0.13207881
2662.7109 135.71965 271.86847 0.6367262 -0.77047074 -0.030895719 0.047936209
2646.7812 119.95232 270.13077 0.8047145 -0.59245515 0.037835117 0.059055895
2738.2227 182.60425 282.0658 0.50665808 -0.83993769 -0.19442813 0.029372327
2687.7673 154.36331 275.01337 0.60554969 -0.79580212 0.0029224905 0.048990019
2657.5535 1.1848569 271.23132 -0.68330646 -0.72955459 0.029023178 0.15382074
2627.7993 51.176582 230.17026 0.84529281 0.21405365 -0.48955193 0.16183974
2631.7964 37.86348 228.66692 0.90349931 0.26796672 -0.33448887 0.16340072
2637.6077 25.639929 225.96829 0.95522887 0.2957876 0.0068948381 0.10198954
2627.8025 81.053886 228.64008 0.87735075 -0.17790018 -0.44565371 0.11514651
2648.7288 122.97666 270.85706 0.78866851 -0.6146456 -0.014586556 0.066022329
2673.9995 144.00078 275.00003 0.54442149 -0.83864748 -0.016602507 0.044456411
2719.5378 172.92632 279.88052 0.44567397 -0.88970309 -0.09901081 0.034503847
2648.6101 121.34363 273.1134 0.81027681 -0.58591545 -0.01243326 0.064009517
2641.303 119.04678 227.28801 0.84631932 -0.50046253 -0.18243054 0.12093516
2694.835 159.24286 277.99536 0.56193018 -0.82703394 0.0157902 0.04119277
2635.3904 106.48939 226.61081 0.96576965 -0.20630546 -0.15724853 0.095676355
2633.4309 95.238953 228.77403 0.94980061 -0.1791328 -0.25649604 0.072216585
2629.0325 1.47162 289.33463 0.76460761 -0.37269595 0.52580696 0.11879753
2637.4922 104.08223 246.10196 0.93770003 -0.34532154 0.03836311 0.099063128
2702.3774 167.32738 253.45844 0.5645836 -0.80981493 -0.15951534 0.070751026
2749.4585 185.43909 300.32513 0.2256927 -0.94282609 0.24523827 0.087752335
2647.3032 121.13446 247.94695 0.83103615 -0.55561113 0.025984352 0.079997554
2637.0789 41.022499 296.32388 0.82547891 0.27551121 -0.49262375 0.13481501
2634.0664 91.54866 246.66763 0.94913417 -0.26931101 0.1631439 0.092413798
2630.6677 76.655296 245.52448 0.94469517 -0.26542887 0.19260992 0.10882425
2661.9556 132.8503 249.29974 0.62667638 -0.75407392 0.196594 0.073905319
2623.9614 -11.415965 288.7489 0.82796013 -0.23721179 0.50814617 0.1155293
2634.187 29.397163 290.46143 0.96545732 0.20690584 -0.15837355 0.16305657
2679.5 149.77005 250.05779 0.54345316 -0.83708555 -0.06282106 0.079145074
2615.8936 6.3824983 338.9722 0.76504338 -0.51432651 0.38752657 0.12610219
2607.3171 -10.759647 337.84305 0.8483355 -0.44029507 0.29405296 0.15124255
2650.3894 56.921787 342.83572 0.709319 -0.67478389 0.203797 0.11208379
2601.3691 -24.567307 334.47897 0.78307277 -0.42642909 0.4527199 0.12811278
2638.1799 41.661964 341.59436 0.7488429 -0.59803247 0.28564218 0.084949143
2627.042 25.311899 340.23709 0.69834942 -0.57732648 0.42308652 0.10611638
2630.9036 33.106102 273.09601 0.934044 0.35582045 0.030881286 0.089294426
2643.9597 115.20143 276.01929 0.86167568 -0.50739396 -0.0081495764 0.058965039
2636.3853 100.67661 275.0697 0.92157882 -0.38614812 -0.039775468 0.070683047
2639.0901 18.366468 273.86737 0.81489503 0.5673098 0.11876725 0.10910201
2631.533 86.156891 274.02744 0.94649988 -0.31787956 -0.055592448 0.073226824
2652.0042 126.26942 276.96149 0.75678885 -0.6534977 -0.014538633 0.062878489
2646.4998 7.619215 274.59204 -0.65630686 -0.70861065 -0.25909886 0.14989933
2671.561 142.14705 278.9812 0.5494501 -0.83532393 -0.018399065 0.047584139
2695.1123 159.37158 281.94507 0.54304272 -0.83903253 0.033599939 0.038103018
2626.8401 47.020618 272.72934 0.97702068 0.20602287 -0.054636821 0.064534657
2626.8486 72.308762 272.87173 0.97086889 -0.23558919 -0.043719366 0.069050141
2626.4919 59.089527 274.36115 0.99442202 -0.025379054 -0.1023756 0.076324254
2729.208 177.33134 286.45374 0.4703635 -0.87439966 -0.11909416 0.028743885
2626.9194 45.533924 261.01578 0.97629577 0.21642923 0.0022249182 0.073397301
2609.8074 -33.521793 303.90533 0.98726535 -0.158757 0.010166988 0.12216501
2642.5151 82.672859 306.9913 0.81927419 -0.17689574 -0.54543346 0.10244982
2612.4099 -20.423697 303.10727 0.95515269 -0.2870554 0.072680973 0.10269371
2625.0737 57.640755 261.38138 0.99790114 -0.044402219 0.047135979 0.08176104
2644.3818 14.325499 263.05023 0.75717121 0.64557862 0.099599421 0.089201555
2621.4023 4.9008493 304.16293 0.89985734 -0.43558279 0.022900049 0.090587601
2640.844 97.30191 307.29047 0.9438591 -0.23168528 -0.23548228 0.11613075
2609.3833 -63.469822 308.4812 0.96314818 -0.1082334 -0.24623378 0.14630075
2633.1099 97.03447 262.18634 0.92099345 -0.38938805 0.012163936 0.081165269
2638.8845 53.000572 306.35086 0.80620956 0.00052247342 -0.5916298 0.10462879
2616.8823 4.9982028 337.82361 0.51426673 -0.28887746 0.80751443 0.14922769
2630.156 84.49868 261.35886 0.94486737 -0.32574686 0.033386592 0.089567237
2625.0176 33.296139 341.65836 0.24955387 -0.28905281 0.92421389 0.13351727
2612.7126 -19.700293 334.11069 -0.046430696 -0.54080701 0.83986425 0.15630588
2633.6685 29.370049 262.01562 0.87468898 0.48425373 0.020431342 0.065945096
2628.7742 21.413454 304.08289 0.89957106 -0.37814334 -0.21858519 0.090592347
2626.7468 71.231972 261.61978 0.97197932 -0.22183077 0.077764384 0.083463714
2634.8042 37.044941 304.36819 0.8954972 -0.22481282 -0.38411456 0.10948073
2638.0444 67.263008 303.54019 0.75271064 -0.13716125 -0.64390486 0.075796753
2621.4685 19.811682 345.76883 0.7420513 -0.51134038 0.43346378 0.15341052
2606.3621 -9.2555971 344.142 0.81552631 -0.46002796 0.35112837 0.21106838
2635.8176 47.587231 349.10315 0.66163015 -0.48119453 0.57506293 0.11494845
2614.9158 -9.2375278 304.49057 0.91088992 -0.38926944 0.13692623 0.093289889
2643.5613 115.35588 264.06473 0.8363871 -0.54805279 0.0097362623 0.07122124
2672.7913 144.04842 267.75592 0.53694886 -0.84290636 -0.034566686 0.050267372
2654.7654 129.27095 265.14288 0.7096557 -0.70422733 0.021275509 0.056475546
2708.1982 167.68127 271.96069 0.52545631 -0.84442109 -0.10415711 0.051421009
2611.9817 -5.0081329 331.3833 0.87491733 -0.43998101 0.20232734 0.12679587
2605.9451 -21.656534 330.15576 0.94684267 -0.26382914 0.1840737 0.13698244
2623.3687 14.102421 332.51672 0.79740578 -0.52297294 0.30107036 0.10930574
2629.4546 37.697227 254.61093 0.91422278 0.39979067 0.066061161 0.072601952
2626.0225 48.137264 254.29359 0.98150772 0.18534608 0.047848072 0.094644599
2660.3816 3.6154013 259.39954 -0.35368174 -0.90106988 -0.25096273 0.13369961
2628.0676 72.521263 254.78577 0.94950634 -0.27706161 0.14722289 0.099536583
2636.7524 23.884214 254.6826 0.82478392 0.55691367 0.097870618 0.056974757
2645.3357 13.295163 255.7598 0.70682532 0.70229131 0.084763907 0.083590209
2625.1428 59.50835 254.44591 0.99669433 -0.060178865 0.054579839 0.098342389
2631.2031 85.649063 255.36453 0.94880414 -0.30495808 0.08228793 0.075591013
2650.5901 125.2722 258.07971 0.77617943 -0.63036799 0.013481189 0.060692266
2713.2366 172.07744 264.62769 0.5339005 -0.83012396 -0.16076206 0.044539392
2673.8408 144.23235 261.00409 0.56541371 -0.82467979 -0.014511435 0.057615042
2635.3425 98.675095 256.07413 0.93885237 -0.34414512 0.010973453 0.080309205
2641.177 111.6737 255.96013 0.88044274 -0.47411844 -0.0056832409 0.075259596
2693.9897 159.01341 263.0011 0.60276043 -0.79528016 -0.064878985 0.056409776
2607.313 -79.407867 311.78159 0.92047977 -0.070664629 -0.38434809 0.099355526
2602.0601 -111.60046 315.85492 0.70570534 -0.29997393 -0.64186883 0.12004069
2615.113 -8.7712936 316.09073 0.92561674 -0.35042045 0.14296563 0.097524859
2605.7029 -94.987099 315.03036 0.99389571 -0.043149315 -0.10153551 0.081135809
2643.0278 41.55991 320.89651 0.88893092 -0.45766738 0.018502422 0.10667936
2609.2007 -27.486795 315.55484 0.97178966 -0.17816342 0.15454018 0.10873341
2637.906 25.017519 232.63672 0.82356352 0.5602318 0.088788748 0.086532794
2637.9583 12.652816 278.46799 0.80104917 0.44755751 0.39750788 0.14016841
2607.9504 -44.993988 314.92398 0.99737006 -0.0057142968 0.072251938 0.11688744
2630.8291 40.84618 232.70239 0.93649834 0.34045777 0.084019855 0.12566024
2608.0447 -62.033642 314.97281 0.9991436 -0.032179296 -0.026010355 0.13185798
2626.3235 55.25766 230.97755 0.99265856 0.12093093 -0.0021581736 0.19522932
2642.312 119.0358 233.03723 0.83985841 -0.52747238 -0.12810445 0.087557249
2625.5105 66.279243 230.73994 0.94387555 -0.32980126 -0.018167797 0.15510221
2642.1199 112.85119 278.80127 0.87621969 -0.4748598 -0.082141854 0.062538333
2674.7417 144.78828 283.32132 0.57996559 -0.80782038 -0.10519597 0.033630323
2627.7427 76.528809 275.99194 0.95642745 -0.27034298 -0.11027779 0.066556342
2655.0029 129.00674 280.57239 0.70467734 -0.70239621 -0.10034619 0.048593979
2635.9578 97.819145 279.24887 0.92224342 -0.36991444 -0.11238494 0.068449169
2704.2646 164.98183 286.99734 0.4909963 -0.87116146 -0.00057491485 0.045406643
2636.0623 103.53923 233.58038 0.95776355 -0.27638003 -0.0793918 0.083963513
2606.0137 -94.169373 315.50217 0.97767216 -0.10168469 -0.18389504 0.093884535
2610.2126 -79.04007 313.78116 -0.69081068 0.13023496 0.71120983 0.13636388
2608.3137 -32.690716 313.7424 0.97267365 -0.17840496 0.14858554 0.11677916
2608.2075 -63.789524 314.09094 0.99664634 -0.075117797 -0.032455582 0.13999838
2607.8242 -47.93486 312.85312 0.96418118 -0.015040615 0.26481766 0.14053856
2630.1309 75.232216 235.7562 0.95235693 -0.23969513 -0.18858041 0.14375658
2643.446 114.75269 276.99399 0.87447268 -0.48493192 -0.011771479 0.058033351
2632.3938 89.175514 234.06441 0.95559931 -0.27662849 -0.10152158 0.11441368
2636.6587 103.8091 233.92253 0.9544149 -0.27657756 -0.11223632 0.09999188
2619.0618 -0.27424121 314.73874 0.85974348 -0.50497192 0.076449551 0.088919818
2628.2678 15.881268 316.67535 0.85266954 -0.51916522 0.05849912 0.10864501
2629.4939 57.151627 235.53284 0.99169171 0.062292162 -0.11254889 0.13101305
2642.3823 117.3138 234.64383 0.8505457 -0.52133834 -0.069125779 0.10175109
2660.3062 137.797 237.16515 0.64871621 -0.74520034 -0.15441431 0.059761021
2637.7227 31.862543 318.05573 0.87898016 -0.47676808 -0.0092787314 0.11257694
2657.5012 131.44257 278.95914 0.66755831 -0.74256527 -0.05443088 0.048787445
2707.8933 167.20259 284.99615 0.46570581 -0.88478142 0.016729774 0.044529706
2612.4321 -15.235656 314.30881 0.9236744 -0.35677797 0.13976789 0.098660052
2684.2339 151.52171 281.82303 0.57272518 -0.81773603 0.057390559 0.048023857
2609.0884 -31.109943 307.12936 0.98805481 -0.099801905 0.11741935 0.12204247
2621.5259 4.2608123 308.99011 0.8760336 -0.48190293 0.018294273 0.089624263
2630.8872 21.50631 309.89636 0.86928892 -0.48376301 -0.10153895 0.11869054
2623.7893 -2.6303756 356.79034 0.86878461 -0.39509812 -0.29851437 0.14207746
2611.666 -15.606288 309.27795 0.91139501 -0.3098594 0.27082524 0.10218845
2639.8926 73.99115 305.50024 0.72539437 -0.12419251 -0.67703712 0.072955899
2644.7375 57.930214 316.1087 0.91928184 0.0088333357 -0.39350072 0.11757749
2637.821 39.018391 309.99368 0.89503187 -0.31142494 -0.31926858 0.11335724
2609.5054 -84.171265 313.47626 -0.57238537 0.19015566 0.79763138 0.13018636
2647.3499 57.195293 317.90338 0.9268713 -0.018757463 -0.37491038 0.11627787
2613.4692 -14.575812 309.23267 0.92109179 -0.36099306 0.14585572 0.1049102
2608.3032 -66.537048 311.39847 0.99686575 -0.059959751 -0.051609371 0.14577265
2610.1907 -30.736732 309.50378 0.98070908 -0.18194072 0.071465127 0.11182012
2621.5396 3.8859947 310.89072 0.85323751 -0.51760018 0.063841432 0.089009374
2640.9133 40.549789 314.09073 0.90719652 -0.34404144 -0.2421363 0.12804426
2631.5215 21.823423 312.13571 0.87086129 -0.48498625 -0.079931073 0.1215017
2609.0337 -48.868519 310.46634 0.99527484 -0.02634941 -0.093454339 0.1443432
2623.3853 17.471146 338.67178 0.72889376 -0.49829909 0.46948048 0.13070084
2643.1914 49.300011 343.95712 0.74690849 -0.57940477 0.32621753 0.078664027
2661.6819 67.302727 346.99567 0.32746014 -0.81498569 0.47808808 0.12660386
2612.2051 -1.1959172 339.30954 0.86107856 -0.38576743 0.331251 0.14692055
2630.7913 32.776371 341.16879 0.72829992 -0.46775135 0.50078726 0.10932784
2603.8901 -17.994492 336.86096 0.81405604 -0.39724031 0.4236896 0.14570107
2644.113 38.707546 302.89163 0.67209083 0.42774144 -0.60442638 0.1402196
2610.9487 -29.846352 290.59335 0.97887725 -0.16740763 0.11736292 0.10766579
2634.2271 92.568863 246.7282 0.94219428 -0.30232877 0.14445487 0.089554824
2639.5317 108.11978 247.04794 0.91052079 -0.41308481 -0.017686343 0.10202997
2653.7844 59.477871 336.11597 0.79864073 -0.53251362 0.28036088 0.10067478
2634.0369 29.407057 292.52618 0.98057526 0.14670599 -0.13019033 0.16553271
2607.8652 -43.069122 290.00427 0.9968124 -0.079629555 0.004911718 0.12561785
2648.3054 122.49842 247.97688 0.81217182 -0.58279216 0.02702208 0.076608911
2629.8289 14.497826 292.7088 0.93821675 -0.097568519 0.3320086 0.13384722
2625.1619 13.633774 332.27936 0.78628546 -0.53281403 0.31283286 0.11467616
2639.5237 39.303616 335.82108 0.80387133 -0.5124411 0.30198511 0.098534122
2604.7427 -57.278645 293.17679 0.93893141 -0.10824312 -0.32663625 0.16759044
2630.5813 24.969025 334.39676 0.77914625 -0.53215331 0.3312763 0.093979917
2662.3923 134.26738 249.6151 0.64947009 -0.74182606 0.16698131 0.0670816
2622.6282 -1.3155651 291.81461 0.86173368 -0.43136057 0.26710138 0.12136769
2626.2222 62.178215 245.89938 0.99343991 -0.09958104 0.056220207 0.1168052
2615.6799 -14.913788 290.41205 0.93662393 -0.31936777 0.14401329 0.11640175
2630.2402 77.219223 245.86038 0.94615269 -0.27304387 0.17390251 0.10879876
2740.4128 183.85251 303.27829 0.33011302 -0.91735125 0.22246821 0.073366478
2682.6306 152.06264 250.90576 0.55619431 -0.82688403 -0.083130673 0.081658848
2708.3074 168.44273 298.82062 0.43010738 -0.89587975 0.111387 0.04744627
2702.0579 167.51448 252.72795 0.57374126 -0.80563885 -0.14753644 0.074216738
2628.5417 70.86396 280.72211 0.96955448 -0.18788905 -0.15704069 0.069691099
2638.5071 103.13341 281.37762 0.9302538 -0.36130074 -0.063950367 0.067375898
2633.6438 87.858803 281.72531 0.9370923 -0.32520118 -0.12689453 0.071365066
2636.8137 25.635914 324.66833 0.85396022 -0.46501952 0.2334712 0.079600297
2628.8032 60.664001 238.36862 0.9972378 -0.064938754 -0.03605134 0.14596321
2645.3003 117.45921 281.04968 0.83457702 -0.54769373 -0.059269104 0.059658322
2645.2896 1.3438442 285.30814 -0.14222087 -0.92015201 -0.36481988 0.14738224
2644.3569 5.5911932 279.13052 0.85887372 0.2706818 0.43481866 0.19778721
2659.9209 133.09082 283.01453 0.65244168 -0.74832749 -0.11969063 0.04659437
2745.5227 184.90707 291.91364 0.43030432 -0.89987916 -0.071103312 0.072275646
2679.4473 148.03688 285.02585 0.59337127 -0.8048591 0.010598232 0.040598746
2706.4773 166.11484 288.00909 0.47451884 -0.88019902 0.0090294536 0.043240119
2632.8152 35.471813 251.94302 0.91428 0.37373522 0.15625006 0.084384426
2639.2312 21.961817 252.70776 0.80244225 0.59068912 0.08469262 0.06716828
2639.3789 30.105377 300.17859 0.96498162 0.17213723 -0.19793747 0.17950656
2632.6824 60.002804 294.70334 0.90031916 0.0009409216 -0.43522924 0.093318224
2631.2263 80.86721 253.32668 0.96018803 -0.22065371 0.17132111 0.085920148
2637.6958 74.646828 300.25894 0.87772596 -0.13190305 -0.46065038 0.084585771
2642.7986 17.04068 293.0625 0.92697346 -0.0030905842 0.37511426 0.14385477
2633.168 46.014927 295.9306 0.92122626 0.08181648 -0.38032654 0.093490407
2627.3899 66.13089 252.92021 0.96985817 -0.20805629 0.12683749 0.10480393
2652.4331 7.3195739 254.63287 -0.68829829 -0.71871763 -0.098440088 0.09960635
2627.2563 51.749287 252.52725 0.98993778 0.066297315 0.12501132 0.10068893
2636.519 89.13916 297.11823 0.93487179 -0.27053878 -0.22983372 0.074437968
2640.7354 109.12955 254.9942 0.89791173 -0.43973449 0.019701852 0.082948148
2694.4861 159.44456 261.58929 0.61686659 -0.78023922 -0.10345197 0.057079017
2686.7551 155.51305 303.85535 0.62141412 -0.77165568 0.13561727 0.060359444
2640.8557 102.47903 297.7446 0.95443755 -0.26794636 -0.1313532 0.079292148
2668.9421 138.98373 302.32404 0.560709 -0.8268016 -0.044772103 0.043425746
2713.8801 172.74127 263.33722 0.5339005 -0.83012396 -0.16076206 0.044539392
2649.6711 124.24829 255.99637 0.79806644 -0.60250479 0.0088264085 0.065917552
2635.4194 95.515762 253.8707 0.94780421 -0.30928239 0.077534437 0.08529938
2680.4736 148.16946 260.20819 0.56018877 -0.82809615 -0.021102842 0.072285794
2695.9668 164.05075 305.98651 0.53410387 -0.81709307 0.21700674 0.0692292
2636.502 99.047722 280.32852 0.91546869 -0.38395655 -0.12039299 0.072100088
2614.5413 -62.715733 308.31274 0.50670964 -0.01931148 0.86190045 0.16041696
2626.7417 51.118465 277.90073 0.97897631 0.15634239 -0.13100559 0.064608112
2633.1228 21.257721 322.10522 0.79638362 -0.58517832 0.15277265 0.089630142
2632.1514 34.299759 278.12524 0.93329352 0.35350579 -0.063220546 0.091234669
2627.2529 67.261253 278.2215 0.9813183 -0.1467461 -0.12441856 0.066851661
2632.0881 83.643227 279.70605 0.93964678 -0.31435615 -0.13507101 0.06828405
2680.4277 148.78137 284.94431 0.58981949 -0.80549246 0.057401411 0.046417993
2660.0859 133.21655 283.28445 0.65051019 -0.75331962 -0.096674822 0.046745345
2644.6746 116.00702 281.24283 0.85448664 -0.51571226 -0.062397305 0.060479462
2709.5232 167.82703 288.9028 0.46281111 -0.88593334 0.03046222 0.040841118
2638.501 31.529505 230.40762 -0.37930876 -0.15941021 0.91143471 0.13925102
2634.3625 44.059387 231.06822 -0.36516276 -0.19481269 0.9103319 0.086249582
2605.49 -80.903831 298.27866 0.99317461 -0.038051113 -0.11025559 0.10340183
2625.8599 59.7239 253.46547 0.99576217 -0.046917971 0.07909739 0.10414471
2606.3337 -63.75322 298.94193 0.97891402 -0.051770926 -0.19760333 0.14171611
2634.429 28.387671 254.21648 0.86571026 0.49456367 0.077152833 0.060279436
2633.8196 92.567146 254.33669 0.93311363 -0.35004818 0.082250863 0.078232564
2627.3589 45.041359 253.40588 0.96225375 0.26692846 0.053074237 0.08868815
2639.9038 91.666199 303.41907 0.93994868 -0.28488734 -0.1879779 0.097893298
2731.5757 185.04697 263.58334 0.48422068 -0.80167967 -0.3504855 0.019851411
2608.1516 -47.19088 298.28018 0.99614203 0.049410261 -0.072523303 0.14443699
2628.3716 75.488075 253.49232 0.95887262 -0.26988825 0.087884076 0.095445864
2651.1592 126.44983 255.95091 0.778063 -0.62806988 -0.012091035 0.066302679
2611.6711 -29.627312 297.52267 0.96781552 -0.15487492 0.19836044 0.11911786
2615.2769 -13.039799 297.73166 0.93904376 -0.33110967 0.092537314 0.10293554
2666.6821 139.75351 257.42136 0.61639529 -0.78610903 0.045709845 0.051035471
2640.4683 110.24393 253.88235 0.89174914 -0.45151788 -0.030249253 0.082272664
2626.2087 4.1778464 297.75519 0.83396846 -0.47907484 0.27383181 0.12027187
2638.019 38.583797 303.3461 0.90387958 -0.23935403 -0.35455793 0.14688845
2631.0549 19.300634 298.90097 0.94822001 -0.30167207 0.099361569 0.1415768
2695.6038 161.12581 259.35123 0.5911386 -0.799519 -0.10641687 0.053803001
2627.5281 -6.5215907 287.28491 0.74051839 -0.25276837 0.62268823 0.096796699
2627.6084 52.324467 284.23184 0.95250642 0.1184911 -0.2805199 0.059196506
2645.4775 47.318119 330.96735 0.852862 -0.51940542 0.053332672 0.10437751
2627.9385 66.628746 284.06677 0.94625616 -0.11954942 -0.30051157 0.063506283
2629.4624 55.979321 241.41321 0.99890524 0.0016475763 0.046750724 0.13227747
2614.5605 -8.2084856 327.28076 0.87265754 -0.44474551 0.20166862 0.10328422
2639.2971 9.3007212 281.71359 0.76819623 -0.12971906 0.62693506 0.18742953
2630.9243 21.77512 327.59756 0.79790121 -0.5384773 0.27091658 0.091062024
2638.6348 35.68832 329.80231 0.85399312 -0.49484786 0.16069026 0.095609918
2621.1628 4.6994643 327.83807 0.8546266 -0.47693896 0.2052867 0.11507602
2608.6392 -23.263861 324.99246 0.88400525 -0.31877556 0.34193105 0.10848159
2642.811 111.59312 285.88055 0.88620836 -0.44452387 -0.13051163 0.05779013
2631.978 82.352646 286.26434 0.9182663 -0.31683338 -0.23749444 0.063586257
2635.9011 95.921394 285.20132 0.90758282 -0.33743662 -0.24985997 0.064108782
2653.1118 125.23634 286.51495 0.75589031 -0.63125986 -0.17361102 0.062036928
2731.5586 177.959 295.91 0.41651836 -0.90515029 0.084943287 0.029928353
2701.46 164.04668 292.4111 0.52763695 -0.84061557 0.12233027 0.044473503
2675.1365 144.20975 290.13348 0.57868433 -0.81063169 -0.089446694 0.03437971
2605.26 -42.113762 318.69229 0.97956258 -0.013490786 0.20068663 0.1043606
2607.0891 -56.614861 316.25018 0.95472205 -0.041264564 0.29462352 0.1420515
2607.3269 -27.599669 318.66342 0.96572036 -0.17406639 0.19257487 0.10739297
2712.1355 169.72449 288.01242 0.44105065 -0.89657116 0.040428713 0.036845326
2636.9988 102.51824 277.92908 0.89886862 -0.43354377 -0.06383571 0.062285099
2631.6921 86.470016 277.85098 0.95093912 -0.29782847 -0.083743945 0.066362716
2661.4282 134.47928 281.94281 0.63282287 -0.76966804 -0.084535591 0.045649771
2626.9658 70.528519 276.75626 0.96542919 -0.23155279 -0.11970709 0.064010292
2611.7593 -12.680839 319.34854 0.9170785 -0.35490474 0.18168546 0.089923844
2683.4236 151.44403 284.02707 0.60556293 -0.79485506 0.038716737 0.040879432
2628.5508 65.407112 237.40868 0.96616375 -0.13010505 -0.22271125 0.156626
2645.031 117.29568 279.93466 0.82459033 -0.56331176 -0.052256305 0.060610019
2634.186 33.529549 234.41731 0.93517268 0.34170252 0.093227915 0.11363976
2619.7754 3.3871582 319.69196 0.84275717 -0.52549243 0.11669641 0.092302851
2639.6287 36.391018 322.5994 0.87451488 -0.47833088 0.080145217 0.098634683
2630.2515 20.977919 321.52487 0.84416151 -0.52939337 0.084462635 0.095594585
2627.1646 50.34737 234.79439 0.92783773 0.3533017 0.11956213 0.14540127
2649.209 53.00491 324.94659 0.84712368 -0.53131187 0.0094417334 0.10983748
2642.6938 17.436089 235.03789 0.84577858 0.53153175 0.046180017 0.078928843
2629.9932 75.460052 255.56598 0.95375174 -0.21865094 0.20627508 0.089608878
2660.532 1.0635197 257.53088 -0.60015094 -0.79740083 -0.063013963 0.10683567
2639.3208 21.234102 256.0343 0.80479175 0.58728242 0.08607918 0.073285505
2632.2505 33.191345 254.89279 0.90632081 0.41892433 0.055542614 0.072822325
2628.5376 47.521698 254.60759 0.96985865 0.18838114 0.15455349 0.090152457
2631.6028 86.791557 255.31554 0.94483829 -0.31691235 0.082747608 0.075928368
2626.4009 60.974125 255.04424 0.99192721 -0.064031951 0.1094549 0.097876363
2716.6345 173.8821 265.7558 0.48492962 -0.85440564 -0.18663934 0.039158128
2636.7588 100.85214 256.15158 0.9220826 -0.38366231 0.050664268 0.075698368
2677.7883 146.79324 262.02567 0.55982268 -0.82852763 -0.011854582 0.060609832
2695.9575 160.39102 264.14322 0.59767002 -0.7975266 -0.082108617 0.054441318
2641.8323 112.32224 257.03082 0.87467068 -0.48468551 0.0055783261 0.075068176
2656.3633 129.63646 259.03149 0.70550108 -0.7060644 0.061166383 0.058167312
2609.3398 -81.258926 318.24768 0.94676316 -0.10476921 -0.30440581 0.11113238
2606.2571 -51.992702 317.60349 0.95927894 -0.0014759037 0.28245655 0.1462566
2604.8745 -65.834885 317.86569 0.93885452 -0.049596984 0.34072331 0.13753498
2606.3459 -95.635155 321.759 0.99400187 -0.047380447 -0.098566897 0.10446159
2641.7825 39.177101 321.78253 0.88766062 -0.45821789 0.045771349 0.10463914
2740.2878 183.05389 288.44699 0.48510933 -0.86523455 -0.12664157 0.053991172
2645.8643 14.400646 233.74837 0.79689491 0.59677702 0.093891837 0.076806635
2628.6304 73.532478 277.67706 0.96710688 -0.2326735 -0.10279725 0.075813204
2645.2058 117.54691 278.03104 0.82320672 -0.56682992 -0.032164343 0.057124909
2686.5071 153.01765 282.66006 0.5704484 -0.81945497 0.055516813 0.048706427
2709.0342 167.75111 284.87054 0.46397409 -0.88532174 0.030552963 0.044598702
2648.7927 53.674637 323.10486 0.88606781 -0.46264932 -0.02897227 0.12667459
2626.937 59.836014 231.23529 0.99914646 -0.023619195 0.033888794 0.17206495
2615.9832 -4.4060893 319.35107 0.88248754 -0.45627373 0.11414915 0.092831112
2631.7595 23.974249 320.75574 0.85222685 -0.51921386 0.064237364 0.098816156
2607.707 -36.84676 318.69955 0.98935479 -0.066121191 0.12963466 0.10958254
2629.2397 76.631638 233.6748 0.94506574 -0.22810197 -0.23413733 0.12451868
2664.6597 136.44621 280.07611 0.60060263 -0.79943055 -0.013685876 0.057599299
2622.5857 7.886426 319.82132 0.84251678 -0.52804983 0.10643719 0.10483138
2609.6189 -21.310127 318.56384 0.94597298 -0.27406716 0.17326945 0.10398444
2635.5696 30.550367 232.92484 0.95278203 0.29949972 0.050062757 0.11310693
2632.8486 88.383759 277.37549 0.94520909 -0.3150714 -0.085497223 0.074493594
2637.0339 102.45479 277.0491 0.90381646 -0.42544845 -0.045928136 0.06623356
2629.0723 47.064083 232.55836 0.92146736 0.37497777 0.10143775 0.13369694
2633.8975 29.385778 256.89795 0.87075102 0.48507443 0.080594204 0.065000623
2626.7664 56.05711 256.14612 0.99607873 0.032208283 0.082400478 0.097142018
2705.3965 167.42644 262.91113 0.56401616 -0.81602603 -0.12644072 0.056698039
2630.49 82.493172 256.1503 0.94243979 -0.32057813 0.095062502 0.078394368
2726.8831 181.30692 264.40964 0.44181979 -0.84708422 -0.29537019 0.020182824
2642.7678 16.672253 258.05222 0.75144762 0.65781254 0.0510795 0.076715142
2635.7859 97.080086 255.98444 0.93448019 -0.34947515 0.067925438 0.075960495
2628.1748 69.950142 256.03091 0.9480955 -0.27024871 0.16757245 0.093912207
2641.2202 109.88061 257.13464 0.89162481 -0.44953448 0.054073866 0.07931371
2628.1313 43.98415 256.2677 0.95083392 0.29884377 0.081285201 0.083598301
2654.5339 4.8542504 259.4209 -0.6278953 -0.75899124 -0.1722783 0.096581846
2680.949 150.02881 260.83121 0.54784977 -0.83522987 -0.047452111 0.05535448
2668.1895 140.08978 259.94296 0.59624785 -0.80170333 0.041954912 0.060056902
2648.7576 122.70157 258.01761 0.80427504 -0.59420258 0.0080563975 0.060389388
2638.4009 24.215975 229.70399 0.93834001 0.34377614 0.036550611 0.093171507
2642.0977 9.0288086 274.54666 0.77192426 0.50555778 0.38541442 0.14604889
2639.0334 112.02151 235.11087 0.89078856 -0.35942939 -0.27804005 0.10578316
2628.8533 80.605011 228.66277 0.96290249 -0.20522523 -0.17521806 0.11610639
2625.9065 66.580688 228.46408 0.97367227 -0.14046754 -0.17953029 0.16492501
2631.2024 40.402515 228.99216 0.94825882 0.3174381 -0.0061866906 0.14265874
2631.3069 93.602905 229.72112 0.93746251 -0.28485453 -0.20005478 0.095385276
2638.4395 104.86455 275.20914 0.91605568 -0.39998654 -0.029201711 0.070104182
2627.3896 54.568497 228.79944 0.99380255 0.10482787 -0.036981136 0.17953619
2644.3364 116.42911 275.00577 0.83971399 -0.54297978 -0.0073037813 0.057929378
2725.9561 176.07687 285.00937 0.49354973 -0.86333531 -0.10517021 0.026578693
2644.9277 121.34032 231.85051 0.80805665 -0.57453704 -0.13019866 0.10302375
2695.9321 160.1011 280.99942 0.55753094 -0.83014202 0.0048499252 0.039143167
2680.0127 147.92412 278.99515 0.56208497 -0.82707834 0.0013727222 0.043311182
2651.1858 125.45065 274.97647 0.76270026 -0.64673793 -0.0042851847 0.060337268
2632.8396 88.318047 258.60342 0.94939411 -0.30076882 0.090492792 0.080166981
2679.2651 148.58615 264.98712 0.53923517 -0.84174812 -0.026183235 0.053795457
2640.2388 24.258265 227.76353 0.39438963 0.24529366 0.88560027 0.16570181
2604.2935 -15.204353 342.85684 0.91233766 -0.33361855 0.23735753 0.17980275
2611.8083 -22.54818 300.17419 0.94834054 -0.25277519 0.19171572 0.10966299
2613.2068 -3.3424025 342.27066 0.90338194 -0.41897839 -0.091423273 0.1580303
2609.5842 -35.239376 299.42987 0.98494369 -0.13832897 0.10368729 0.10990275
2658.2449 131.64661 262.06683 0.67657262 -0.73547965 0.0363198 0.053814892
2713.5701 170.9855 269.76804 0.51366544 -0.84248948 -0.16235551 0.039093301
2638.9705 38.475895 305.64337 0.91559452 -0.26867738 -0.29916403 0.14536804
2637.2861 101.4636 259.03683 0.92263079 -0.38477856 0.026418107 0.072818995
2645.1484 117.52377 260.99911 0.85181022 -0.52384967 0.00089766731 0.061183766
2629.9619 -0.98864734 287.96777 0.74389625 -0.22212648 0.63030005 0.11486436
2628.6458 57.044033 286.7688 0.9395569 0.064061366 -0.33634645 0.081764542
2630.5083 42.119297 286.8656 0.94278711 0.22131141 -0.24934663 0.10493984
2651.2312 126.37498 245.12355 0.78304642 -0.62179899 -0.014292696 0.094955452
2628.1406 11.600987 289.0592 0.90464139 -0.17723985 0.38756931 0.10847136
2636.1562 93.207573 242.61115 0.94891685 -0.26706877 0.16802117 0.09855935
2615.8049 2.2645581 329.72189 0.80366546 -0.55925685 0.203356 0.10304401
2622.1272 15.057635 332.69882 0.78974742 -0.54138565 0.28844517 0.10133196
2640.4868 109.4747 244.77428 0.92258507 -0.37655798 -0.083910093 0.1122016
2609.2378 -33.743259 301.91669 0.988473 -0.14400499 0.046730179 0.11147451
2608.4126 -51.861721 303.5173 0.99325639 -0.029939698 -0.11200609 0.14020836
2613.9316 -16.550789 302.94659 0.92084104 -0.38721135 0.046034001 0.10969225
2605.863 -87.336197 303.22641 0.99080771 -0.12803522 -0.043669917 0.090908699
2607.4436 -69.797256 303.23764 0.99261773 -0.078719161 -0.092267722 0.13575594
2635.104 35.821087 303.55316 0.91667074 -0.14854926 -0.37100929 0.1208333
2618.0032 -2.6235645 302.51508 0.88196707 -0.46248209 0.090798579 0.090802789
2629.9324 18.507154 304.0434 0.9026534 -0.42880186 -0.036685552 0.12955877
2639.9111 53.909489 307.33432 0.79758185 0.023371076 -0.60275781 0.091654956
2665.9248 0.2176066 255.31673 -0.47509697 -0.8659184 -0.15642321 0.13800631
2645.375 14.697633 253.74431 0.74979717 0.65762496 0.073031835 0.083055228
2635.7517 28.37014 253.4312 0.88986963 0.44590449 0.096443072 0.075234242
2648.0828 122.8552 255.93982 0.79217023 -0.61018848 -0.011675956 0.064623199
2706.2419 168.20004 261.71759 0.56320488 -0.81633073 -0.12807958 0.06268236
2629.0688 43.728527 252.86554 0.95093864 0.27723876 0.13731118 0.090649508
2636.9797 99.535515 254.78392 0.93300706 -0.35634691 0.050146386 0.078117929
2687.8906 155.15295 260.01044 0.58040833 -0.81243861 -0.055404611 0.06592454
2642.4207 112.30294 254.99704 0.88615817 -0.46336085 0.0045246952 0.082992733
2627.7085 58.452358 252.12906 0.98805124 -0.071041048 0.13677685 0.11270518
2628.8706 71.342773 252.80646 0.94428325 -0.28660077 0.16183075 0.096674167
2664.3767 136.9278 258.20645 0.61103225 -0.78982413 0.053079285 0.061530374
2736.1907 187.2115 266.53589 0.52136558 -0.78039807 -0.345191 0.026473919
2631.4238 84.556259 253.19812 0.94639981 -0.29493523 0.13168393 0.080418833
2652.3831 127.31426 264.14056 0.74661773 -0.66505009 0.016442377 0.064306773
2651.9009 61.861664 348.73929 0.75105274 -0.59868079 0.27839023 0.13433908
2638.5322 78.937637 302.59534 0.86501008 -0.2027639 -0.45896012 0.094018258
2675.1226 145.29706 266.83478 0.55291426 -0.83272433 -0.029256877 0.050630182
2633.2764 94.734634 262.42175 0.93475157 -0.3535777 0.034961648 0.083683133
2629.448 80.524467 262.55081 0.94662738 -0.31463552 0.070007578 0.088296466
2636.7568 42.572731 348.10623 0.7784248 -0.54576504 0.31015378 0.092802256
2624.2971 51.523792 261.25385 0.99331915 0.11383101 0.018962558 0.084334157
2708.53 168.13965 270.89914 0.52196819 -0.84716398 -0.099309787 0.048929002
2640.8984 111.29501 262.94427 0.88401812 -0.4674198 -0.0055359844 0.068692833
2636.0083 63.63316 301.45682 0.8148995 -0.059689589 -0.57652056 0.088948272
2608.7795 -33.807602 302.70746 0.98769146 -0.11765695 0.10306538 0.10512444
2638.6489 95.003738 304.29581 0.96724904 -0.20727615 -0.14651258 0.098973632
2627.9209 39.410389 262.53513 0.90984261 0.41293874 0.040841725 0.074967615
2607.915 -49.038452 302.93216 0.99917221 -0.020062566 -0.035389554 0.12127793
2625.5195 65.059906 262.02179 0.99140155 -0.08859919 0.096297465 0.08722014
2649.4685 124.23158 251.9686 0.81415737 -0.58061683 0.0056425505 0.075670019
2607.635 -12.088668 334.79178 0.88057894 -0.40991735 0.23779924 0.15196316
2602.4094 -27.576355 334.34412 0.90508467 -0.32357305 0.2759026 0.13818003
2633.2075 78.073479 294.07156 0.92560095 -0.26736405 -0.26791668 0.076483056
2617.4241 5.129272 335.63092 0.79803193 -0.48797545 0.35358876 0.11474848
2630.7371 61.761318 292.22833 0.93559527 -0.047141075 -0.34991318 0.07826446
2630.8076 45.627953 292.12952 0.94684881 0.10237865 -0.30495241 0.096244566
2631.5784 27.595312 293.57315 0.99184775 -0.087672703 -0.092474274 0.13726963
2651.2888 57.783577 339.10318 0.76947993 -0.57651871 0.27482137 0.097621061
2623.6838 19.456911 337.69623 0.72479385 -0.54826808 0.41722408 0.10790288
2649.5962 123.53468 294.98389 0.7520352 -0.65310091 -0.088894434 0.064956911
2635.9753 38.478519 338.67648 0.79551554 -0.50458306 0.3354862 0.10768292
2637.7908 94.925629 294.35339 0.91214919 -0.35116464 -0.21134616 0.072239272
2641.8201 110.56788 294.67041 0.92142224 -0.38504338 -0.05217915 0.071486406
2704.0632 168.79002 254.84167 0.54095989 -0.8267886 -0.15421759 0.069183975
2702.0442 165.57422 258.86145 0.66557723 -0.72476226 -0.17811979 0.082749359
2696.3308 162.76701 302.94519 0.5308395 -0.83397806 0.15063216 0.059714273
2628.9038 38.733234 279.76984 0.96672004 0.24409468 -0.07661695 0.086749315
2626.5562 52.472412 279.34344 0.97509527 0.12953378 -0.18002839 0.064976148
2635.282 95.251373 281.10696 0.93463379 -0.3272264 -0.13922136 0.068999089
2626.6313 65.422119 279.29199 0.96976137 -0.15432003 -0.18907197 0.065292373
2634.3123 23.77696 281.94473 0.94844681 0.30763376 0.07622432 0.13018234
2628.718 78.287117 279.17798 0.9489854 -0.28427884 -0.1364266 0.065836154
2715.8945 171.25771 289.99478 0.37887079 -0.92526031 0.018717565 0.031663213
2752.9329 188.14165 294.00189 0.42786199 -0.90376413 -0.012021217 0.10288256
2639.4348 107.42973 280.63043 0.90514636 -0.41379431 -0.097387366 0.058119494
2664.0505 136.33463 283.73358 0.60785931 -0.79010743 -0.078976661 0.047139827
2648.0413 121.11257 281.43283 0.80839437 -0.57760358 -0.11345794 0.061833967
2687.9028 155.15187 285.99188 0.53847557 -0.84143662 0.045038655 0.040603586
2653.4758 3.1596966 275.50674 -0.65875489 -0.74126226 -0.12873329 0.16846241
2630.5552 33.982449 274.08838 0.93289942 0.35868827 0.032270562 0.091054194
2729.6753 177.46263 287.33542 0.4703635 -0.87439966 -0.11909416 0.028743885
2627.6753 73.370705 275.09723 0.96061122 -0.26880458 -0.070499808 0.072552197
2644.354 116.03001 277.02209 0.84765536 -0.53042531 -0.011373345 0.056261063
2639.635 18.505907 274.73947 0.84178412 0.5317899 0.092730947 0.11121704
2672.1685 142.73993 280.99136 0.54343176 -0.83899176 -0.027834065 0.045444794
2626.1467 60.044563 274.06802 0.99548829 -0.051991083 -0.079372257 0.068597049
2636.9097 101.91436 276.09534 0.91538268 -0.40041408 -0.041750889 0.066197395
2631.9443 87.350014 275.0567 0.94795179 -0.31431782 -0.050908294 0.071485303
2652.9685 127.32037 277.93594 0.76050138 -0.64886463 -0.024744676 0.061033525
2702.9358 163.91875 283.70816 0.5280894 -0.84769815 0.050293609 0.043776177
2628.175 45.800758 274.07547 0.96822929 0.23384908 -0.08858119 0.072262943
2631.479 71.296822 291.79767 0.92835754 -0.18764594 -0.32084462 0.08151789
2632.1987 26.817875 291.87698 0.99764782 -0.056802135 -0.038371347 0.15568393
2640.4656 109.19718 250.09833 0.89974695 -0.43597567 -0.019510873 0.093798481
2645.5486 114.42363 294.39313 0.86430943 -0.48956257 -0.11531552 0.06978403
2663.2551 135.41937 298.19626 0.58371276 -0.80930221 -0.065645963 0.040630572
2639.7405 38.816322 335.20477 0.79779881 -0.48640832 0.35626391 0.089110196
2628.906 57.23233 289.9451 0.95797062 0.032228295 -0.28505015 0.070369728
2639.6802 100.79108 293.31415 0.93550301 -0.3073087 -0.17434295 0.071336508
2660.0601 64.923134 340.02719 0.59258711 -0.75937897 0.26867095 0.1207329
2658.8591 128.04208 250.33583 0.61496222 -0.7488234 0.24715362 0.079688869
2635.3574 87.182335 294.15564 0.93692136 -0.26584986 -0.22694097 0.068026334
2629.7185 23.150518 333.89325 0.74877626 -0.55098438 0.36844313 0.098696947
2607.8193 -19.103996 330.30621 0.83151907 -0.44344777 0.33455953 0.11157256
2630.459 42.265247 290.60535 0.95286959 0.056683835 -0.29803774 0.11572381
2619.002 5.5879169 333.52957 0.79828674 -0.47025871 0.37629113 0.11387553
2613.3127 -5.7495179 332.134 0.83498102 -0.47723287 0.27396265 0.12008594
2646.3274 50.49366 337.78867 0.78146178 -0.57360184 0.24555735 0.085218936
2642.0183 17.170794 287.81641 0.74820727 -0.38759696 0.5384742 0.15469517
2681.8569 151.42665 300.87256 0.62380171 -0.77848214 0.069548197 0.050066546
2698.0649 164.39977 303.36746 0.54419076 -0.81768137 0.18775946 0.060245145
2707.0266 169.50652 257.74365 0.56089377 -0.8159548 -0.14005698 0.064733662
2692.8074 159.02045 256.56427 0.61816162 -0.77842182 -0.10925057 0.068892956
2609.1794 -49.770187 306.97247 0.9997713 -0.021233579 0.0025419749 0.16335568
2613.7317 -62.111023 312.27829 0.95339102 -0.20295967 -0.22327776 0.18543415
2650.8428 5.9361873 268.48523 -0.67831153 -0.71273303 -0.17862013 0.14067921
2636.4688 23.003168 266.44897 0.82711989 0.55584794 0.083100997 0.075993359
2613.2114 -8.6858368 306.78177 0.92222095 -0.36897108 0.11562378 0.098439611
