# .PCD v0.7 - Point Cloud Data file format
VERSION 0.7
FIELDS x y z normal_x normal_y normal_z curvature
SIZE 4 4 4 4 4 4 4
TYPE F F F F F F F
COUNT 1 1 1 1 1 1 1
WIDTH 623
HEIGHT 1
VIEWPOINT 0 0 0 1 0 0 0
POINTS 623
DATA ascii
2444.8066 -1375.6208 146.74962 0.93384749 -0.1614117 -0.31917891 0.1757274
2444.2209 -1395.4039 145.13612 0.84415078 -0.53360367 0.051735435 0.13758032
2431.9548 -1409.4495 142.30258 0.84327054 -0.51317072 -0.15984535 0.10777652
2423.0251 -1424.2379 140.31982 0.87414199 -0.41047147 -0.2595939 0.11074355
2424.2441 -1441.847 140.97699 0.94989938 0.28230593 -0.1341437 0.1021614
2415.7979 -1435.5977 131.28281 0.16855562 -0.096249543 0.98098165 0.25630343
2437.1614 -1462.1434 153.71507 0.78954405 0.58231825 -0.19371539 0.060451176
2463.4133 -1387.4834 216.24684 0.82354701 -0.4634071 -0.32714555 0.11766413
2441.2031 -1437.3896 207.29892 0.84686321 -0.48760569 0.21228147 0.094066367
2433.7085 -1415.2433 158.20187 0.89312184 -0.35098237 -0.28132683 0.090283655
2430.2751 -1429.7954 158.34531 0.87485558 -0.2469507 -0.41670501 0.086119272
2431.0935 -1446.1918 156.40457 0.89660764 0.18972145 -0.40012562 0.091650955
2456.6406 -1397.5465 212.34151 0.89622802 -0.38293281 -0.22391471 0.10939129
2451.3501 -1410.0702 211.01337 0.93284661 -0.34299815 -0.11022488 0.098699883
2452.4524 -1379.0677 166.36751 0.88042974 -0.41859642 -0.22275656 0.14511965
2445.5066 -1423.77 210.8362 0.9105674 -0.40355334 0.089508362 0.10011948
2469.998 -1375.8864 222.23088 0.87513775 -0.32462746 -0.35881886 0.12417653
2439.8127 -1403.6544 161.26419 0.87782735 -0.40087441 -0.26214275 0.096244656
2445.6814 -1391.6285 163.18776 0.85482097 -0.46424264 -0.23186179 0.11212414
2429.0605 -1453.3646 137.20526 0.88044149 0.47046396 0.059046101 0.056381349
2442.7156 -1396.5521 137.88683 0.85708123 -0.50567502 0.098511659 0.13638543
2430.1392 -1412.5319 135.98232 0.81337297 -0.55899954 -0.16107124 0.14383535
2446.7971 -1416.3445 187.98009 0.93842483 -0.19207507 -0.28716898 0.071809612
2450.3262 -1379.751 137.62984 0.73924983 -0.67204064 -0.04325632 0.13771388
2451.5049 -1394.5754 186.40694 0.93059832 -0.26426402 -0.25328106 0.079565242
2422.5796 -1430.1099 136.83095 0.94449723 -0.17895091 -0.27550247 0.146018
2467.2578 -1398.5986 238.18938 0.8184377 -0.46527877 -0.33715785 0.054144196
2440.6143 -1432.5159 185.03157 0.95687193 -0.1365854 -0.25639924 0.10974101
2455.6411 -1375.5374 186.67188 0.97175378 -0.13383792 -0.19437583 0.10076781
2436.3997 -1429.0679 169.74878 0.83809507 -0.14220342 -0.5266639 0.057548951
2447.9961 -1420.0299 219.97823 0.88862383 -0.45853433 -0.0096947057 0.098662503
2438.0103 -1448.4017 171.78442 0.84403843 0.056609612 -0.53328651 0.057365742
2443.6992 -1467.1473 168.8109 0.83180511 0.33696216 -0.44108593 0.078554757
2429.4712 -1430.2959 132.95789 0.037968345 -0.26552716 0.96335548 0.19898941
2441.8137 -1418.3967 174.7187 0.8681553 -0.16435492 -0.46828815 0.067662008
2425.3809 -1439.9014 132.76897 -0.10897768 0.0066375677 0.99402201 0.16014268
2441.9231 -1430.9175 217.58864 0.85576558 -0.50714451 0.10232157 0.09981367
2454.4053 -1379.5424 181.40953 0.93318492 -0.26782027 -0.23966263 0.10667472
2461.491 -1396.7285 224.51038 0.86175895 -0.4210541 -0.28299293 0.092667088
2445.8804 -1405.2362 176.02373 0.8565225 -0.30863982 -0.41365522 0.077168621
2450.3196 -1391.746 178.22435 0.89509398 -0.33418745 -0.29517034 0.090286501
2454.9268 -1408.8314 222.61093 0.90277767 -0.38956743 -0.18229008 0.094294958
2469.1541 -1385.6627 227.34944 0.77907753 -0.44737816 -0.43919358 0.10564412
2447.3848 -1476.0146 129.19713 0.78047717 0.49027067 0.38793042 0.053776205
2455.1023 -1389.3722 195.64249 0.95515484 -0.20694125 -0.21178882 0.084881902
2443.0061 -1426.0013 186.99849 0.94799203 -0.21676725 -0.2330732 0.10387037
2426.3386 -1418.6224 136.16487 0.84442872 -0.5104109 -0.16254494 0.12123843
2453.7573 -1417.2483 236.50221 0.79433459 -0.56427342 -0.22500679 0.064570889
2449.1826 -1387.9308 145.29901 0.81755841 -0.5728721 0.058445405 0.17076451
2447.9392 -1415.9202 191.35455 0.9461056 -0.20188102 -0.25323561 0.074672259
2424.2439 -1441.6637 131.16785 0.95315641 0.30011952 0.037697963 0.13333946
2442.3372 -1398.8357 143.34245 0.83516765 -0.54602814 0.065941267 0.13289572
2460.9839 -1377.5166 199.32106 0.92975742 -0.27494484 -0.24486017 0.082456961
2434.1616 -1408.7714 139.85194 0.82841772 -0.55006927 -0.10558347 0.11758878
2451.5139 -1403.1536 193.20166 0.95029467 -0.17929874 -0.2545428 0.076521806
2421.4758 -1429.329 133.58247 0.94083279 -0.20972481 -0.266175 0.15781711
2461.7522 -1406.2449 239.19144 0.7630024 -0.54209346 -0.35208243 0.048988439
2442.8003 -1443.4432 185.6602 0.99043608 -0.088951498 -0.10547031 0.11622126
2443.158 -1458.2306 183.02405 0.96464598 0.057892527 -0.25711212 0.1316341
2423.5002 -1439.5548 131.51164 0.94875449 0.30931547 0.064721815 0.1359545
2444.5276 -1476.3394 135.32806 0.76521629 0.50276798 0.40208012 0.047907874
2418.9932 -1423.5958 125.35231 0.85009837 -0.47602728 -0.22523482 0.17954171
2433.3684 -1414.8811 128.24197 0.6552192 -0.73211092 0.18628316 0.182803
2441.595 -1431.515 222.1002 0.86311066 -0.50391388 0.033329125 0.097258322
2442.5979 -1470.025 128.4725 0.77245766 0.56467927 0.29059678 0.046672553
2461.7336 -1394.8696 222.08298 0.8649897 -0.42333958 -0.26940009 0.092468701
2441.3877 -1414.7761 174.2845 0.87406749 -0.200259 -0.44260854 0.064842068
2444.906 -1467.0262 178.04504 0.87438041 0.24392243 -0.41947681 0.13250296
2447.7219 -1395.4845 174.59003 0.8761881 -0.34946394 -0.33191776 0.091799811
2470.7207 -1376.4502 222.62086 0.83912396 -0.36062244 -0.40721297 0.12333217
2440.1921 -1441.9573 179.48866 0.93130791 -0.010452043 -0.36408284 0.093146004
2418.6746 -1427.7502 125.87523 0.91917819 -0.38651711 -0.075604357 0.20538385
2455.2917 -1377.0693 172.61916 0.84476215 -0.49818268 -0.19542503 0.1650583
2430.3875 -1412.9413 130.00058 0.81361222 -0.54066426 -0.21381618 0.1570538
2451.4912 -1413.0278 221.50688 0.90688062 -0.40945518 -0.099569045 0.090210453
2422.9646 -1426.9879 134.00848 0.92307186 -0.3151558 -0.22048852 0.16397122
2444.783 -1379.4371 147.62599 0.89744508 -0.22559986 -0.37907392 0.1861144
2451.3623 -1394.686 188.39218 0.93228316 -0.2707558 -0.23987378 0.08747796
2445.375 -1394.1044 142.28813 0.84634578 -0.5277105 0.072252601 0.15354539
2421.2517 -1436.3884 130.30812 0.98488951 0.11470146 -0.12975442 0.18829568
2443.73 -1456.8701 181.64632 0.98449957 -0.013796633 -0.17484353 0.12159885
2437.5195 -1404.546 140.00499 0.85234004 -0.52298534 0.0016883443 0.12414364
2435.5996 -1460.9493 129.50267 0.80838609 0.53100848 0.25405106 0.037703574
2455.6665 -1381.9287 192.08014 0.9519586 -0.20357957 -0.22875786 0.10023427
2429.7454 -1415.2104 137.26549 0.83311993 -0.5242461 -0.17628717 0.1255227
2456.9717 -1488.5022 129.22218 0.71403593 0.54244292 0.44261533 0.10306102
2448.1567 -1410.1635 188.27127 0.92976648 -0.20236357 -0.30754399 0.066939719
2444.3489 -1423.2654 186.1131 0.9392975 -0.1889935 -0.28635934 0.089622609
2442.6184 -1439.2845 184.69765 0.97024065 -0.094033942 -0.22313824 0.10081442
2435.3936 -1461.6812 131.31706 0.82070428 0.52934474 0.21503167 0.041338902
2443.0977 -1412.512 177.01689 0.88415968 -0.21580133 -0.41435662 0.067672312
2432.2654 -1411.089 133.78923 0.78999597 -0.57606989 -0.20988038 0.1391153
2448.8064 -1393.3499 175.89331 0.87860751 -0.35556763 -0.31877962 0.097016595
2442.3833 -1439.7814 182.0656 0.92735153 -0.026612112 -0.37324384 0.090021752
2443.9526 -1461.6268 180.6244 0.91860598 0.14227824 -0.36867329 0.12703983
2420.7686 -1426.7699 130.53235 0.89107776 -0.38790005 -0.23561396 0.15815353
2455.7061 -1375.3916 176.00682 0.89065528 -0.39200011 -0.23036738 0.14830992
2441.3113 -1456.5658 177.46365 0.88023227 0.10622373 -0.46250156 0.097040735
2445.5039 -1471.3593 124.78255 0.7633093 0.55268192 0.33451694 0.052091535
2424.6677 -1444.1088 127.01969 0.94887137 0.3106102 -0.056253344 0.15072048
2450.0176 -1475.0631 172.82063 0.82790637 0.44396967 -0.34272727 0.098393455
2440.4688 -1441.9617 179.08958 0.90806651 -0.0076913377 -0.41875529 0.086562179
2419.4146 -1427.1439 128.83908 0.88692486 -0.30797771 -0.3442587 0.17899124
2453.7759 -1415.8563 232.05269 0.82590723 -0.52933335 -0.19412221 0.070982963
2438.2759 -1435.425 225.02347 0.77431399 -0.6188606 0.13209637 0.083705589
2446.2544 -1426.1681 228.97861 0.83220565 -0.55003554 -0.069962084 0.069719091
2471.4912 -1394.9872 240.50191 0.75498492 -0.50447595 -0.41892937 0.049617998
2437.8367 -1408.1943 139.51556 0.81141895 -0.54280466 -0.21670802 0.159031
2443.8855 -1430.2949 183.30954 0.9229666 -0.08019086 -0.37643334 0.07844387
2449.5276 -1399.876 185.15259 0.92320228 -0.24239145 -0.29823467 0.071503729
2454.0388 -1387.5223 187.57503 0.93442523 -0.22756712 -0.27397564 0.078161746
2427.0032 -1417.0022 131.99911 0.80633533 -0.54716659 -0.22457092 0.14209633
2445.2983 -1413.6237 182.72507 0.9014926 -0.19936669 -0.38414058 0.065929458
2461.1406 -1405.4869 235.29308 0.8239907 -0.49199039 -0.28104237 0.057097532
2426.2349 -1436.1593 133.83752 0.016974617 -0.011514243 0.9997896 0.20186679
2458.3721 -1413.28 241.86183 0.76599455 -0.57649028 -0.28444916 0.062508233
2422.9812 -1425.0682 137.04938 0.86812359 -0.450993 -0.20728414 0.12649082
2447.8423 -1479.8612 133.24077 0.73809373 0.45621514 0.49707684 0.054489989
2446.895 -1425.5804 193.14203 0.95943385 -0.25496116 -0.12033905 0.094158001
2441.9565 -1449.964 186.10097 0.9986276 -0.017568672 -0.049338736 0.12439375
2442.7012 -1434.7793 189.1232 0.98157793 -0.16683599 -0.093115345 0.11370356
2430.3137 -1415.0155 142.36052 0.84924841 -0.49579218 -0.18156871 0.11670439
2435.509 -1462.9861 133.77966 0.82781929 0.54749382 0.1223345 0.044518374
2442.1545 -1433.116 235.98969 0.79899079 -0.59897685 -0.053295355 0.07325983
2449.6072 -1409.4393 194.52594 0.95207119 -0.22308832 -0.20926544 0.077126794
2444.6697 -1466.2316 184.28072 0.98802716 0.098168768 -0.11901778 0.14780778
2439.022 -1406.0518 147.30243 0.87101388 -0.46632239 -0.15452601 0.12440287
2449.5125 -1423.3539 237.18712 0.81577832 -0.54668474 -0.18878976 0.064075552
2423.3767 -1437.6073 135.50357 0.98288065 0.1143107 -0.14449441 0.14400144
2460.49 -1420.2546 254.0697 0.6426999 -0.5819729 -0.49824131 0.082989305
2434.0369 -1414.6965 157.84637 0.89146948 -0.3746683 -0.25476635 0.093939289
2430.1697 -1436.0819 158.37013 0.87877655 -0.061559822 -0.47324637 0.075339504
2456.2976 -1397.4287 207.72438 0.93076128 -0.30755657 -0.19771786 0.094109423
2432.0476 -1453.4117 156.28302 0.8427977 0.4290978 -0.324911 0.080350794
2442.9138 -1397.959 159.01601 0.8907243 -0.42339104 -0.16537921 0.10736358
2449.5212 -1418.0922 208.96663 0.91998672 -0.39188957 0.0068536419 0.078752153
2441.3921 -1436.1982 208.08052 0.87783748 -0.44372913 0.18029377 0.095828861
2451.7952 -1404.4929 197.45702 0.95525253 -0.21973154 -0.19801688 0.082300767
2422.5198 -1431.3492 138.26358 0.9514665 -0.13187817 -0.2780641 0.13161898
2454.2585 -1419.0126 241.62158 0.75860626 -0.61031848 -0.22809634 0.06950476
2449.4407 -1420.239 196.76933 0.97060853 -0.23183168 -0.064599931 0.084188424
2445.0161 -1430.0452 192.27039 0.97035038 -0.23255797 -0.065855637 0.11133083
2431.396 -1455.9398 136.70099 0.87821311 0.47268641 0.072864898 0.061696138
2438.928 -1438.4873 237.48453 0.81956995 -0.56760472 -0.078294627 0.080024973
2442.2739 -1458.7336 186.41202 0.99080139 -0.055839006 0.12326655 0.13373311
2442.2134 -1472.5428 134.72017 0.78983551 0.54515338 0.28101185 0.04650344
2442.1375 -1442.5013 188.91721 0.98476458 -0.17154472 0.028480783 0.12062985
2428.1265 -1421.0524 142.94077 0.87310719 -0.43899897 -0.21204652 0.10927075
2434.3154 -1409.5991 145.10393 0.85557079 -0.50112337 -0.12989986 0.10014512
2445.6548 -1429.0697 238.52466 0.78089035 -0.60881817 -0.13982402 0.068916321
2456.2839 -1391.9453 200.83731 0.94017386 -0.2668269 -0.21184066 0.085165054
2463.6807 -1408.88 245.64241 0.71470034 -0.60671943 -0.34798694 0.05765247
2444.4978 -1476.7019 135.83791 0.76521629 0.50276798 0.40208012 0.047907874
2429.9204 -1452.5369 130.86444 0.88976139 0.44253975 0.11172862 0.068497062
2415.9895 -1422.2665 123.9258 0.88490009 -0.42897022 -0.18148378 0.18076079
2426.196 -1420.3965 145.49426 0.85088348 -0.45642829 -0.26013547 0.09454459
2437.1194 -1405.7622 148.63033 0.866072 -0.48927006 -0.10263592 0.11113994
2422.9656 -1436.5084 144.20108 0.94174767 -0.060104918 -0.33090594 0.10094286
2439.9746 -1468.6592 147.74469 0.78406829 0.61701518 -0.067299113 0.055886734
2433.2898 -1428.6254 166.11078 0.8355118 -0.14617948 -0.52967119 0.06530235
2454.5254 -1377.6619 171.02353 0.85978329 -0.47014973 -0.19932869 0.15163718
2445.6733 -1394.7634 169.56177 0.8547256 -0.4208912 -0.30380049 0.099086754
2438.7837 -1411.4902 168.53154 0.86413378 -0.2449927 -0.43960366 0.067178212
2438.6414 -1456.7017 172.13544 0.87354934 0.1588015 -0.46010175 0.089060128
2450.8435 -1384.4069 167.56866 0.84518546 -0.49275196 -0.20701945 0.1283244
2435.8462 -1461.7317 152.69965 0.79491884 0.5803802 -0.17681304 0.061040796
2444.7471 -1396.7667 166.42831 0.87715381 -0.38497815 -0.28704181 0.097010002
2425.0439 -1441.3878 151.37595 0.90696812 0.055284072 -0.41755539 0.073718071
2427.5808 -1431.2723 155.92404 0.89234138 -0.17252515 -0.41708741 0.069211736
2432.2507 -1420.4497 159.28201 0.88400316 -0.30147794 -0.3572807 0.073065855
2439.0408 -1408.8523 163.32507 0.88257611 -0.36860293 -0.29187551 0.091671981
2436.2251 -1457.9153 161.51093 0.79669654 0.47035345 -0.37952906 0.059970394
2465.7493 -1391.4048 227.72484 0.83717996 -0.45231128 -0.30748037 0.081997931
2442.9802 -1409.6681 174.02576 0.8587997 -0.28975326 -0.4224999 0.069275312
2451.5579 -1413.7511 221.83553 0.89671677 -0.4323599 -0.09467826 0.091198929
2435.1123 -1447.2626 213.67519 0.90848207 -0.36853626 0.19708195 0.13214581
2438.1768 -1420.7234 170.18828 0.85215563 -0.19404215 -0.48598188 0.065870389
2434.8359 -1434.0997 168.46201 0.83672643 -0.099831402 -0.53844452 0.05953186
2458.7097 -1402.8665 225.07246 0.88591522 -0.40773654 -0.22114494 0.082547367
2445.8928 -1425.1218 219.77631 0.85417634 -0.5163343 0.061495159 0.083779417
2439.5264 -1435.8691 216.26622 0.85916722 -0.48925832 0.14985971 0.10160293
2448.2148 -1398.3605 177.69728 0.88355058 -0.31657553 -0.34513527 0.084197149
2433.5256 -1446.7427 165.35818 0.83537656 0.085095219 -0.54305136 0.05686678
2452.9373 -1386.5471 181.36433 0.93049389 -0.26702937 -0.2507517 0.095662668
2455.2129 -1407.537 221.34357 0.88715857 -0.42437842 -0.18125302 0.089361317
2434.7422 -1442.5563 221.27106 0.86649227 -0.49178723 0.085653149 0.12500133
2436.8442 -1426.4482 170.25084 0.8442291 -0.13305898 -0.51920372 0.060099728
2435.5708 -1447.5872 171.05486 0.87366599 0.10101818 -0.47592339 0.084861197
2441.927 -1406.5854 170.26735 0.85823315 -0.34649408 -0.37865248 0.073258325
2450.0007 -1387.452 171.05054 0.86572528 -0.41891509 -0.27391583 0.10533337
2445.7209 -1425.7451 221.5575 0.84904873 -0.52349889 0.071170449 0.078433067
2457.4619 -1488.8895 128.90614 0.71403593 0.54244292 0.44261533 0.10306102
2434.198 -1456.7971 126.10995 0.81318152 0.52154666 0.25831151 0.042467255
2463.7708 -1388.7202 218.65736 0.79904932 -0.45560354 -0.39235905 0.11122543
2430.0142 -1439.9082 159.97699 0.85628998 0.015667289 -0.5162577 0.066509731
2442.4534 -1431.6793 212.9079 0.85351062 -0.5008347 0.14382032 0.089635998
2442.8359 -1405.2087 170.78482 0.85583931 -0.36476773 -0.36672005 0.079020768
2439.0972 -1418.0255 168.94965 0.86465645 -0.22710365 -0.44809952 0.084376611
2427.7966 -1447.0225 155.56349 0.89592367 0.18084611 -0.40572834 0.084543295
2437.4773 -1443.6561 209.25478 0.8540141 -0.45498106 0.25229377 0.10617086
2448.6675 -1421.2858 215.41876 0.88985837 -0.45075116 0.070537277 0.081254698
2434.2627 -1429.4012 165.54509 0.83192676 -0.14753881 -0.53491139 0.058982551
2452.5186 -1424.7983 251.19965 0.67036009 -0.60615575 -0.42801002 0.057631813
2458.8699 -1390.7483 208.93698 0.87855566 -0.4184477 -0.2303073 0.11069611
2436.9893 -1457.6072 200.23665 0.90818733 -0.18446809 0.37572241 0.088105731
2443.3831 -1429.5934 205.47272 0.90690774 -0.40121281 0.12863386 0.10523491
2438.9324 -1442.2971 203.86076 0.89845544 -0.33163267 0.28774565 0.10646655
2452.5408 -1399.8398 206.23123 0.94448465 -0.31444892 -0.09523952 0.13408537
2466.6023 -1415.0598 255.88498 0.57563388 -0.64874363 -0.49777237 0.074868411
2448.7998 -1415.8953 205.7748 0.94988573 -0.31041378 -0.036883019 0.09957166
2446.3328 -1481.9634 141.51573 0.75493497 0.58715051 0.29210863 0.054698743
2422.1887 -1435.5111 142.17244 0.94359571 -0.058897734 -0.32581934 0.1112623
2446.1646 -1424.4095 200.01537 0.94330251 -0.33170065 0.01244997 0.095562659
2428.8652 -1453.3564 142.87976 0.87846684 0.47730988 -0.021710202 0.05801728
2437.6943 -1403.7471 152.04158 0.87361819 -0.47698748 -0.09630239 0.095644638
2471.6138 -1406.6522 252.5192 0.60386121 -0.64161563 -0.47294927 0.067877188
2450.46 -1411.6991 202.69241 0.95502937 -0.2714017 -0.11941542 0.086100109
2448.8215 -1383.2035 162.00793 0.94756711 -0.21758616 -0.23403594 0.1354157
2460.8313 -1386.4043 207.78983 0.87689769 -0.42649752 -0.22169872 0.10892748
2440.0493 -1449.5138 196.26201 0.97555768 -0.082861215 0.20352213 0.10757749
2430.9011 -1414.6832 148.5094 0.86662066 -0.46252683 -0.18718331 0.092768922
2450.9832 -1425.9867 247.00636 0.75042474 -0.59653234 -0.28462583 0.071987957
2441.7483 -1435.691 197.37488 0.95500004 -0.29376882 0.040924106 0.11443762
2454.1025 -1396.1057 201.59221 0.91910136 -0.3398847 -0.19932663 0.098826289
2461.2878 -1415.3365 250.40686 0.67507362 -0.62892443 -0.3856549 0.062230449
2424.1941 -1424.754 144.57518 0.89081329 -0.34102228 -0.30025893 0.096425511
2444.3022 -1392.1405 155.59152 0.88496816 -0.43838245 -0.15701 0.12658884
2472.8621 -1390.3263 239.97282 0.78126913 -0.47058913 -0.4100785 0.045968466
2454.8506 -1414.816 235.83601 0.78416646 -0.57349068 -0.2370474 0.066207886
2438.2007 -1438.3534 231.83829 0.85014051 -0.52283704 -0.062470455 0.084411338
2463.1492 -1403.2041 237.49736 0.76304841 -0.53404415 -0.36407959 0.054854769
2446.9331 -1425.8978 233.56526 0.83316594 -0.53905958 -0.123488 0.068608813
2432.6812 -1449.9631 160.91211 0.84484595 0.23796101 -0.47917628 0.068627328
2443.0156 -1432.3887 209.467 0.86927557 -0.46931764 0.15524454 0.088375434
2430.3965 -1425.9481 159.52339 0.88034749 -0.23186584 -0.41379529 0.068085715
2469.9551 -1418.3077 258.73099 0.46423677 -0.63563573 -0.61680746 0.09521243
2453.4888 -1432.338 256.0455 0.67942911 -0.45531476 -0.57538211 0.097455822
2446.2744 -1390.2523 161.95117 0.86455685 -0.45556188 -0.21214341 0.11298659
2435.0427 -1449.8997 210.91669 0.92128175 -0.27240244 0.27755517 0.12700772
2437.5325 -1407.9076 160.8736 0.87568712 -0.38976681 -0.28505075 0.084320396
2458.0688 -1393.7101 210.23947 0.92721289 -0.28878748 -0.23849121 0.10390274
2451.3269 -1412.7875 210.04393 0.95175427 -0.30050457 -0.062135901 0.089139633
2441.7393 -1396.3832 154.69434 0.86091423 -0.48757771 -0.14523998 0.1159889
2426.1858 -1445.4042 144.86603 0.93555576 0.28789756 -0.20457385 0.089680053
2443.9761 -1474.3751 145.0211 0.77236319 0.63512754 0.00825004 0.059308492
2424.2371 -1432.0083 146.01678 0.920394 -0.17719486 -0.3485353 0.094857596
2435.4309 -1409.1083 152.19991 0.89122349 -0.42405376 -0.16093206 0.099258952
2448.5024 -1384.5448 157.99428 0.85455829 -0.48300266 -0.19088888 0.14023857
2429.3535 -1421.6228 150.59486 0.87662548 -0.40334713 -0.26237169 0.09581095
2437.0698 -1437.3278 225.94066 0.80939287 -0.58499259 0.05164209 0.092474125
2458.8081 -1401.9634 224.80478 0.85612869 -0.44140443 -0.26871136 0.086667068
2441.4646 -1447.4078 180.60783 0.92723066 0.057864938 -0.36999312 0.10422829
2468.9988 -1383.5747 222.89641 0.76893586 -0.4950946 -0.4044984 0.11747226
2448.47 -1419.4281 224.24153 0.87892145 -0.46570438 -0.10303651 0.1044936
2453.9512 -1378.016 172.65636 0.88740867 -0.3981455 -0.23234878 0.15065534
2445.5801 -1395.8708 171.36201 0.87455356 -0.3533591 -0.33210444 0.091362558
2440.6086 -1415.9575 173.75623 0.88381791 -0.1836285 -0.43028647 0.07038752
2442.5471 -1430.129 214.65952 0.87471735 -0.47856736 0.076438509 0.10163514
2433.8745 -1448.8055 215.3564 0.90504533 -0.38894638 0.17208621 0.14200115
2459.9204 -1392.6005 214.36043 0.8949945 -0.33123407 -0.29877883 0.10564223
2452.384 -1411.3539 215.12376 0.926171 -0.37037128 -0.070939228 0.091050453
2426.3547 -1445.8719 147.87724 0.92567879 0.26783693 -0.26717439 0.088606521
2446.5391 -1430.4954 244.84286 0.78956485 -0.55672079 -0.25816527 0.076063901
2445.0317 -1435.5699 196.78076 0.90377253 -0.32570949 0.27768415 0.096464112
2449.5107 -1416.3721 198.7896 0.96325874 -0.24164991 -0.11720893 0.084425882
2434.8103 -1409.371 149.48868 0.88697517 -0.4327009 -0.16138449 0.10179188
2426.3447 -1427.1191 148.77759 0.89603484 -0.29980758 -0.32747054 0.09003327
2454.3232 -1393.8549 197.14 0.9583413 -0.20558414 -0.19828539 0.080473274
2438.9558 -1451.7111 199.36372 0.94242239 -0.096338943 0.32024816 0.092624344
2460.7483 -1413.7778 247.13066 0.69859761 -0.61676109 -0.36272183 0.059587736
2424.7795 -1442.464 130.08095 0.95659411 0.28815666 0.043513492 0.14163978
2453.9773 -1485.5331 129.92943 0.73429799 0.55655843 0.38865042 0.073551826
2435.3477 -1421.392 164.26851 0.85149503 -0.24767579 -0.46218279 0.082960725
2429.7974 -1452.1749 153.61334 0.88993841 0.38693732 -0.24143146 0.090232126
2440.3882 -1410.1412 167.84084 0.87689269 -0.31908968 -0.35950097 0.086228766
2451.2278 -1386.0924 172.92657 0.8879199 -0.36020339 -0.28609759 0.10264408
2445.792 -1397.4972 170.43062 0.87696391 -0.36498725 -0.31259975 0.092546605
2433.0237 -1435.6721 163.86288 0.84398103 -0.092963964 -0.5282554 0.062105507
2457.3486 -1402.5518 219.68565 0.90473449 -0.37012208 -0.21086751 0.088228263
2451.9836 -1416.1594 217.89429 0.90033054 -0.435103 0.009501718 0.074366644
2445.8286 -1426.2773 214.03365 0.86130071 -0.49778128 0.10185714 0.081762634
2435.4004 -1448.0314 208.89664 0.86901295 -0.37341616 0.32461795 0.12320592
2429.9995 -1444.5829 157.60216 0.89929503 0.12504876 -0.4190838 0.082317546
2463.1807 -1391.1469 221.15144 0.83682942 -0.44010073 -0.32561925 0.107916
2465.4001 -1437.4048 262.92032 -0.32787105 0.33167452 0.8845861 0.11766431
2439.9905 -1436.9948 211.99776 0.8583079 -0.47200054 0.20130339 0.094756022
2459.5564 -1391.171 210.84682 0.9273957 -0.26322442 -0.2658008 0.093286112
2442.7424 -1398.3489 159.84308 0.88894933 -0.41770604 -0.18785821 0.10612641
2443.7017 -1440.9315 196.96817 0.87723774 -0.34247425 0.33640063 0.088448763
2425.6189 -1442.6371 146.44533 0.93848306 0.22764559 -0.25966713 0.094276175
2427.0811 -1433.0139 150.97316 0.93702167 -0.16116549 -0.30986458 0.09767589
2431.7173 -1458.6461 145.59064 0.86090434 0.50501889 -0.061641585 0.053772651
2437.1633 -1410.2102 157.81206 0.89001369 -0.41519833 -0.18837729 0.10773353
2439.6873 -1454.2135 194.87016 0.92344499 -0.21922339 0.3149451 0.095094778
2446.3274 -1427.4446 200.37363 0.90966475 -0.38527846 0.1551469 0.090585329
2450.1948 -1414.8743 204.36067 0.95498562 -0.28250486 -0.090517536 0.087957993
2470.8816 -1410.7183 254.9893 0.56833011 -0.651353 -0.50273263 0.081277981
2458.5662 -1419.5404 250.64622 0.65916914 -0.62915897 -0.411892 0.081786707
2447.9805 -1386.5243 162.28162 0.87907642 -0.41019583 -0.24282517 0.12592725
2430.6614 -1421.283 153.78351 0.88039935 -0.37663597 -0.28817061 0.095651075
2454.625 -1402.6538 206.25113 0.95487243 -0.24041775 -0.17440742 0.087006547
2447.7009 -1429.3243 246.45113 0.7646507 -0.59533721 -0.24674472 0.080765344
2441.4614 -1447.7158 191.73102 0.96914619 -0.17902467 0.16942798 0.11853707
2463.9084 -1413.9741 252.30173 0.65576351 -0.63514769 -0.40811959 0.070150048
2451.2983 -1410.5364 200.73592 0.96111691 -0.24671032 -0.12404942 0.087611482
2439.9709 -1402.9703 153.55235 0.88645828 -0.44656858 -0.12152471 0.10613362
2444.6733 -1435.6729 194.29234 0.9445563 -0.28973305 0.15449321 0.10327452
2441.3494 -1472.2566 140.38322 0.79625154 0.59085816 0.12988497 0.05339133
2446.7505 -1394.8401 158.67108 0.94218051 -0.31880376 -0.10324756 0.13199545
2433.0161 -1412.6849 149.35938 0.8583746 -0.47953168 -0.18232517 0.098112904
2443.6179 -1433.006 241.86598 0.82088608 -0.53433269 -0.20158041 0.072312184
2452.5508 -1423.3026 246.3812 0.73229456 -0.6151076 -0.29221109 0.06880939
2424.9883 -1444.9103 140.26756 0.93792909 0.32730511 -0.11471868 0.096293867
2427.2661 -1423.5562 146.60924 0.88109308 -0.38696322 -0.27190894 0.10407627
2447.6919 -1422.4219 198.23912 0.95763999 -0.28471845 -0.043139275 0.08961872
2423.5713 -1434.4467 142.93103 0.95120484 -0.11894897 -0.28471118 0.11260299
2455.4717 -1398.4865 204.35599 0.95481044 -0.22137184 -0.19832176 0.090686105
2443.1194 -1459.3419 189.05952 0.97829396 0.20637962 0.018666595 0.13550436
2428.6506 -1440.8555 156.35738 0.91134602 0.03607763 -0.41005713 0.083842762
2453.8076 -1404.2407 206.85802 0.9450351 -0.28161833 -0.16613191 0.09957844
2431.4727 -1420.9973 157.10953 0.87965077 -0.35477114 -0.31678382 0.090075597
2446.6479 -1424.4158 207.60756 0.89908355 -0.42493388 0.10526142 0.082241029
2447.45 -1387.1816 161.03412 0.92638034 -0.30536273 -0.22039294 0.13805009
2455.9561 -1425.8097 254.31438 0.66946304 -0.56689715 -0.48004881 0.084304564
2461.0342 -1389.2605 212.46565 0.93810874 -0.21477643 -0.27170402 0.10221852
2440.156 -1403.5717 157.80315 0.88609523 -0.43824801 -0.15091033 0.10464139
2438.1875 -1441.6923 207.91255 0.85629559 -0.45460036 0.24514562 0.10678594
2444.2271 -1428.3468 187.81194 0.96391016 -0.16687457 -0.20743702 0.10006961
2428.6047 -1421.6442 140.9937 0.90677822 -0.36246619 -0.21534045 0.13425939
2446.5276 -1412.3438 188.4733 0.92468923 -0.20808344 -0.31882766 0.087513313
2438.5193 -1408.6519 144.81981 0.81674045 -0.56637329 -0.11025571 0.13090505
2454.8599 -1387.4949 194.53276 0.94590074 -0.22322924 -0.23545808 0.090475313
2443.5208 -1460.1147 182.82242 0.99188757 0.017557537 -0.12590003 0.14027871
2447.9758 -1478.2079 130.92828 0.7817111 0.46648538 0.41390711 0.057631761
2448.9075 -1474.0308 179.03467 0.89388955 0.29784372 -0.33503827 0.13929451
2441.9626 -1441.798 184.84334 0.97770029 -0.048922591 -0.20422706 0.11215786
2450.1023 -1397.4917 189.19746 0.93372083 -0.22824116 -0.27581039 0.085505344
2432.0876 -1456.5466 133.58002 0.88524926 0.45891836 0.075681634 0.058551393
2422.2034 -1430.2305 135.63681 0.94165647 -0.18030301 -0.28420749 0.15900521
2438.5247 -1445.3751 203.25667 0.88410926 -0.34493899 0.31522676 0.10635444
2451.5544 -1403.5021 199.54182 0.93374163 -0.30926338 -0.18022959 0.087412566
2474.4456 -1412.8901 257.25708 -0.51493329 0.59539241 0.61672652 0.094479799
2454.2112 -1427.6001 253.97913 0.6675272 -0.57444268 -0.47373307 0.082417279
2445.9788 -1424.553 202.11165 0.93123859 -0.36347187 0.026131269 0.096201375
2458.092 -1384.2739 198.80861 0.87417358 -0.40355673 -0.27011573 0.099636786
2441.0752 -1462.213 169.50179 0.8048135 0.44195899 -0.39616597 0.081950761
2436.8484 -1438.171 220.48048 0.83402652 -0.54549778 0.082655556 0.10985019
2444.5071 -1396.5759 167.20952 0.85589474 -0.40770477 -0.31815246 0.10246406
2435.4646 -1439.9856 170.08858 0.84900486 0.0083544757 -0.528319 0.062969662
2457.0325 -1400.4335 217.09396 0.89837891 -0.38401812 -0.21317931 0.1077756
2453.5435 -1379.8673 172.39891 0.90591216 -0.35408992 -0.23225735 0.12961546
2448.0474 -1420.5786 219.99501 0.8753252 -0.48351663 -0.0041754083 0.088531338
2435.9124 -1413.9692 165.05833 0.86442542 -0.25894099 -0.43095046 0.074108474
2429.9897 -1426.5583 157.12448 0.88654166 -0.24876568 -0.39007625 0.078700349
2450.884 -1410.5101 205.19333 0.94837523 -0.30194142 -0.097035319 0.11044823
2436.8679 -1448.4668 207.03098 0.91968346 -0.22989982 0.31832129 0.10693967
2443.4031 -1431.0256 206.77092 0.89719361 -0.41275695 0.15708388 0.099021032
2431.7231 -1449.1504 157.7334 0.87248808 0.27218857 -0.40580526 0.082799077
2437.8743 -1410.1677 160.05936 0.8897475 -0.39516285 -0.22846372 0.10532565
2445.731 -1391.743 161.12045 0.90215027 -0.38642281 -0.19183926 0.12144241
2457.4153 -1392.4635 205.66908 0.9277007 -0.30383423 -0.21692438 0.094754905
2432.3425 -1444.6904 164.20323 0.83922112 0.059837244 -0.54048812 0.055701513
2434.5393 -1446.5865 214.73003 0.89676082 -0.40200326 0.18496864 0.13496926
2439.0762 -1462.3523 162.61121 0.81904161 0.43868536 -0.36976475 0.061576158
2444.6426 -1411.0293 176.65608 0.86812216 -0.25100374 -0.42820671 0.074743785
2435.5205 -1435.0587 169.66098 0.83423847 -0.094135106 -0.54330915 0.06095862
2438.4473 -1421.4745 170.60867 0.85722846 -0.166207 -0.4873752 0.062547199
2448.5276 -1398.1381 178.93568 0.88918942 -0.30998865 -0.33652514 0.082907565
2467.0894 -1391.4574 230.84151 0.8425377 -0.43624207 -0.31594789 0.069310181
2453.4939 -1386.3564 182.56326 0.924613 -0.27600092 -0.2625154 0.089007042
2439.1257 -1436.0771 217.02493 0.84057808 -0.5154531 0.16654286 0.099341005
2459.3115 -1402.7067 226.68347 0.87839967 -0.42255124 -0.22330353 0.078582019
2452.6782 -1414.2864 223.29691 0.88592476 -0.45701993 -0.079184309 0.075620659
2445.8928 -1425.1218 219.77631 0.85417634 -0.5163343 0.061495159 0.083779417
2430.571 -1425.0072 159.02151 0.87747836 -0.26802915 -0.39773372 0.069771484
2451.6169 -1410.5303 210.58101 0.94571888 -0.31344864 -0.085824244 0.092063911
2446.7246 -1388.7249 160.39229 0.85624105 -0.47428432 -0.2047087 0.12013654
2434.9062 -1448.4252 213.78697 0.94935882 -0.19590412 0.24564078 0.13642284
2458.5911 -1391.2632 208.7399 0.87189031 -0.43266019 -0.2293741 0.11035853
2436.8711 -1405.3381 157.86198 0.87902141 -0.38631049 -0.27943802 0.080090865
2429.2605 -1445.1405 158.27383 0.88478619 0.10473292 -0.45407537 0.079389058
2459.073 -1432.5619 261.03708 -0.61148143 0.45634589 0.64640456 0.1111711
2442.8909 -1430.5668 212.37897 0.87339699 -0.47335821 0.11449766 0.089731507
2422.9634 -1424.6144 136.7944 0.86501575 -0.45563152 -0.21011357 0.12528361
2458.917 -1409.2513 232.75134 0.86347169 -0.45698485 -0.21349834 0.061151642
2452.7854 -1385.486 182.54895 0.9374494 -0.25515276 -0.23682413 0.083125316
2442.9077 -1428.4553 184.91112 0.94582438 -0.16658884 -0.27868322 0.095862918
2420.7183 -1437.2273 136.19548 0.97096545 0.22974411 -0.066661827 0.1226588
2447.3276 -1425.5166 231.2943 0.82655311 -0.55894768 -0.066238195 0.071496323
2434.397 -1438.6201 228.72424 0.70381361 -0.68555379 0.1861783 0.084133402
2445.7065 -1481.1173 141.43414 0.75493497 0.58715051 0.29210863 0.054698743
2467.4314 -1389.7892 229.36087 0.81559253 -0.44964981 -0.36417568 0.08266931
2443.4941 -1456.9084 185.36606 0.99901748 -0.010756538 -0.042992823 0.12852222
2446.3508 -1404.4196 181.43201 0.8993606 -0.29342961 -0.32411349 0.072391555
2418.9307 -1426.0645 126.32637 0.88400984 -0.26944897 -0.38199982 0.19914578
2437.4731 -1403.4993 132.54648 0.84522146 -0.50541282 -0.17366207 0.16777307
2428.2263 -1414.6483 129.06371 0.82540816 -0.51436496 -0.23265862 0.15663752
2420.7695 -1435.056 123.11639 0.97466999 0.19394094 0.11137933 0.19497497
2444.2937 -1468.2424 170.52634 0.84871066 0.28378138 -0.44627163 0.091067038
2442.2593 -1416.3324 174.4019 0.87006551 -0.21195057 -0.44504264 0.074714892
2424.8391 -1423.4014 123.13052 0.79413062 -0.60512799 0.056361884 0.18261394
2451.2241 -1389.0825 177.92677 0.89729214 -0.33006939 -0.29312277 0.094115928
2442.97 -1437.9548 178.4462 0.86336398 -0.0035357424 -0.50456929 0.052182529
2417.4961 -1434.9814 133.3214 -0.11218804 0.0013868026 0.99368602 0.21959154
2435.5417 -1416.0227 127.92149 0.6220594 -0.70650679 0.33747628 0.16828009
2446.4417 -1402.7971 176.25946 0.86128795 -0.31298837 -0.40027657 0.075674728
2432.365 -1449.7295 120.68961 0.72836363 0.57978493 0.36515191 0.065472066
2452.5784 -1404.6028 198.43939 0.96535784 -0.18173997 -0.18722931 0.081519052
2442.4773 -1397.8394 146.20938 0.84383786 -0.53514522 0.039462525 0.12445389
2456.7419 -1391.1007 200.69525 0.94363493 -0.24693206 -0.22040342 0.07804098
2447.8147 -1385.5081 149.27475 0.90284026 -0.42286545 -0.077873528 0.14247493
2448.8975 -1416.592 195.02026 0.96172523 -0.22188143 -0.16078936 0.080671467
2449.8501 -1418.3568 204.05861 0.93793106 -0.34673655 -0.0076894034 0.085796356
2453.894 -1404.454 206.34349 0.95614743 -0.24790779 -0.1559608 0.093085341
2424.9988 -1430.0057 146.51256 0.91225308 -0.22944576 -0.33933604 0.091681585
2437.7693 -1466.6841 142.95471 0.80224782 0.59663785 -0.020535572 0.057547029
2448.6597 -1384.1089 157.20061 0.85133082 -0.49056709 -0.18595633 0.14148454
2465.4324 -1377.9944 208.33762 0.84591585 -0.46627715 -0.25886667 0.13031641
2444.2881 -1427.7776 200.06444 0.92629838 -0.37673593 0.006425919 0.10793985
2421.8076 -1437.4076 141.84746 0.95866537 0.052546732 -0.2796419 0.108151
2429.6963 -1419.3677 149.20172 0.8622849 -0.43737319 -0.25528303 0.10025158
2441.0217 -1439.8781 198.54158 0.95706081 -0.22406964 0.18392223 0.12125163
2435.8684 -1407.2982 151.7039 0.88868195 -0.42675641 -0.16770008 0.09988863
2442.4517 -1395.6011 153.98708 0.86509687 -0.48286551 -0.13582446 0.11311074
2458.51 -1389.7355 205.2448 0.87637138 -0.43591419 -0.20482183 0.10010289
2445.3921 -1428.5859 202.22978 0.91120273 -0.38352334 0.15039745 0.094366394
2448.0554 -1388.1935 164.61708 0.9259963 -0.32711661 -0.18848233 0.12973945
2426.2754 -1433.3411 150.15952 0.92891914 -0.13923793 -0.34310639 0.093489505
2459.1023 -1392.057 210.86707 0.91461599 -0.29762259 -0.27367571 0.10671747
2449.3098 -1417.1219 205.19185 0.94846982 -0.30956498 -0.067635387 0.092118606
2432.1079 -1424.0033 157.36296 0.88537866 -0.30004075 -0.35507774 0.10676932
2454.3315 -1404.2736 207.52063 0.94822431 -0.25815386 -0.18500601 0.094232574
2443.0164 -1399.647 161.07048 0.88768214 -0.41912258 -0.19067426 0.11184683
2444.2827 -1474.59 147.0058 0.77228385 0.63524687 -0.0062503605 0.059938472
2429.2388 -1449.926 148.94423 0.93229401 0.28880286 -0.21776325 0.095341153
2437.8413 -1411.8613 160.1965 0.88168621 -0.38657707 -0.27053207 0.11557613
2442.0408 -1442.0153 199.01463 0.88774222 -0.33236781 0.31850496 0.099551432
2452.6853 -1373.6047 165.29637 0.93607777 -0.28147125 -0.21102686 0.18611853
2465.0059 -1379.0026 211.99832 0.8837117 -0.39335445 -0.25362554 0.12812209
2419.8801 -1428.9403 133.25914 0.89562351 -0.38275567 -0.22661999 0.13923138
2463.7566 -1397.1979 230.41785 0.81118912 -0.47460499 -0.34164643 0.072509609
2442.1216 -1431.7286 230.41611 0.85122716 -0.51847839 -0.081193842 0.081797123
2444.0251 -1461.1432 185.17091 0.97483492 0.14313038 -0.17091092 0.15583952
2442.6357 -1439.3933 186.06203 0.98202801 -0.093621783 -0.16387776 0.10657889
2435.7397 -1463.8389 135.83864 0.82774633 0.55100018 0.10599438 0.044598952
2445.8511 -1415.5649 185.79729 0.92111278 -0.18646812 -0.34173214 0.076498128
2430.5432 -1413.3691 134.91548 0.82036793 -0.55741119 -0.12762913 0.13278419
2453.1309 -1415.2169 230.55034 0.8541407 -0.48780674 -0.18024507 0.07462652
2451.1731 -1396.2883 185.79716 0.93539578 -0.23549494 -0.26377419 0.081972331
2442.2048 -1433.5792 184.12163 0.95361924 -0.10574054 -0.28183207 0.099649936
2447.5596 -1413.0154 184.93544 0.92875022 -0.16808122 -0.33041149 0.058370411
2456.6111 -1410.3551 231.82124 0.83819467 -0.48713425 -0.24521406 0.07092233
2435.9746 -1408.7833 139.19432 0.82533544 -0.54022223 -0.16425999 0.14035141
2466.6665 -1392.2234 230.24626 0.79143572 -0.47992942 -0.37854627 0.073644698
2442.7908 -1457.2345 184.37263 0.98071128 0.10411678 -0.16542384 0.14194266
2430.7715 -1455.1654 136.85207 0.88460916 0.46262103 0.058723368 0.06272085
2422.9709 -1424.6313 135.2977 0.85832417 -0.471288 -0.2028971 0.12889554
2452.0696 -1390.7458 183.27043 0.9288348 -0.25370404 -0.27000043 0.077547364
2445.5789 -1427.6249 231.67892 0.84139955 -0.53016281 -0.10475758 0.065401308
2431.2031 -1441.9875 159.8847 0.86832017 0.053492803 -0.49311116 0.080583833
2434.0623 -1429.5381 164.15305 0.84188783 -0.20068008 -0.50095147 0.075369842
2438.092 -1446.4365 205.45314 0.87147319 -0.34864187 0.34493959 0.11310771
2464.9966 -1387.1909 221.79271 0.87050617 -0.3515406 -0.34443894 0.1045916
2453.6221 -1380.701 173.93732 0.90356296 -0.34744048 -0.25071716 0.12385016
2458.9121 -1399.4711 219.01799 0.91214889 -0.34115863 -0.22714578 0.090803273
2430.2664 -1450.2106 155.10623 0.89630711 0.30454555 -0.32231289 0.088660106
2442.5718 -1404.2594 167.78191 0.86022413 -0.39028049 -0.32817009 0.081576563
2448.0085 -1393.1782 171.70383 0.87870228 -0.3625555 -0.31054103 0.10030553
2452.7131 -1411.3011 215.47121 0.9248445 -0.36650836 -0.10165746 0.093498431
2448.0913 -1422.8715 212.03215 0.88476914 -0.45794621 0.086422339 0.086467415
2442.4207 -1434.2129 208.5145 0.850546 -0.48958406 0.19203883 0.094034508
2437.8677 -1416.6416 165.50055 0.87855399 -0.27805576 -0.38836563 0.098067805
2418.604 -1431.9166 126.2363 0.99227852 0.10137181 -0.071463667 0.18827564
2433.0859 -1415.5321 131.39928 0.4593631 -0.74759549 0.47967333 0.15729126
2422.0662 -1422.3434 124.07751 0.85821551 -0.5058071 -0.087322772 0.20024367
2436.7876 -1464.4934 132.57379 0.77979159 0.5711537 0.25633669 0.037215695
2426.9446 -1417.6884 135.25853 0.8165493 -0.55649781 -0.15348423 0.12418041
2434.4636 -1462.0669 136.15152 0.84005076 0.53549266 0.086961664 0.0427633
2420.3313 -1431.5607 133.30159 0.95390248 -0.20306234 -0.22098805 0.15881984
2438.1699 -1402.0908 137.99315 0.88144135 -0.4709554 -0.035527408 0.13343714
2453.2573 -1408.8562 209.78825 0.94713253 -0.30113199 -0.1107226 0.090760842
2470.3848 -1412.4409 256.65964 0.56833011 -0.651353 -0.50273263 0.081277981
2455.6743 -1428.2753 255.67354 0.6729905 -0.51261997 -0.53320217 0.087553874
2445.7188 -1426.8784 208.11295 0.88843399 -0.44152454 0.12546375 0.082043633
2432.6548 -1447.826 159.65517 0.86134589 0.22880119 -0.45357832 0.077213608
2447.1648 -1387.0762 159.95647 0.88284504 -0.4076989 -0.23316573 0.12183575
2437.2285 -1443.0925 209.12794 0.87170374 -0.43135527 0.23251933 0.11303925
2439.7744 -1405.3849 159.85065 0.88245523 -0.43853605 -0.17017308 0.10801072
2431.939 -1424.309 158.57886 0.87388325 -0.28756917 -0.39195919 0.090957426
2432.1628 -1415.6056 149.2318 0.87374747 -0.43250149 -0.22250348 0.096163183
2448.7039 -1483.4622 138.26712 0.76073259 0.58132339 0.28870231 0.062276941
2446.6709 -1423.3634 195.23903 0.95992476 -0.2623727 -0.098513857 0.094725266
2443.2761 -1467.764 187.05269 0.9857654 -0.040635217 0.16314229 0.12489886
2426.7058 -1428.9193 146.04907 0.90945959 -0.29833499 -0.28961948 0.1158919
2442.4031 -1452.2384 188.92671 0.97345203 -0.13245542 0.18667269 0.11562674
2424.3562 -1438.588 141.27251 0.97034591 0.11912473 -0.21032859 0.11880776
2450.0991 -1409.7882 197.16292 0.9587152 -0.22540745 -0.17336863 0.080598816
2433.4219 -1460.73 140.00467 0.84228104 0.53895777 0.0093331663 0.044981506
2438.9521 -1404.7971 150.99742 0.87448651 -0.46311334 -0.14422011 0.10764232
2444.0713 -1437.9869 192.47771 0.96039605 -0.24766366 0.12767987 0.10382175
2454.2043 -1395.7975 199.32613 0.95080715 -0.23661092 -0.19995256 0.082403742
2444.9341 -1394.0282 153.83618 0.91270244 -0.39985931 -0.084182851 0.14448433
2428.6221 -1427.884 153.13722 0.90317482 -0.27707604 -0.32787818 0.097857259
2447.1648 -1426.2113 203.06178 0.92948335 -0.35804889 0.088666208 0.092742614
2439.7478 -1405.3834 159.22148 0.88606119 -0.43627229 -0.15672299 0.10667878
2461.1406 -1388.4143 212.54182 0.91016555 -0.29699388 -0.28877896 0.10214937
2450.3213 -1382.8279 165.10349 0.91899288 -0.35151243 -0.1785809 0.13200931
2451.6851 -1414.0161 206.37991 0.94036078 -0.33745438 -0.042966954 0.086643137
2443.8379 -1437.6597 199.11012 0.86400717 -0.39170793 0.31631714 0.098218814
2444.8135 -1394.266 161.98273 0.90289879 -0.37396789 -0.21194753 0.11508559
2433.5713 -1416.2816 155.85281 0.87390822 -0.43081802 -0.22512276 0.09770444
2440.5957 -1450.8384 195.20969 0.8757962 -0.29560232 0.38157606 0.08867918
2453.9973 -1426.9977 253.00191 0.67187816 -0.57219976 -0.47028419 0.079532236
2425.6665 -1438.9568 149.03281 0.93996042 0.015215971 -0.34094417 0.092375062
2464.2498 -1418.2635 255.78961 0.59502053 -0.62807292 -0.50147283 0.090569466
2430.3325 -1454.2631 147.48886 0.87868106 0.457991 -0.13477315 0.074916169
2456.1079 -1400.8082 210.05772 0.95083314 -0.2316319 -0.20557976 0.095693707
2448.5803 -1382.847 154.66193 0.86611408 -0.46423292 -0.18529482 0.14254688
2447.6746 -1421.222 201.04871 0.94816059 -0.31717071 -0.019856397 0.099414229
2440.594 -1401.7898 155.05411 0.88188308 -0.45658129 -0.11754042 0.10918107
2467.1829 -1404.8018 245.412 0.67284453 -0.61153698 -0.41629654 0.050665125
2453.7146 -1401.5536 201.42084 0.96580124 -0.18867081 -0.17785195 0.084128089
2431.9604 -1420.7303 155.87885 0.8915478 -0.37240967 -0.25778586 0.1010007
2454.3687 -1421.0309 246.88103 0.7146045 -0.61268806 -0.33757037 0.063707665
2441.186 -1440.3353 202.06223 0.88153762 -0.36946693 0.29391429 0.099707574
2424.4253 -1435.3068 150.72234 0.90343499 -0.12525645 -0.41001955 0.07509131
2448.25 -1424.7987 195.23209 0.95820141 -0.28534561 -0.020686807 0.087263048
2449.0315 -1483.0803 135.61438 0.76494133 0.53607136 0.35706055 0.067208804
2439.7776 -1401.9752 149.828 0.87359935 -0.47924984 -0.084520884 0.10824379
2470.2439 -1404.2736 248.39035 0.62732416 -0.63558841 -0.44999087 0.053570494
2460.8193 -1412.7153 246.56714 0.69989371 -0.61106819 -0.36978969 0.047696706
2432.7312 -1412.4238 146.82443 0.84712166 -0.49093395 -0.203393 0.097943075
2442.575 -1432.2841 239.28281 0.80585879 -0.57847369 -0.12633185 0.067478165
2426.5613 -1423.2733 143.84448 0.87244648 -0.42473817 -0.24173252 0.10727645
2454.9497 -1396.5439 201.23851 0.95353955 -0.22948031 -0.19519506 0.08856488
2441.3577 -1445.9335 188.98322 0.99433392 -0.10307549 0.02599025 0.1253392
2448.3325 -1380.0597 156.93536 0.95347619 -0.21344061 -0.21289954 0.15506825
2445.5903 -1390.3721 153.15645 0.90880984 -0.40483573 -0.10085978 0.1389467
2423.1616 -1434.3583 140.16092 0.96079463 -0.10886864 -0.25499263 0.11952031
2442.8823 -1462.0574 186.0527 0.9975782 0.051235963 -0.047038797 0.14991347
2450.8442 -1422.7859 241.52235 0.7661072 -0.59872431 -0.23368564 0.061033312
2430.1431 -1454.4159 139.01126 0.8996051 0.4365443 -0.011819471 0.072234489
2451.0554 -1409.5896 198.00272 0.96014285 -0.22780752 -0.16195512 0.081624143
2444.3049 -1435.2148 191.91594 0.97791988 -0.20779252 0.022249117 0.10986133
2435.2078 -1459.203 126.6571 0.8097077 0.54119295 0.22689995 0.042567302
2456.1497 -1484.1653 125.23318 0.71403593 0.54244292 0.44261533 0.10306102
2443.4705 -1461.6001 179.59425 0.90060359 0.15310992 -0.40678072 0.11706583
2441.8442 -1428.8245 183.41469 0.93176448 -0.14156199 -0.33432797 0.089626543
2445.1296 -1413.5166 184.13498 0.90393484 -0.21929182 -0.36716875 0.074040912
2460.9983 -1405.4269 234.34001 0.83261746 -0.47631937 -0.28260928 0.056688875
2448.3989 -1399.4574 185.32983 0.92507046 -0.24970458 -0.28616819 0.075015508
2435.5762 -1407.8218 137.1091 0.84660947 -0.52041107 -0.11146612 0.12989685
2441.0938 -1446.2871 181.49124 0.95528519 0.055911604 -0.29035163 0.11052188
2470.1946 -1394.7729 237.94493 0.75898248 -0.5158776 -0.39726049 0.054086119
2452.6189 -1416.3751 230.873 0.84231156 -0.51053321 -0.1728209 0.071758404
2427.155 -1418.644 133.9232 0.8353321 -0.51185066 -0.20057215 0.12753302
2436.782 -1437.5641 225.06738 0.80902225 -0.58362728 0.069729351 0.096804507
2444.9961 -1427.2827 227.79918 0.83827168 -0.53869128 -0.084334038 0.082409956
2418.6301 -1426.8914 128.31212 0.87713683 -0.35831082 -0.31975675 0.16699632
2441.0293 -1472.84 140.61064 0.80388975 0.55465639 0.21475014 0.044960123
2419.0312 -1428.8623 131.05763 0.88052928 -0.42345807 -0.21295883 0.15386069
2428.2217 -1416.2938 132.74428 0.83075625 -0.51020807 -0.22255751 0.12856476
2427.74 -1450.7427 136.0965 0.90840966 0.41685534 0.031992491 0.080503367
2431.6895 -1441.9857 162.29382 0.84441108 0.004502411 -0.53567684 0.059911117
2437.4805 -1415.1781 166.69283 0.86571187 -0.22763115 -0.44578812 0.066248812
2443.6746 -1405.2732 171.70323 0.85828453 -0.34758115 -0.37753808 0.083733693
2433.8894 -1429.3483 164.78554 0.83128548 -0.15320152 -0.53431618 0.060765471
2437.4712 -1459.5964 160.88216 0.80917758 0.45961317 -0.36604294 0.059847374
2454.178 -1379.4105 175.67633 0.91402799 -0.31853873 -0.25116906 0.12895702
2448.8728 -1392.3516 173.68452 0.87943619 -0.35430047 -0.31790429 0.092191271
2435.4412 -1444.0603 216.69482 0.89813507 -0.41666427 0.1405144 0.12672956
2441.1182 -1406.8862 167.17384 0.86803699 -0.36317834 -0.33854589 0.082556464
2462.0151 -1390.0065 216.99455 0.87507808 -0.36974993 -0.31228727 0.1153385
2454.0503 -1407.8848 216.68591 0.90920615 -0.39235896 -0.13927899 0.09737201
2444.7678 -1426.6715 216.75591 0.85554558 -0.50920385 0.093558237 0.084719211
2436.5369 -1428.7083 168.86993 0.84720862 -0.16890547 -0.50369489 0.063375622
2435.6382 -1450.8802 167.61121 0.84324211 0.15817803 -0.5137338 0.069920547
2448.467 -1390.6488 169.87332 0.90843207 -0.32694849 -0.26049164 0.10630212
2423.4556 -1440.4071 133.14737 0.94434661 0.32842219 0.01866574 0.1189036
2449.0781 -1480.1879 131.70569 0.73809373 0.45621514 0.49707684 0.054489989
2444.0007 -1462.2192 182.95085 0.990421 0.031026376 -0.13454962 0.14038914
2424.1929 -1434.9854 137.5127 0.98371333 -0.0051148734 -0.17967169 0.15135048
2444.0813 -1429.3842 187.85104 0.96589673 -0.15179025 -0.20976947 0.10300963
2442.3999 -1400.2935 147.02396 0.89449733 -0.44004542 -0.078959353 0.13449295
2426.7539 -1419.8556 139.06653 0.83996254 -0.49286324 -0.22704358 0.11818912
2446.8115 -1414.9625 189.05373 0.94457507 -0.18793342 -0.26918212 0.08238104
2450.8831 -1400.4498 191.48053 0.93940282 -0.2244301 -0.2591399 0.088864282
2442.3257 -1444.7269 185.68115 0.98789883 -0.057720814 -0.1439589 0.1189913
2435.2891 -1409.1993 142.63763 0.82892358 -0.55165231 -0.092549473 0.11241129
2438.4941 -1461.7352 195.29852 0.89518094 -0.1573837 0.41699094 0.084608801
2439.6885 -1469.516 144.05002 0.80262524 0.59642214 0.008562291 0.05947803
2427.3032 -1442.2408 149.42503 0.96096092 0.13641611 -0.24071722 0.09748175
2439.7974 -1446.0289 200.43544 0.90672839 -0.24569425 0.34275061 0.096405156
2427.6116 -1450.1941 145.41035 0.92461759 0.36208507 -0.11822312 0.077328391
2428.4924 -1427.5327 152.54553 0.90276855 -0.27980962 -0.32667348 0.098942667
2465.7231 -1417.6864 256.25964 0.56212783 -0.63705534 -0.52742094 0.081377909
2433.6555 -1416.8621 156.09605 0.87510538 -0.43063805 -0.22077475 0.10004298
2449.5742 -1384.8501 166.37268 0.95315075 -0.24161682 -0.18200275 0.14250796
2445.3145 -1394.2037 162.76089 0.89647257 -0.374946 -0.23611951 0.11663599
2447.6895 -1423.9462 204.34723 0.91961205 -0.38414982 0.08211349 0.085834913
2439.6829 -1405.3958 158.63107 0.88732415 -0.42913538 -0.16881543 0.10812694
2452.5686 -1412.7271 208.52792 0.94341433 -0.32738471 -0.052807488 0.086071849
2443.3206 -1433.5204 202.72392 0.89186788 -0.40836796 0.19444108 0.094681084
2456.5884 -1397.5215 209.6265 0.92723554 -0.30444703 -0.21805115 0.095022783
2453.9092 -1425.764 251.33925 0.66897529 -0.56219786 -0.48621568 0.075022317
2423.7351 -1433.3425 142.2493 0.95737535 -0.11992083 -0.26277637 0.10971921
2441.7202 -1433.4857 236.13164 0.8589322 -0.48474535 -0.16509824 0.068999648
2432.7908 -1459.2421 143.87172 0.8454746 0.53259951 -0.038865171 0.048810679
2465.6006 -1401.4072 239.71629 0.7708537 -0.52266604 -0.36414942 0.054656178
2442.2979 -1438.2074 192.0224 0.9873237 -0.15780193 0.017043695 0.12171123
2440.1855 -1460.139 193.56104 0.96675932 -0.061530352 0.24817416 0.10781578
2453.6924 -1417.9244 238.18076 0.78972036 -0.56444687 -0.2402945 0.064561188
2430.1541 -1415.5122 143.19481 0.84958255 -0.48983049 -0.19564141 0.10923879
2446.688 -1417.1681 191.85081 0.95055538 -0.23229098 -0.20611981 0.08791212
2452.4065 -1399.2511 193.83705 0.95446044 -0.19892707 -0.22233602 0.083984032
2417.3357 -1430.4264 125.60249 0.98146319 0.18940455 -0.029255489 0.19650105
2447.8787 -1477.7952 131.22385 0.73807728 0.47333845 0.48082498 0.053850751
2434.1523 -1446.835 165.29018 0.84516609 0.12104581 -0.52061713 0.059924569
2449.0957 -1398.2474 178.86832 0.88637316 -0.31674135 -0.33766487 0.077918336
2433.0156 -1453.8877 159.51396 0.8322618 0.36921179 -0.41354924 0.07145372
2446.749 -1424.6176 218.2083 0.85211313 -0.5150212 0.093039766 0.073797502
2458.8621 -1401.3868 223.76817 0.88605994 -0.39764318 -0.23828076 0.092877477
2436.5344 -1435.7927 170.68594 0.82347238 -0.069250658 -0.56311417 0.061202385
