# .PCD v0.7 - Point Cloud Data file format
VERSION 0.7
FIELDS x y z normal_x normal_y normal_z curvature
SIZE 4 4 4 4 4 4 4
TYPE F F F F F F F
COUNT 1 1 1 1 1 1 1
WIDTH 613
HEIGHT 1
VIEWPOINT 0 0 0 1 0 0 0
POINTS 613
DATA ascii
2520.9441 -1563.2734 -530.75195 0.76839322 0.57916838 -0.27227905 0.031600181
2498.1313 -1434.6343 -467.17258 0.89910066 -0.355663 -0.25518981 0.080875084
2490.7937 -1476.8948 -467.27597 0.99698365 0.027642671 -0.07252197 0.053110007
2518.085 -1400.022 -467.46057 0.69545466 -0.65511042 -0.2952511 0.10394692
2517.2397 -1565.9762 -473.33963 0.85670078 0.2707279 0.43905601 0.02796044
2507.3328 -1539.3823 -525.39502 0.87036264 0.45110136 -0.19742464 0.06142002
2505.4431 -1416.259 -467.10056 0.82520276 -0.42526841 -0.37173536 0.083917134
2533.3943 -1383.8021 -469.25269 0.7466684 -0.62978899 -0.21413118 0.14064288
2492.5369 -1456.1036 -466.0856 0.97006065 -0.18723816 -0.15467454 0.061661977
2508.5442 -1419.53 -453.76474 0.82988924 -0.49906158 -0.24944212 0.092741802
2520.3325 -1402.5901 -454.59906 0.73834193 -0.57387292 -0.35428953 0.10229099
2533.6472 -1388.3032 -456.09686 0.6317234 -0.72088969 -0.28503269 0.13197637
2493.3005 -1458.4285 -452.88843 0.98197687 -0.18290271 0.047623783 0.067180507
2497.6243 -1510.7817 -456.97598 0.94331235 0.32991609 0.036293309 0.034556847
2499.271 -1438.1038 -452.47241 0.92555624 -0.36941111 -0.082952596 0.089606315
2511.8147 -1542.5194 -514.18567 0.84519553 0.49853638 -0.19262925 0.044152468
2497.7402 -1507.3298 -508.85306 0.93030554 0.3582755 0.078550793 0.03556082
2491.5247 -1481.9689 -453.93057 0.99875742 0.020358754 0.045488141 0.059833553
2507.0337 -1540.3577 -459.90436 0.95261729 0.30085546 0.044791725 0.05594375
2535.821 -1575.121 -512.78711 0.71860826 0.68320662 -0.12973386 0.036487188
2495.5505 -1501.8219 -502.96991 0.950149 0.30744076 0.051933262 0.033858269
2490.6553 -1453.0214 -499.13916 0.98044604 -0.15047376 0.12681948 0.1113179
2489.8252 -1472.4128 -499.66315 0.98303413 0.073753878 0.16794138 0.081886955
2496.1843 -1435.3342 -497.77094 0.89250231 -0.32400271 0.3137863 0.12386619
2508.824 -1534.0975 -506.98254 0.87140614 0.48288077 -0.086472809 0.038467124
2493.3745 -1428.3425 -490.9014 0.96375966 -0.13700078 -0.22890623 0.10001824
2515.9761 -1393.1577 -494.3414 0.31616086 -0.91264075 -0.25909305 0.132825
2491.2476 -1446.4756 -490.66309 0.97530371 -0.1858186 -0.11939068 0.089836702
2488.8796 -1464.0487 -490.12888 0.9879511 -0.05473125 -0.14476556 0.077980742
2496.6855 -1506.0886 -490.00415 0.94694912 0.32138023 -0.0014685241 0.026920661
2526.9031 -1566.4496 -494.7197 0.82543236 0.50301367 0.25620052 0.048621606
2490.7776 -1483.6213 -490.02563 0.97796494 0.20829242 -0.014103296 0.053251479
2509.3809 -1536.7975 -492.96912 0.88069683 0.46827093 0.071382239 0.036992423
2530.8735 -1386.2228 -470.32724 0.72551489 -0.60506958 -0.32790077 0.13986546
2492.041 -1461.5236 -469.61874 0.9793905 -0.15769716 -0.12619784 0.056885652
2515.729 -1402.2522 -469.09161 0.68748736 -0.6192475 -0.3793332 0.10332809
2492.6958 -1490.407 -471.83484 0.98170543 0.18910754 -0.022199553 0.048910964
2496.4934 -1439.53 -468.61734 0.92774147 -0.28942263 -0.23564883 0.073060825
2510.8381 -1544.4556 -476.25861 0.91160524 0.35749573 0.20291047 0.037225015
2534.1543 -1580.7972 -535.07379 -0.58149707 -0.76446611 0.27830324 0.042512663
2503.8313 -1421.0253 -468.44696 0.85649091 -0.40571797 -0.31908652 0.083410181
2500.1973 -1516.2241 -474.1087 0.9515487 0.30629286 0.027198832 0.028794166
2522.0425 -1573.61 -477.38043 0.81832349 0.30620703 0.48639894 0.03082861
2508.1511 -1541.4021 -527.83264 0.88972229 0.42146519 -0.17538925 0.072377346
2515.5249 -1394.918 -490.85434 0.39902478 -0.9087435 -0.12232923 0.14609252
2493.2107 -1431.2434 -490.25571 0.96001995 -0.19299886 -0.20276384 0.10087433
2490.0051 -1478.6873 -493.02274 0.98799211 0.1540978 -0.011201651 0.059918262
2520.1848 -1552.8048 -502.77902 0.84003323 0.53851295 -0.065939344 0.027592117
2489.53 -1454.1982 -491.24045 0.97988385 -0.12693466 -0.15399753 0.081000403
2497.6587 -1508.4214 -495.95895 0.94394088 0.32928756 0.023351634 0.028730085
2504.6943 -1421.3406 -464.21304 0.8655864 -0.42452553 -0.26559046 0.085655987
2491.7815 -1459.6818 -464.62491 0.97137308 -0.17511985 -0.16052228 0.063693687
2499.3252 -1509.9413 -519.77533 0.9509021 0.30275029 0.064244971 0.055163089
2506.823 -1535.0159 -522.71082 0.91205424 0.39890969 -0.095016599 0.074073978
2507.7791 -1540.7269 -469.34692 0.9352088 0.31506178 0.16161849 0.045145404
2521.8328 -1579.0504 -475.10797 0.81450886 0.24536368 0.52571094 0.038633864
2497.1956 -1509.6118 -467.03287 0.94935411 0.31412017 -0.0074375994 0.034246057
2496.8203 -1439.6287 -464.42258 0.92325568 -0.31885898 -0.21430784 0.082818501
2491.092 -1480.7681 -464.44296 0.99752402 0.032621995 -0.062302526 0.060894415
2515.2109 -1403.5244 -465.45718 0.74042034 -0.58212286 -0.33602187 0.10419901
2536.6611 -1581.8536 -532.1181 -0.62325037 -0.73688036 0.26185167 0.032889117
2530.2495 -1388.4828 -465.68768 0.65773284 -0.7259202 -0.20106542 0.12394272
2509.896 -1545.6477 -469.23471 0.92737949 0.29939336 0.22434561 0.046583381
2506.7773 -1533.8013 -519.59387 0.90150934 0.42548814 -0.078998603 0.057124168
2501.4426 -1432.7587 -456.90411 0.90643847 -0.39249843 -0.15593031 0.079817429
2495.9224 -1501.0225 -513.51416 0.95935285 0.27405953 0.067331053 0.05175063
2491.627 -1477.0051 -459.02243 0.99990022 -0.0031192806 -0.013777358 0.064464875
2491.3992 -1470.1919 -504.15839 0.93897659 0.056631401 0.33928734 0.09710367
2494.3694 -1453.3003 -457.08972 0.97480136 -0.21373308 -0.063878797 0.070065543
2497.5825 -1509.8269 -463.02542 0.94613588 0.32361686 0.0099534402 0.033875059
2523.2666 -1395.2742 -465.12082 0.66473383 -0.68364292 -0.30126616 0.098612048
2506.158 -1533.9464 -471.34109 0.94267952 0.31393462 0.11313844 0.042108871
2498.8169 -1505.8453 -521.55383 0.93733925 0.33371103 0.10016032 0.072890922
2505.8938 -1528.3577 -521.92877 0.94640946 0.3210004 0.035606839 0.059348971
2494.4988 -1452.0205 -464.42538 0.95121485 -0.26611862 -0.15611267 0.065080978
2520.4104 -1561.335 -527.9314 0.78410017 0.54164487 -0.30299801 0.030840151
2495.3108 -1502.7767 -467.02667 0.96068442 0.27747896 0.0095323306 0.032994431
2537.1248 -1378.5548 -465.78821 0.81762075 -0.51588207 -0.25565985 0.17412834
2500.5664 -1431.6727 -464.0097 0.90072048 -0.34816632 -0.25977451 0.070450142
2491.2295 -1474.8718 -464.78128 0.99583918 -0.046082128 -0.078617908 0.061357845
2510.969 -1412.6476 -463.07861 0.80170834 -0.49628434 -0.33311498 0.098327599
2516.9324 -1564.3318 -473.54236 0.8591736 0.26703078 0.43648061 0.024359997
2492.8479 -1453.4431 -471.45856 0.97095507 -0.17155111 -0.1667828 0.055749994
2508.8447 -1410.3958 -468.74167 0.76965398 -0.48235729 -0.41828725 0.09936621
2539.2075 -1379.452 -471.39062 0.66443038 -0.73804283 -0.11758 0.16409062
2528.616 -1577.1736 -485.10034 0.79769981 0.40794733 0.44413286 0.039405212
2490.6619 -1477.0477 -472.90314 0.99675947 0.035555258 -0.072155282 0.050226629
2499.7048 -1431.4844 -469.85449 0.91453731 -0.32269767 -0.24390097 0.076621525
2496.5247 -1507.4474 -476.04034 0.95664608 0.29007608 0.02615617 0.027466208
2511.7654 -1544.075 -482.4827 0.88456547 0.42548293 0.19107114 0.031418517
2523.9666 -1392.9629 -469.64398 0.67384607 -0.67467886 -0.30123061 0.10626227
2515.2617 -1553.9587 -525.16156 0.81151354 0.50786746 -0.28899214 0.044469628
2508.2068 -1414.7772 -465.26453 0.80251849 -0.4702628 -0.36717436 0.092337571
2494.9316 -1500.7655 -467.03592 0.97019589 0.24205542 0.011361563 0.038895115
2499.5818 -1433.4666 -464.62039 0.90794182 -0.34145087 -0.24300821 0.072743706
2493.7078 -1453.9279 -465.23563 0.95602345 -0.23881468 -0.17025483 0.058097947
2534.2925 -1382.8459 -468.90469 0.74309665 -0.63215172 -0.21952593 0.14816993
2519.6008 -1398.7211 -467.3959 0.70322895 -0.6428628 -0.30363879 0.098235458
2504.4143 -1529.9438 -469.19333 0.93706334 0.34205684 0.0700671 0.037426844
2513.3301 -1554.8647 -470.88922 0.88371712 0.36205572 0.29657996 0.03498289
2491.1472 -1474.8973 -465.77457 0.99625152 -0.035843164 -0.078728095 0.061815929
2505.7417 -1529.4513 -521.94415 0.9404825 0.33726844 -0.04174535 0.058059745
2531.7678 -1394.7037 -441.25421 0.71620685 -0.65637463 -0.23710786 0.10271839
2497.3232 -1507.5869 -488.03854 0.9469443 0.32130307 0.0078012147 0.028425746
2509.6191 -1537.3937 -490.43723 0.87419647 0.47766984 0.087247096 0.034496266
2507.1553 -1423.5216 -437.03253 0.86965114 -0.49252853 0.033504989 0.080173783
2496.9192 -1438.4061 -434.81171 0.89904517 -0.39724624 0.18415532 0.11105067
2489.5696 -1475.837 -485.15948 0.98961163 0.10276116 -0.10054318 0.062345847
2490.3354 -1454.4368 -485.46643 0.98213691 -0.12862401 -0.13734244 0.067618646
2530.0312 -1570.7217 -495.03641 0.82812494 0.48024017 0.28909934 0.051180471
2519.9116 -1409.4537 -439.50397 0.77902424 -0.59240574 -0.20536959 0.086110227
2493.1438 -1437.2029 -486.23605 0.96137291 -0.19871461 -0.19045904 0.080539048
2489.2974 -1456.9799 -435.70059 0.92141742 -0.19989359 0.33321533 0.081257522
2530.3872 -1385.6532 -474.69598 0.70914435 -0.65695858 -0.25596821 0.14459498
2537.1553 -1395.7941 -427.15179 0.62954336 -0.68574286 -0.36528325 0.11984748
2493.9285 -1439.5922 -476.40369 0.92977178 -0.26994061 -0.25031281 0.067297272
2490.2229 -1462.7976 -476.74152 0.98882389 -0.10918725 -0.10151577 0.058897972
2534.5193 -1577.3285 -494.16739 0.80065054 0.53558809 0.26852202 0.058286082
2492.5889 -1491.411 -480.06583 0.97477961 0.22178927 -0.024783168 0.037622947
2500.5659 -1419.1693 -475.81479 0.89626908 -0.33160478 -0.29451659 0.094347194
2504.0173 -1526.9921 -483.99832 0.90634507 0.41321328 0.088280283 0.027475668
2542.9763 -1377.9783 -454.99359 0.72209746 -0.66366637 -0.19524916 0.16480643
2504.1057 -1524.1505 -510.995 0.92736614 0.37414861 0.0021980864 0.037599154
2503.9827 -1428.9873 -452.37555 0.88254637 -0.43950456 -0.1671754 0.085499056
2514.686 -1411.0896 -453.72089 0.79045701 -0.51083052 -0.33797902 0.090233043
2494.189 -1498.3735 -456.09787 0.97802263 0.20168878 0.052852374 0.052575167
2522.2644 -1558.8279 -516.69849 0.81964225 0.54537129 -0.17537609 0.029057421
2495.9321 -1449.9308 -453.17889 0.9662739 -0.25398555 0.042497888 0.075436607
2528.4131 -1394.3792 -454.13092 0.71735424 -0.65856224 -0.22737345 0.092013977
2511.5388 -1560.6553 -463.15796 0.87968421 0.23422302 0.41387835 0.038221382
2503.1052 -1526.6464 -458.04828 0.95161241 0.30447733 -0.041561488 0.041710868
2496.0186 -1502.0659 -509.35339 0.9437387 0.32595751 0.055757996 0.041647919
2491.4119 -1470.1986 -452.90201 0.98791713 -0.13899149 0.068564847 0.066225655
2520.0662 -1553.2596 -506.73813 0.83258253 0.54230547 -0.11274354 0.027968958
2490.0137 -1483.0309 -444.84305 0.98778176 -0.03006505 0.15291584 0.066757299
2509.4282 -1421.2567 -444.05731 0.85212392 -0.51076442 -0.11403733 0.076230265
2490.3726 -1480.7498 -496.00977 0.98375964 0.1793547 -0.0069894707 0.054090049
2521.5359 -1405.0479 -444.78271 0.75649601 -0.61089385 -0.23350045 0.08465796
2500.9507 -1516.2577 -501.05603 0.9243145 0.38125348 0.016983716 0.03313553
2491.8547 -1462.4204 -446.02133 0.96705234 -0.21378398 0.13822521 0.067816846
2488.6758 -1460.0192 -495.8858 0.98982155 -0.094031863 -0.10682389 0.10183502
2502.2476 -1521.9203 -449.65601 0.9470259 0.31612456 -0.056631941 0.046627536
2498.9883 -1439.4016 -442.9566 0.92566258 -0.37616083 0.040642805 0.083175287
2537.1614 -1387.2928 -445.48322 0.71777207 -0.66641188 -0.20173858 0.11961447
2509.5793 -1398.8866 -491.42786 0.46539852 -0.88172805 -0.077200443 0.13955776
2526.9243 -1400.0852 -442.47366 0.72256243 -0.66658098 -0.18323012 0.090022199
2536.4355 -1388.3716 -445.89743 0.69271803 -0.67453116 -0.25524402 0.11277836
2505.804 -1425.7627 -438.14258 0.86985958 -0.49005583 0.056476641 0.08822763
2516.6553 -1413.88 -440.81732 0.79155558 -0.56042618 -0.24364361 0.093020797
2496.1362 -1427.08 -486.9487 0.92546445 -0.25887963 -0.27658069 0.10854447
2525.9854 -1570.0519 -486.07504 0.80132759 0.41836679 0.42760184 0.031270877
2496.6421 -1438.5222 -435.91858 0.88787597 -0.39074805 0.24288306 0.095974766
2512.7739 -1545.6188 -484.76416 0.87439787 0.4387784 0.20712776 0.031019714
2492.8152 -1441.5245 -486.63135 0.96411157 -0.20982307 -0.16267504 0.079633854
2489.2986 -1469.113 -482.12921 0.99263471 -0.012062604 -0.12054374 0.066418529
2490.2327 -1451.0509 -483.40381 0.98509407 -0.14194737 -0.097162679 0.090041384
2489.4458 -1451.8423 -432.18237 0.91700715 -0.26089326 0.30171609 0.095322266
2491.2576 -1487.2137 -481.23108 0.97703016 0.21133997 -0.027339775 0.041482996
2499.9714 -1515.6781 -482.94183 0.94770736 0.31405568 0.056743495 0.025829796
2522.8911 -1393.1106 -470.79855 0.64232785 -0.71683711 -0.2712186 0.10993108
2495.262 -1500.8193 -473.09607 0.97338378 0.22886239 0.012083134 0.034350321
2535.196 -1397.2869 -423.43439 0.66089624 -0.71106434 -0.2400075 0.12707292
2495.1628 -1447.2096 -469.39133 0.94337845 -0.26281512 -0.20239885 0.062208869
2491.0725 -1470.7076 -470.33841 0.99263728 -0.048953518 -0.1107915 0.059285205
2501.1252 -1426.6681 -468.71884 0.89537728 -0.33979747 -0.2878145 0.075905286
2503.2971 -1525.0509 -474.14929 0.93079203 0.36191624 0.051407982 0.032210227
2520.1487 -1562.9188 -481.20807 0.85636115 0.33871263 0.38976833 0.025015663
2525.6443 -1577.0952 -479.59708 0.77249366 0.35912889 0.52371746 0.039336149
2509.1877 -1541.651 -473.37845 0.92344916 0.33174577 0.19283779 0.040864881
2538.9612 -1584.2562 -533.56586 -0.61581439 -0.74467206 0.2573638 0.038961526
2505.4492 -1533.8638 -454.03253 0.95466328 0.28954956 -0.069131121 0.051880676
2494.2986 -1500.6879 -449.87991 0.96840918 0.23273462 0.089544922 0.057867289
2507.96 -1532.474 -507.08975 0.87405354 0.47890833 -0.081714369 0.036784235
2493.9609 -1497.3477 -501.91049 0.94798666 0.31535408 0.04327894 0.036441974
2502.1792 -1432.5562 -446.98145 0.90435696 -0.42653975 0.014225995 0.078556284
2494.6536 -1451.1542 -446.67102 0.96831775 -0.24015619 0.068452664 0.079708688
2490.533 -1472.6302 -447.55185 0.98575795 -0.13705613 0.09745194 0.073190175
2495.2166 -1424.3597 -497.07431 0.98654157 -0.16012965 -0.03307927 0.10497296
2513.9998 -1414.6234 -448.28647 0.8245222 -0.51414537 -0.23625776 0.0848995
2540.1689 -1579.8746 -515.81805 -0.68117028 -0.71677405 0.14913765 0.028048221
2525.8906 -1398.5629 -448.9913 0.72477573 -0.64259058 -0.24855082 0.090856738
2521.9385 -1393.4661 -469.39374 0.63084334 -0.75223184 -0.19022082 0.10489974
2490.9226 -1471.9578 -469.89801 0.99479228 -0.039035708 -0.094151504 0.055089772
2494.5151 -1447.7216 -468.43842 0.94801062 -0.2719644 -0.16526119 0.064953946
2501.1294 -1426.4338 -468.38153 0.89028794 -0.34195012 -0.30076152 0.077308245
2504.9351 -1529.2081 -475.85495 0.92328477 0.37782791 0.06921953 0.029575629
2507.3838 -1405.6002 -470.70026 0.79249883 -0.4274126 -0.43504488 0.11219676
2523.4497 -1569.2438 -482.29193 0.82258981 0.36446106 0.43647918 0.027231101
2494.0769 -1497.7169 -471.99524 0.9671362 0.25422269 0.0042865817 0.037550334
2509.4258 -1537.3141 -491.04083 0.87560606 0.4789986 0.062244754 0.037259866
2543.77 -1583.1082 -497.4184 0.7155562 0.6949603 0.07077802 0.037264187
2496.8501 -1507.0918 -488.97678 0.95277226 0.30358645 0.0077624661 0.030044368
2541.0481 -1379.8643 -454.31866 0.75117409 -0.61934078 -0.22837359 0.16590928
2489.0745 -1479.4023 -487.66516 0.98556477 0.15629442 -0.065070428 0.053837493
2489.855 -1464.6383 -439.48209 0.96096522 -0.21483782 0.17432885 0.079735257
2509.5969 -1420.7456 -446.94391 0.83990532 -0.53000653 -0.1168422 0.081531838
2490.5002 -1451.9202 -491.11887 0.97777534 -0.16243759 -0.13254964 0.085901834
2501.0669 -1434.0997 -442.92575 0.89044625 -0.45495799 0.010897479 0.084137671
2494.3315 -1447.603 -439.91608 0.9396292 -0.32768765 0.098578975 0.099083766
2490.3877 -1483.969 -439.91302 0.99925292 0.012981515 0.036400992 0.085671745
2519.0769 -1406.954 -449.70688 0.7669059 -0.55566674 -0.3210761 0.088606656
2489.0068 -1461.9807 -487.81842 0.99333334 -0.088507347 -0.073860489 0.087894388
2529.0823 -1393.9458 -451.93018 0.70630461 -0.67505544 -0.21315239 0.090869419
2491.3906 -1486.0867 -465.14224 0.98970115 0.14144403 -0.022027634 0.05320663
2522.657 -1585.7778 -474.7135 0.79887885 0.20965771 0.5637697 0.051418178
2496.4038 -1438.6417 -463.51462 0.932262 -0.29770631 -0.20556867 0.099007182
2499.9617 -1517.4955 -469.146 0.95659041 0.29007316 -0.028148497 0.032150164
2512.0867 -1550.0956 -472.46719 0.90130836 0.33745581 0.27160054 0.039621737
2504.4185 -1420.0396 -463.1282 0.85488248 -0.4102048 -0.31766018 0.094008557
2491.354 -1459.6379 -463.68231 0.97523832 -0.15427928 -0.15845539 0.069317743
2513.2002 -1402.3721 -464.94351 0.75198185 -0.52082235 -0.40406355 0.10086568
2541.6912 -1381.2827 -468.88287 0.45034191 -0.89280808 0.0092687681 0.1864408
2530.1284 -1387.8453 -468.45267 0.64828455 -0.73892212 -0.18363346 0.13246137
2521.7178 -1397.8269 -464.48849 0.68254077 -0.65981048 -0.31430605 0.096054032
2497.457 -1440.9231 -459.36862 0.92701799 -0.34827635 -0.13907267 0.086466655
2493.2214 -1456.5624 -457.34253 0.97973883 -0.17105332 -0.10417553 0.073080875
2501.4236 -1517.9056 -507.88 0.93266553 0.3601515 0.020637123 0.037038542
2491.8157 -1474.0632 -456.01196 0.99690557 -0.077239446 -0.014606615 0.065419309
2540.1987 -1579.6409 -513.32428 -0.67837822 -0.72786933 0.10004596 0.035300765
2493.5378 -1496.7095 -506.85059 0.93870831 0.34242567 0.039640762 0.039944641
2490.833 -1485.0315 -452.14392 0.99295616 0.088772647 0.078469507 0.075741231
2509.7415 -1411.4607 -463.38434 0.77740365 -0.48297626 -0.40296096 0.091393322
2496.6506 -1509.6663 -452.62067 0.93483514 0.34153536 0.097143337 0.04073707
2503.5088 -1426.3138 -460.60263 0.88294882 -0.40625164 -0.23528928 0.089348532
2506.7024 -1538.0846 -454.98422 0.96068007 0.2729522 -0.050901406 0.061318476
2515.8442 -1547.9432 -510.28442 0.85998178 0.49278596 -0.13263994 0.036014725
2523.5515 -1404.6176 -434.92484 0.75484341 -0.64359415 -0.12648301 0.089551441
2506.6738 -1420.4594 -457.92395 0.83999407 -0.45843393 -0.29025561 0.095240481
2505.4153 -1527.6464 -511.07492 0.91704804 0.3985748 -0.012688309 0.041339912
2510.0647 -1554.7653 -459.12741 0.93725449 0.28472641 0.2012085 0.064826332
2491.6807 -1478.0308 -455.98636 0.99979991 -0.018283855 0.0081161344 0.064899184
2529.0935 -1568.979 -517.28546 0.71795708 0.67037547 -0.18744175 0.028394539
2493.6675 -1457.9343 -455.97906 0.97916514 -0.1934706 -0.061683215 0.061562069
2498.7305 -1437.2965 -456.94922 0.91745698 -0.36766562 -0.15196916 0.088907145
2495.4465 -1502.879 -456.97205 0.96341741 0.26112542 0.06033605 0.037885997
2503.5039 -1529.2563 -458.10107 0.95790267 0.28447711 -0.038669202 0.042857934
2492.8447 -1451.6349 -438.89822 0.95162171 -0.28348574 0.1185407 0.1011034
2498.1858 -1437.5902 -440.56039 0.92024201 -0.3901453 0.030680308 0.11323234
2505.5042 -1426.6613 -445.86432 0.86563796 -0.48727712 -0.11503011 0.089184403
2521.0498 -1401.9398 -453.21585 0.71624833 -0.5848335 -0.38073361 0.10444825
2541.801 -1380.5649 -457.52881 0.58817255 -0.76701611 -0.25639695 0.1670552
2530.6052 -1391.1591 -455.603 0.65511513 -0.71005064 -0.25817087 0.11999107
2513.3748 -1414.7113 -449.24411 0.81630516 -0.52148241 -0.24839881 0.094948411
2488.4463 -1466.0845 -436.77039 0.9575538 -0.19066349 0.21619007 0.095387638
2494.1943 -1498.2386 -503.8674 0.94320548 0.32728326 0.057001308 0.037789553
2554.3284 -1592.6995 -512.84418 -0.68382186 -0.7121976 0.15862606 0.038671941
2497.6875 -1442.4702 -455.86499 0.92310536 -0.37263751 -0.09496168 0.076473556
2501.6597 -1518.5436 -503.97772 0.92911541 0.3697466 0.0056590419 0.037873279
2491.4395 -1474.1238 -451.87973 0.99289155 -0.085345261 0.082961224 0.0670745
2499.314 -1516.5547 -452.07254 0.94911832 0.31225994 0.040843494 0.043324269
2530.0188 -1388.5459 -465.58173 0.65647829 -0.72541773 -0.20689464 0.12828843
2504.3171 -1427.3176 -457.55621 0.88135916 -0.41601175 -0.22392009 0.08010269
2510.9949 -1411.9968 -459.99771 0.7910673 -0.49945456 -0.35321048 0.093816273
2522.3281 -1398.8201 -462.31015 0.71956009 -0.64380956 -0.26027408 0.093809642
2516.261 -1547.6873 -506.3345 0.85782069 0.49803311 -0.12691234 0.035442982
2493.9031 -1455.7223 -452.98254 0.98329514 -0.18196519 0.0044011367 0.071066231
2490.3682 -1486.634 -448.50571 0.98351669 0.043018688 0.1756255 0.068324134
2492.72 -1443.304 -496.38641 0.9696995 -0.22105038 0.10401715 0.11731953
2488.6519 -1462.436 -497.09048 0.99544907 -0.093306884 -0.019363619 0.10530294
2538.5422 -1383.0289 -451.99725 0.81206018 -0.54129583 -0.21807593 0.13466792
2527.7781 -1397.1429 -450.27209 0.71368557 -0.67184001 -0.19820184 0.084814534
2555.2998 -1593.6884 -512.08777 -0.67958194 -0.7061246 0.19888796 0.036119368
2496.1143 -1448.395 -448.54037 0.94484955 -0.31038427 0.10450347 0.082499593
2499.6228 -1513.3677 -499.96698 0.93159789 0.36299601 0.018953221 0.032058381
2514.4604 -1414.0194 -449.54266 0.81813729 -0.52113211 -0.24304873 0.092177689
2520.4358 -1553.6831 -504.69415 0.83188277 0.5460093 -0.099221326 0.027332457
2503.8145 -1429.8873 -447.91818 0.89067012 -0.453426 -0.033340909 0.080675274
2490.7644 -1484.015 -496.94058 0.9792195 0.20243533 0.012212366 0.057203583
2491.6545 -1472.1243 -450.4946 0.9816463 -0.14915302 0.11884414 0.070567511
2527.3218 -1397.7698 -447.04266 0.73742753 -0.64758468 -0.19192389 0.093498372
2538.9841 -1383.7993 -448.38559 0.80074769 -0.55913079 -0.21488589 0.13158026
2503.9209 -1429.412 -443.98044 0.87796879 -0.47845319 -0.015916685 0.082727142
2500.0049 -1515.3771 -495.04849 0.93414479 0.35398048 0.045511656 0.032449234
2488.6489 -1463.0447 -493.07193 0.99160063 -0.068181016 -0.10990701 0.079212159
2515.2903 -1413.8424 -444.677 0.81808758 -0.55393595 -0.15455621 0.085621655
2514.5237 -1545.2866 -498.01187 0.85659373 0.51554835 0.021379916 0.037914451
2495.6438 -1446.2577 -441.93964 0.92491621 -0.37014976 0.086712949 0.085677341
2490.4387 -1483.0231 -439.9715 0.99998379 -0.003579709 0.0044249189 0.088587798
2490.2454 -1466.4264 -442.48865 0.96455967 -0.2008653 0.17110735 0.066038713
2491.8018 -1486.8251 -493.01086 0.97692537 0.21317023 -0.01324035 0.04970549
2553.4985 -1590.469 -506.1033 -0.67763376 -0.7218672 0.1404288 0.031951036
2515.3687 -1413.243 -447.10342 0.81287205 -0.53594255 -0.22804509 0.091664173
2495.7151 -1503.7179 -491.02948 0.94526136 0.32622796 -0.0075012492 0.028867904
2511.2112 -1539.5435 -495.2081 0.87308609 0.48319423 0.065145724 0.038695991
2531.823 -1571.8257 -498.27707 0.80387378 0.5638994 0.18922046 0.059110276
2538.3291 -1384.505 -451.53 0.72937751 -0.65262085 -0.20516938 0.12602352
2491.4182 -1460.0798 -441.92526 0.96748751 -0.18462358 0.17286423 0.073963568
2490.4158 -1481.337 -491.03561 0.98162729 0.19053371 -0.01023844 0.052397661
2497.1343 -1443.2107 -444.11694 0.91944993 -0.38896087 0.05763099 0.082148694
2488.9634 -1459.4843 -490.5412 0.99266583 -0.080614433 -0.090088286 0.085060477
2489.5322 -1479.8878 -441.16824 0.99064463 -0.075691774 0.11355154 0.076837391
2505.0547 -1427.9413 -445.85458 0.87645721 -0.47700059 -0.065522052 0.08520247
2490.9026 -1448.4873 -492.12662 0.96803904 -0.2010666 -0.14990897 0.0990602
2526.1746 -1398.5048 -449.20541 0.73341388 -0.64773399 -0.20626386 0.088410407
2528.7925 -1393.9868 -451.91101 0.66790426 -0.6870023 -0.28623718 0.090250678
2515.863 -1410.0656 -450.80679 0.80702513 -0.50873119 -0.29983836 0.087625869
2504.3684 -1428.3154 -449.64136 0.87621564 -0.46443078 -0.12864742 0.091832511
2545.6279 -1380.5272 -453.3345 0.49001333 -0.7970131 -0.35306805 0.17194831
2490.9968 -1468.1887 -450.35205 0.98179018 -0.16679804 0.090919852 0.068430901
2502.3408 -1523.5583 -457.46899 0.94715178 0.31502688 -0.060511298 0.042929906
2492.4028 -1493.2294 -452.49808 0.98582107 0.14060341 0.091583252 0.064291768
2509.7461 -1556.8445 -459.52039 0.92989767 0.22638826 0.28989428 0.052305922
2495.8594 -1447.2177 -449.89554 0.95141166 -0.30758074 0.014487872 0.086188279
2488.8721 -1470.0178 -492.91025 0.99672467 0.015803115 -0.079311006 0.080987833
2492.4485 -1490.8706 -493.00385 0.96073508 0.27734563 -0.0082171559 0.043237649
2495.3242 -1449.546 -445.53271 0.94929308 -0.29520443 0.1081525 0.083922423
2512.2197 -1417.2531 -448.5322 0.83826339 -0.52670699 -0.14104696 0.080653839
2553.1211 -1589.8734 -503.01904 -0.68751901 -0.71808279 0.10804979 0.028482545
2533.9233 -1388.926 -451.97607 0.7023384 -0.6773451 -0.21891639 0.11034442
2522.3474 -1403.3 -450.1524 0.71833092 -0.6202805 -0.31504416 0.10010162
2501.4465 -1518.6332 -494.06464 0.92533785 0.37718275 0.038510192 0.033684131
2516.5762 -1548.8883 -497.09073 0.84718126 0.52855408 0.053986445 0.034404483
2490.5786 -1465.9158 -443.06494 0.96957481 -0.19391076 0.14940967 0.066246554
2502.6453 -1432.3427 -446.02069 0.89654183 -0.44292456 0.005533176 0.073745675
2489.7488 -1484.025 -441.90927 0.99219239 -0.033164252 0.1202265 0.07731653
2490.1741 -1467.9136 -478.84222 0.99518079 -0.047114272 -0.085996665 0.056196336
2502.1953 -1522.1501 -483.88406 0.93142956 0.36058289 0.049183127 0.027494352
2498.2617 -1417.9637 -478.22009 0.91647118 -0.27391788 -0.29163262 0.088923693
2493.866 -1442.0156 -477.80762 0.94801813 -0.24907298 -0.19805123 0.068201408
2493.3059 -1493.9283 -481.00937 0.97322696 0.22790183 -0.029834246 0.03400806
2534.3362 -1394.6841 -428.57272 0.64533436 -0.76018399 -0.075258635 0.13483116
2528.459 -1387.1226 -477.66379 0.65352196 -0.71560782 -0.24660592 0.11807025
2507.8188 -1404.0751 -477.80005 0.70848471 -0.6179198 -0.34091726 0.11814577
2526.4495 -1567.8997 -491.61133 0.81866479 0.47499365 0.32275221 0.044256385
2497.8943 -1432.6625 -469.93579 0.9024145 -0.34849152 -0.25338054 0.079667933
2536.8335 -1380.8091 -469.22104 0.70488822 -0.6842429 -0.18693377 0.1605818
2505.3521 -1413.3035 -469.23471 0.80483025 -0.4259854 -0.41326109 0.085713618
2517.4985 -1398.2197 -469.73962 0.64388907 -0.71534812 -0.27144778 0.11468826
2504.4792 -1530.1469 -475.43027 0.91384828 0.3863489 0.12496337 0.035094962
2519.4124 -1403.9824 -457.6106 0.73373961 -0.61715317 -0.28416228 0.10994803
2532.9304 -1387.7974 -459.07352 0.73811483 -0.63269192 -0.23428057 0.14194365
2496.1184 -1505.955 -457.16882 0.94776446 0.31410047 0.055528719 0.03231819
2508.4832 -1534.8131 -511.75949 0.87285709 0.46793723 -0.13840237 0.040882852
2535.3381 -1575.6277 -517.56824 0.70243484 0.68795609 -0.18248753 0.028053636
2499.4651 -1439.2021 -456.77484 0.91882932 -0.39338338 -0.031657033 0.07848566
2507.417 -1420.6692 -456.77298 0.82376432 -0.46747366 -0.3207503 0.093070544
2506.0044 -1537.0734 -460.49164 0.95660615 0.28352204 0.067230023 0.057163902
2491.5417 -1475.4014 -454.04065 0.99607921 -0.088015564 -0.008913896 0.072141342
2497.5288 -1505.5408 -510.11844 0.93592697 0.34404022 0.075345822 0.03971146
2493.7634 -1456.3281 -455.01648 0.98308378 -0.18292569 -0.0091919946 0.069395632
2529.4048 -1399.4033 -430.08261 0.7010504 -0.69860059 -0.14312796 0.12801686
2535.5562 -1384.7858 -458.50079 0.81567138 -0.53673512 -0.21586004 0.14533372
2512.7791 -1414.3677 -454.64816 0.81881863 -0.5106501 -0.26224503 0.096424781
2524.1641 -1398.5583 -457.37827 0.71501851 -0.65670115 -0.23977512 0.094413221
2497.2205 -1507.1368 -499.84155 0.94143319 0.33598691 0.028572289 0.030944221
2496.9917 -1446.316 -452.00125 0.95280027 -0.30359539 -0.0012041795 0.080379799
2510.9417 -1538.3528 -503.22144 0.87064159 0.48753303 -0.065534405 0.037234202
2489.0376 -1460.0487 -493.93988 0.9705714 -0.078066967 0.22780851 0.10749583
2491.0024 -1482.998 -449.85611 0.98984987 0.0018849523 0.14210449 0.060310952
2492.0476 -1448.0101 -500.99457 0.97232342 -0.20560367 0.11096995 0.11379845
2491.1318 -1484.9117 -498.56091 0.97483939 0.206715 0.0834089 0.056791745
2492.1243 -1463.4706 -450.81161 0.97269422 -0.21546255 0.086266488 0.064247899
2543.1606 -1581.8289 -509.02332 -0.68096733 -0.72561771 0.098805137 0.037051048
2503.436 -1430.8464 -453.82306 0.90382123 -0.42647308 -0.035040896 0.073500991
2537.4314 -1383.1272 -455.11508 0.82296067 -0.52983874 -0.20495531 0.14012401
2525.1431 -1399.1678 -455.01666 0.73878884 -0.65331578 -0.16543747 0.091010064
2500.7944 -1436.2435 -454.65131 0.91269779 -0.40540412 -0.051285911 0.075535014
2506.99 -1540.0031 -461.0007 0.9535138 0.29372779 0.067345686 0.055461116
2498.512 -1508.9418 -510.18433 0.93300468 0.35316354 0.069121711 0.038575388
2510.9456 -1417.4891 -453.82343 0.82542706 -0.51117057 -0.23953041 0.086214513
2498.3745 -1512.4963 -458.08624 0.95130306 0.30774653 0.01773743 0.03762728
2547.7439 -1589.2559 -523.68188 0.69611573 0.69594562 -0.17630246 0.033438262
2493.9932 -1458.6256 -455.19312 0.97433144 -0.22292833 0.031323388 0.060910076
2512.9832 -1543.8433 -514.24634 0.83456707 0.50992799 -0.20849758 0.045585752
2491.6533 -1479.0087 -454.99039 0.99996942 -0.005230146 0.0058156839 0.065045223
2515.0293 -1547.0286 -492.69897 0.84788495 0.51660013 0.11922852 0.031748831
2540.344 -1382.2465 -442.52313 0.82532823 -0.54486382 -0.14817806 0.12790306
2489.7542 -1457.5905 -485.91052 0.98267621 -0.10083991 -0.15549533 0.071107306
2492.4556 -1437.0413 -486.39847 0.95975155 -0.23169139 -0.15873274 0.082542665
2504.9277 -1426.803 -436.85425 0.85072744 -0.52389777 0.042354342 0.077014156
2491.187 -1483.1447 -486.96591 0.98369658 0.17504531 -0.041232828 0.050908558
2528.1431 -1398.6324 -442.13217 0.71010208 -0.63960242 -0.2943871 0.10041122
2522.939 -1391.7716 -491.90063 0.42954898 -0.90214729 -0.040223055 0.13148399
2517.6807 -1412.8976 -439.82065 0.79184735 -0.56054682 -0.24241489 0.085292548
2500.0911 -1514.7678 -489.10284 0.94066769 0.33875662 0.019705288 0.029312363
2543.2053 -1582.7583 -497.21335 0.71174359 0.69732505 0.084609866 0.035499707
2503.2727 -1423.8087 -465.1167 0.87851423 -0.3837451 -0.28452137 0.08407148
2532.4436 -1384.3347 -472.37265 0.72144192 -0.66696495 -0.18622378 0.14361817
2508.8267 -1408.0542 -468.59192 0.76950735 -0.48692685 -0.41323194 0.094891526
2518.7869 -1397.0742 -470.62445 0.65351373 -0.70308763 -0.28033489 0.10808571
2493.5793 -1454.8983 -461.93057 0.95974928 -0.23194225 -0.1583797 0.067870088
2497.4673 -1439.4286 -463.68915 0.92055023 -0.34313008 -0.18667886 0.079464003
2496.375 -1507.4248 -457.7901 0.93991554 0.33841559 0.04509563 0.032932989
2491.8345 -1473.8215 -460.90436 0.99796158 -0.056245279 -0.030152695 0.066719688
2507.1526 -1532.8308 -513.27423 0.8818385 0.45095924 -0.13782828 0.046086621
2500.9883 -1516.567 -512.83234 0.94035858 0.3378799 0.039533313 0.042758796
2492.4407 -1489.7852 -458.99362 0.98905498 0.14748234 0.0043865545 0.056163233
2509.4011 -1556.1477 -459.2027 0.92242748 0.22738752 0.31212577 0.048165172
2534.8896 -1575.1493 -517.49091 0.70243484 0.68795609 -0.18248753 0.028053636
2504.0344 -1531.0452 -459.06543 0.95368659 0.30009839 -0.02056192 0.045516241
2541.8853 -1382.4098 -453.84262 0.51430929 -0.77758402 -0.36173072 0.16578951
2522.8662 -1402.3676 -446.91409 0.72493088 -0.58682168 -0.36071527 0.093419604
2532.7024 -1391.3529 -448.65918 0.63774985 -0.71051067 -0.29740506 0.1034375
2506.0652 -1425.6454 -437.98578 0.85710126 -0.51514405 0.0020090481 0.083913818
2496.4893 -1437.4631 -433.54935 0.89394528 -0.41337597 0.17315339 0.11940398
2491.7253 -1447.3219 -430.53448 0.97366124 -0.19280541 0.1216956 0.13313964
2515.2029 -1414.6582 -443.60034 0.80359197 -0.51968962 -0.29010797 0.095840983
2520.0444 -1400.1055 -460.99506 0.66317081 -0.67319196 -0.32713461 0.10055675
2490.896 -1475.4672 -449.52509 0.99086851 -0.094556578 0.096117966 0.073728934
2491.9255 -1465.4354 -503.62 0.97183269 -0.077559642 0.22254372 0.10280389
2495.1387 -1500.9513 -499.99689 0.94330251 0.3312529 0.021258457 0.034024198
2532.8706 -1386.9424 -462.49786 0.68212885 -0.70833373 -0.18155882 0.13914345
2493.1694 -1458.4019 -451.83563 0.98055595 -0.18163489 0.074288756 0.066806644
2511.5085 -1413.3108 -457.20578 0.80655676 -0.49293837 -0.32630968 0.089527391
2504.0369 -1428.0463 -455.5809 0.88333178 -0.42913902 -0.18858589 0.08390709
2497.2776 -1443.5226 -453.03421 0.92527407 -0.37848857 -0.024784068 0.080628805
2504.1877 -1527.7601 -451.70352 0.93758523 0.34292433 -0.057765171 0.047705282
2528.4775 -1565.8423 -505.578 0.77488071 0.6252538 -0.092830963 0.041496731
2491.8252 -1494.4385 -448.45233 0.97961515 0.14381136 0.1402584 0.065775797
2504.9124 -1526.6051 -500.99414 0.9177056 0.39721748 0.0058909613 0.039314363
2530.0657 -1386.3578 -478.24658 0.61124015 -0.77870899 -0.14141357 0.11854652
2512.1084 -1401.1724 -477.27893 0.67253709 -0.68638247 -0.27671823 0.10750793
2500.5403 -1417.2202 -477.91733 0.86643416 -0.37002835 -0.33521765 0.092852265
2494.447 -1440.1128 -477.09708 0.94884634 -0.23929554 -0.20598125 0.069410384
2522.0046 -1559.5232 -490.31491 0.85234779 0.4480702 0.26969671 0.034886755
2501.2319 -1519.9106 -483.98474 0.93137753 0.35885885 0.061288022 0.025977185
2490.4822 -1462.9489 -478.94507 0.9896543 -0.097756088 -0.10501479 0.057191327
2492.1746 -1488.9629 -481.00894 0.97686273 0.20793931 -0.050004538 0.034879591
2491.3071 -1475.1211 -460.13358 0.99851686 -0.036572188 -0.040331293 0.064226262
2537.9114 -1381.064 -460.43283 0.76851332 -0.59444702 -0.23668541 0.16481437
2500.5808 -1433.2379 -459.11288 0.91080779 -0.37297425 -0.17697293 0.08262115
2509.5449 -1414.5864 -460.16626 0.79092044 -0.49302474 -0.36245203 0.090779588
2496.0872 -1501.9717 -514.99622 0.95029867 0.30857158 0.041425176 0.045797698
2493.8367 -1456.0237 -459.49121 0.96676785 -0.22672032 -0.11814345 0.067343503
2524.0864 -1397.1204 -459.77338 0.68134367 -0.67341262 -0.28685582 0.097206235
2518.2056 -1571.9657 -472.3457 0.83133447 0.21156906 0.51392752 0.036886845
2495.207 -1502.3562 -461.96408 0.95987487 0.27999344 0.015618443 0.035970625
2525.3853 -1567.729 -524.85406 0.70105618 0.66746604 -0.25101647 0.031196222
2507.9543 -1536.52 -518.83734 0.8868413 0.44099566 -0.1379685 0.049908791
2504.4434 -1531.8632 -464.72147 0.94679898 0.31257883 0.076590538 0.045746848
2492.7471 -1439.3983 -496.02609 0.97487724 -0.22226609 -0.014564067 0.11549404
2494.5417 -1424.9899 -496.92389 0.9748655 -0.15248176 -0.16243961 0.10282117
2489.3467 -1454.3519 -494.14386 0.98713052 -0.14802578 -0.060511645 0.093988784
2513.9963 -1395.9824 -502.00092 0.21010451 -0.97637832 0.050412394 0.10416414
2499.0024 -1512.9364 -491.92706 0.94235975 0.33381733 0.022893282 0.028159242
2511.8569 -1541.0818 -494.00967 0.86645049 0.49580264 0.058679815 0.036829311
2489.2886 -1472.899 -493.08151 0.99496621 0.077985808 -0.062932178 0.080223963
2527.2253 -1567.2234 -494.60956 0.81564516 0.51690149 0.25987649 0.053438924
2492.4866 -1491.2997 -492.04196 0.96242797 0.27105096 -0.016242465 0.043174211
2519.45 -1395.2031 -502.23267 0.19229589 -0.97795933 0.081349902 0.11484833
2490.6128 -1482.0488 -494.78647 0.98082894 0.1909534 -0.038876642 0.055937689
2521.8821 -1557.3192 -498.25406 0.84445328 0.52596384 0.10129512 0.037485246
2488.48 -1458.7958 -494.66608 0.98815066 -0.080082685 -0.1309391 0.087750055
2494.9495 -1423.8495 -496.90451 0.9859069 -0.14126232 -0.089624748 0.11414634
2546.3506 -1584.6499 -501.06064 0.70708615 0.70689213 -0.018239131 0.037124407
2492.3411 -1440.8542 -495.97803 0.97589558 -0.21579936 -0.032534257 0.1152854
2501.5945 -1519.9581 -493.95209 0.92783844 0.37258843 0.017137418 0.033486553
2493.7908 -1497.4019 -493.04578 0.9482094 0.31672004 -0.024234837 0.032446679
2491.7439 -1443.7455 -489.81042 0.96952838 -0.19647934 -0.1463235 0.085234061
2507.3953 -1531.3372 -498.97919 0.88959128 0.45670217 -0.0071038464 0.036593251
2488.8132 -1466.9473 -491.65073 0.98720437 -0.023820192 -0.15767096 0.07815294
2493.2053 -1493.6511 -494.02338 0.96039623 0.27801412 -0.018634062 0.043256611
2506.9297 -1405.2198 -487.19632 0.73735774 -0.67135578 0.074732728 0.10244358
2535.1594 -1573.6067 -505.92599 0.75299555 0.65732861 -0.030277463 0.039720155
2526.3962 -1390.6045 -490.85828 0.47191107 -0.88034374 0.04790407 0.11429199
2526.959 -1388.6056 -481.63318 0.53695434 -0.83575016 -0.11489887 0.11799674
2492.9263 -1441.0533 -482.87808 0.96336865 -0.20599134 -0.17172173 0.075982496
2489.6763 -1462.5309 -483.90714 0.98783302 -0.078552552 -0.13422151 0.068361863
2509.0996 -1402.2212 -481.29703 0.66592354 -0.69202644 -0.27864894 0.12416497
2535.3457 -1574.5297 -501.09937 0.77191639 0.62482548 0.1172103 0.04494172
2492.073 -1489.7834 -486.09897 0.9722538 0.2331586 -0.018964445 0.036881723
2498.855 -1418.9628 -482.04462 0.90008783 -0.30173638 -0.31432 0.079789646
2503.7874 -1525.2075 -491.9075 0.91314954 0.40487605 0.047257554 0.031526644
2501.342 -1516.7925 -515.80756 0.93911928 0.33930892 0.054077938 0.043988835
2492.9143 -1454.7698 -466.83893 0.96809739 -0.20532584 -0.14362706 0.062966026
2497.6414 -1437.7958 -468.20514 0.91879487 -0.32944605 -0.21744265 0.069577269
2511.7715 -1544.076 -517.40125 0.86931056 0.45335993 -0.19688547 0.04590765
2493.2642 -1493.2563 -514.79395 0.94653541 0.3108837 0.08615122 0.04677565
2491.7051 -1487.0342 -464.15594 0.98952156 0.1425394 -0.023012403 0.054612957
2535.9753 -1577.9255 -522.61517 -0.67422378 -0.70805079 0.20996742 0.025311148
2503.2881 -1421.1971 -469.56696 0.84972954 -0.41271847 -0.32805973 0.08238744
2525.2432 -1391.1774 -473.50183 0.67247736 -0.68015742 -0.29182199 0.10738651
2513.0967 -1405.2489 -470.08658 0.7271409 -0.58521956 -0.35886517 0.10118838
2490.5747 -1471.1654 -466.14008 0.99065703 -0.10408667 -0.088117212 0.056596484
2506.3381 -1536.9348 -465.71118 0.94945431 0.302966 0.082146659 0.046357736
2498.4688 -1513.2386 -465.98972 0.95557493 0.29472136 0.0039806808 0.031378105
2510.4653 -1539.5519 -513.68005 0.86508286 0.47021231 -0.17473418 0.04715373
2541.4014 -1582.4387 -520.96967 0.70796961 0.67652625 -0.20270987 0.031610508
2531.8057 -1395.0175 -439.15106 0.71751827 -0.66993117 -0.1906824 0.1056553
2489.647 -1476.5927 -483.27924 0.99095482 0.11068498 -0.075877562 0.063920282
2518.8726 -1411.3129 -437.47668 0.80157006 -0.56199807 -0.20406781 0.088081248
2490.3125 -1458.8285 -483.76096 0.98513854 -0.10013462 -0.13955332 0.06679374
2489.2324 -1459.7401 -434.72256 0.93785489 -0.20486985 0.280101 0.081844628
2506.5708 -1424.7494 -435.0108 0.86334044 -0.50415373 0.021733422 0.087393388
2495.3167 -1502.5411 -484.98981 0.94428027 0.32906136 0.0073103923 0.026756208
2511.4834 -1540.4531 -489.46548 0.87516665 0.47534022 0.090194166 0.03542592
2530.6155 -1573.0215 -493.49432 0.80279249 0.47947201 0.35444435 0.045503981
2495.0977 -1439.7822 -434.97342 0.88094807 -0.36963546 0.29546601 0.093717016
2493.7705 -1440.5881 -483.76825 0.95762241 -0.21703935 -0.18934958 0.074113376
2493.2366 -1494.3174 -465.0032 0.98418206 0.17715114 0.0017815037 0.045873534
2531.4495 -1388.4585 -461.81641 0.69359386 -0.6822319 -0.23127295 0.13648394
2506.4431 -1531.3389 -520.78027 0.9343257 0.35171652 -0.057714254 0.054463007
2502.6982 -1524.1056 -469.008 0.94354886 0.33028871 0.024999203 0.036860246
2516.7739 -1405.2727 -461.14755 0.75622338 -0.5867461 -0.28957763 0.10645087
2517.6086 -1557.1932 -524.98633 0.78502411 0.54371893 -0.29682809 0.034931265
2512.6292 -1552.5565 -470.89575 0.8941431 0.35565519 0.27206153 0.038157053
2496.6514 -1443.5536 -461.79071 0.93920213 -0.31088975 -0.14576329 0.075910263
2505.4534 -1423.6871 -460.64841 0.86157465 -0.43827966 -0.25612506 0.083896928
2491.9407 -1471.1648 -464.35629 0.9932937 -0.091577359 -0.070577852 0.066830285
2491.8176 -1473.097 -452.81372 0.98914462 -0.10916318 0.098368391 0.067698121
2517.3828 -1409.4647 -450.39426 0.79744858 -0.57949644 -0.16810609 0.087062337
2494.7227 -1500.4019 -454.5799 0.97201794 0.21706712 0.089793898 0.057444774
2505.469 -1428.2465 -450.33273 0.89312595 -0.44543937 -0.062528618 0.068626881
2503.9121 -1530.5468 -455.90948 0.95662212 0.29083407 -0.017018765 0.052358091
2531.7803 -1392.1095 -451.05475 0.75404888 -0.63211173 -0.17845178 0.10368625
2505.6965 -1526.9921 -508.93973 0.91818225 0.39542869 -0.02403144 0.040354293
2496.8604 -1449.5964 -451.73581 0.94577956 -0.31747499 0.068633854 0.06993477
2529.9763 -1568.7762 -514.50696 0.73927879 0.64886206 -0.18012461 0.028963212
2494.2297 -1497.5366 -505.27716 0.95038098 0.30614868 0.055217512 0.037625775
2495.8208 -1502.4314 -498.93835 0.94596177 0.32397774 -0.013955301 0.035050403
2530.9563 -1391.1647 -455.95779 0.75156134 -0.62263346 -0.21790615 0.11997934
2494.6375 -1454.1715 -450.38242 0.96509159 -0.23780432 0.10976037 0.069680527
2500.5996 -1436.9055 -450.9126 0.90938085 -0.41464439 -0.033113826 0.073693193
2491.0981 -1473.4415 -449.66357 0.98470587 -0.11218625 0.13329881 0.069566429
2489.8462 -1475.0129 -497.00391 0.9961462 0.083971538 0.025328996 0.082085148
2509.8201 -1421.1859 -451.92245 0.84176117 -0.51951516 -0.14677219 0.073910899
2519.5254 -1405.6581 -453.53918 0.77511972 -0.57892311 -0.25305629 0.096245416
2489.6436 -1459.0992 -499.2811 0.99368507 -0.10711101 0.033425402 0.11787412
2505.1208 -1526.8485 -500 0.91138637 0.41155183 -5.4398929e-06 0.039253909
2528.0723 -1565.1416 -504.54156 0.77770233 0.62204462 -0.090772256 0.039841112
2495.3047 -1429.9915 -485.61478 0.94296622 -0.28291428 -0.1754258 0.096754462
2510.4939 -1402.7585 -489.05078 0.68082488 -0.73237938 -0.009896501 0.12259848
2491.8262 -1446.9283 -484.63925 0.97379547 -0.18731228 -0.12898263 0.080350168
2522.6584 -1392.7585 -491.76959 0.41887575 -0.90731752 0.036304262 0.12558773
2489.7209 -1462.4823 -483.77527 0.98750299 -0.083250076 -0.13381785 0.066737689
2490.0083 -1480.0947 -482.39069 0.98679984 0.14868985 -0.064167157 0.052630227
2522.3835 -1562.7589 -486.64996 0.85060829 0.39934966 0.3420313 0.03441358
2504.7988 -1529.1729 -482.84021 0.9056161 0.41639748 0.080452785 0.027263587
2496.1604 -1505.2617 -482.94727 0.94602263 0.32327709 0.023088744 0.029073229
2527.3691 -1399.5342 -439.41171 0.71370846 -0.69827855 -0.055020921 0.10547592
2492.5359 -1447.1083 -481.08652 0.96812391 -0.19568436 -0.15634483 0.067739792
2492.302 -1489.3599 -479.91071 0.97698259 0.20703821 -0.051382449 0.035475709
2538.0159 -1388.1149 -440.45578 0.71101332 -0.6755904 -0.19503252 0.12541778
2496.2366 -1429.7936 -481.78909 0.93274772 -0.25214747 -0.25768849 0.090740442
2490.1841 -1468.8608 -480.65598 0.99530369 -0.036299117 -0.089737982 0.060213827
2507.8813 -1400.8789 -484.41623 0.59206891 -0.79317552 -0.14257298 0.10365034
2507.886 -1540.9421 -526.50275 0.87992626 0.42343387 -0.21548438 0.075223386
2538.3828 -1583.5292 -533.39026 -0.60130572 -0.75288081 0.2675854 0.037354976
2499.835 -1506.7897 -524.31757 0.93066329 0.33945787 0.1365073 0.076257251
2495.842 -1447.2145 -444.77371 0.95199764 -0.30092537 0.056075297 0.086410381
2524.8755 -1399.5365 -450.07144 0.72225249 -0.63712317 -0.26911971 0.092209943
2492.9077 -1492.933 -497.96008 0.95730466 0.28881684 -0.012354565 0.045924265
2488.7517 -1464.1052 -496.10339 0.99647152 -0.059881136 -0.058811404 0.092699133
2537.5215 -1385.5079 -451.47128 0.69365025 -0.68751979 -0.21486257 0.12369004
2490.5811 -1466.9176 -445.05957 0.97177404 -0.19121093 0.13817957 0.064843856
2503.3708 -1430.7277 -446.92819 0.89985251 -0.43550146 -0.02457422 0.078353487
2513.7727 -1414.7382 -448.87338 0.81862211 -0.51319057 -0.25786284 0.08456599
2522.8723 -1557.6573 -503.539 0.83714318 0.53893381 -0.09349703 0.031005155
2502.4526 -1520.0508 -500.01523 0.92442024 0.38133532 0.0055312794 0.035294201
2490.0227 -1486.9257 -443.71353 0.98946553 0.036340009 0.14013354 0.075684816
2491.4048 -1477.004 -462.01953 0.99878943 -0.0099558765 -0.048172522 0.063165784
2511.3477 -1412.9918 -459.34167 0.80819428 -0.49308994 -0.32200047 0.090232253
2539.738 -1379.558 -460.58463 0.7222895 -0.64750755 -0.24296466 0.16950925
2493.9065 -1454.4752 -460.68054 0.95954245 -0.24050371 -0.14641118 0.067092255
2523.7512 -1396.8091 -460.18008 0.67018139 -0.68426943 -0.28745827 0.10136973
2500.8557 -1433.1155 -459.62814 0.91278988 -0.3765116 -0.15828334 0.076603383
2495.676 -1504.444 -464.98581 0.9491052 0.31485671 0.0080340914 0.032613538
2543.5718 -1586.4453 -528.88861 -0.68211794 -0.70938331 0.17745566 0.038036399
2508.6785 -1541.4493 -470.2551 0.93134069 0.31668723 0.17975999 0.045100391
2508.689 -1538.1617 -518.9375 0.87343395 0.45423549 -0.17545149 0.049225487
2515.8091 -1567.9022 -469.93225 0.85194892 0.24553071 0.46249077 0.028951729
2523.9041 -1394.9261 -464.22137 0.67540675 -0.68054175 -0.28405738 0.10283106
2513.6804 -1408.1115 -461.32703 0.76393336 -0.51440299 -0.38960928 0.096428722
2536.8547 -1382.1965 -466.06018 0.66507393 -0.72402942 -0.1829154 0.15495506
2509.6238 -1551.1163 -459.05344 0.94672006 0.29263607 0.1344815 0.063268088
2505.2749 -1424.5295 -459.703 0.86107874 -0.45019907 -0.23635617 0.081778891
2498.1338 -1441.0643 -458.47925 0.92462444 -0.3678028 -0.098948173 0.087361231
2502.7371 -1524.7498 -458.04196 0.94554722 0.32100475 -0.053818397 0.042052906
2494.593 -1499.8743 -456.96881 0.97695094 0.20719054 0.051370971 0.054516014
2531.2832 -1570.6489 -513.87048 0.73479497 0.66517061 -0.13275704 0.03621548
2491.6638 -1478.9774 -457.01859 0.99976039 -0.016909171 0.013900165 0.065783903
2500.0005 -1513.8036 -509.25519 0.93957537 0.33896589 0.047960315 0.040849358
2508.2161 -1533.8842 -510.02673 0.8761375 0.4697057 -0.10844209 0.038195301
2493.1807 -1458.8345 -457.90561 0.97399807 -0.19680993 -0.11222145 0.066126451
2494.2996 -1501.4169 -450.74811 0.9639008 0.24442998 0.1055898 0.050688658
2510.1982 -1416.3632 -456.92764 0.81983829 -0.47895643 -0.31379285 0.084301487
2529.4055 -1389.8564 -463.11511 0.64689654 -0.73256588 -0.21183035 0.12448771
2518.9187 -1402.4359 -460.1929 0.73251569 -0.6113764 -0.29939875 0.10722998
2502.0933 -1430.911 -456.44299 0.90013927 -0.39174289 -0.19049084 0.085379995
2496.4597 -1449.1655 -455.00522 0.9628433 -0.27005967 0.00076677231 0.074395597
2497.7532 -1508.0881 -500.99985 0.94176519 0.33627057 -0.00061336212 0.029136194
2492.3623 -1463.8579 -453.04169 0.97407818 -0.21706988 0.063658454 0.060958687
2509.0044 -1533.9976 -503.00021 0.87203848 0.48768732 -0.041352205 0.035593439
2504.6228 -1531.0168 -452.76755 0.9554646 0.28768477 -0.065764166 0.064314269
2491.0164 -1481.0223 -450.71045 0.98978627 -0.010960768 0.14213715 0.06088005
2538.0339 -1576.4681 -507.56979 0.75027442 0.65609807 -0.081385709 0.035227533
2527.2544 -1394.2301 -458.08261 0.72097039 -0.65220481 -0.23415926 0.09709511
2507.343 -1423.8673 -454.10196 0.86650616 -0.47983876 -0.13755663 0.081004135
2499.3452 -1439.8885 -452.87027 0.92148221 -0.385802 -0.045026179 0.072207958
2493.8125 -1456.5153 -451.21683 0.97177637 -0.21534643 0.096314892 0.067108355
2539.4695 -1379.7366 -459.52521 0.75002688 -0.6191318 -0.23267031 0.16594805
2516.5161 -1407.3528 -455.20288 0.785236 -0.53678691 -0.308649 0.089061297
2491.1091 -1475.0115 -449.98563 0.98613185 -0.10337473 0.12983683 0.068468787
2528.6475 -1566.0914 -505.83795 0.77488071 0.6252538 -0.092830963 0.041496731
2502.5137 -1523.1667 -450.97861 0.94508874 0.32415965 -0.041566581 0.042209167
2496.7002 -1505.4674 -501.00351 0.94100714 0.33837706 0.0025484089 0.033752572
2506.6484 -1529.6713 -502.0159 0.89171189 0.4520756 -0.021852082 0.039307084
2491.5239 -1493.8046 -448.73151 0.97706956 0.12530361 0.17214569 0.066470996
2537.0093 -1395.012 -427.00317 0.59657311 -0.77564859 -0.20608193 0.12757802
2516.6379 -1553.1704 -483.11523 0.86941779 0.40928054 0.27677101 0.027101347
2503.0811 -1416.9238 -471.74664 0.84353256 -0.39763895 -0.36102086 0.077865325
2501.0439 -1518.3369 -478.0354 0.9425751 0.33216619 0.03489738 0.02887118
2492.4377 -1489.7118 -474.94379 0.98050004 0.19590852 -0.015475045 0.041647192
2496.1948 -1438.4072 -471.52713 0.92197078 -0.30272743 -0.24150765 0.066462003
2491.4192 -1460.0709 -472.06723 0.97389191 -0.16475572 -0.15617335 0.057474706
2515.9292 -1399.9077 -471.43555 0.67824483 -0.66250777 -0.317911 0.10503557
2533.0449 -1382.8383 -471.77213 0.75910032 -0.60681951 -0.23566258 0.15064971
2502.7356 -1426.3251 -463.21402 0.88385767 -0.3907024 -0.257191 0.086100094
2523.3813 -1394.5361 -465.90121 0.66516322 -0.68865728 -0.28863302 0.10238477
2510.6528 -1409.0502 -463.9671 0.75677079 -0.48085722 -0.44280276 0.089569576
2538.8184 -1378.8381 -466.95267 0.73279488 -0.65310144 -0.19097154 0.17111056
2498.2007 -1512.311 -464.00143 0.95433331 0.29874337 -0.00062219653 0.034056462
2509.8354 -1541.4108 -519.60663 0.85752177 0.48062506 -0.18345554 0.049858581
