# .PCD v0.7 - Point Cloud Data file format
VERSION 0.7
FIELDS x y z normal_x normal_y normal_z curvature
SIZE 4 4 4 4 4 4 4
TYPE F F F F F F F
COUNT 1 1 1 1 1 1 1
WIDTH 620
HEIGHT 1
VIEWPOINT 0 0 0 1 0 0 0
POINTS 620
DATA ascii
2680.3877 6.4624949 -66.343033 0.8825196 -0.41564801 -0.21999067 0.12567015
2674.2417 -46.019287 -64.043884 0.9980073 0.025388153 0.057765562 0.10952184
2694.4009 25.287943 -65.194984 0.73110467 -0.64358932 -0.22644807 0.13904038
2674.9167 -31.599546 -65.202354 0.99401736 -0.097483188 0.049259648 0.11807483
2675.9631 -17.608324 -64.398804 0.99000508 -0.076984555 -0.11816629 0.13290891
2685.9097 -80.774933 -66.969193 0.85571826 0.48975217 0.16700026 0.10728855
2676.2473 -6.6135197 -64.962814 0.96897614 -0.24712937 0.0035159062 0.12729582
2676.729 -60.276176 -64.082146 0.97525549 0.21190529 0.063031137 0.11129327
2674.1367 -21.390612 -63.610523 0.99771005 -0.047895528 0.047756441 0.12673908
2673.634 -35.289818 -64.003731 0.99904698 -0.043644801 -0.00056172663 0.10851117
2676.0066 -9.8644981 -63.666 0.97859251 -0.20258266 0.036289904 0.14054058
2678.0442 0.88265771 -65.17112 0.93841082 -0.32344958 -0.12151358 0.12769763
2705.957 33.645538 -64.603027 0.60693228 -0.78595459 -0.11793469 0.1403034
2683.321 12.380846 -65.32711 0.82158655 -0.55482 -0.13103539 0.10386524
2686.002 -83.90374 -64.405167 0.86083746 0.50359803 0.073129408 0.11374888
2696.2502 -98.330292 -63.522621 0.7319926 0.63201743 0.25444221 0.11253492
2676.0789 -59.871986 -64.533745 0.97111464 0.21568665 -0.10205693 0.11546732
2673.5789 -47.373405 -63.990376 0.99549395 0.094813615 0.0014565096 0.11454339
2678.5779 -69.659828 -65.00338 0.92161191 0.37813914 -0.087420188 0.10291861
2721.9739 39.200802 -44.666214 0.36214858 -0.88055956 -0.30571753 0.16938905
2708.1907 31.028248 -41.730549 0.60575145 -0.76966655 -0.20168933 0.13379669
2682.2295 1.4904062 -42.549755 0.89533377 -0.41850775 -0.1524096 0.12233594
2692.7458 16.431915 -42.187767 0.77999532 -0.59417039 -0.19638951 0.10183841
2688.8999 -81.068504 -83.027336 0.80498308 0.55104059 0.21990106 0.088713899
2703.676 -99.345924 -84.030373 0.76610541 0.62537855 0.14827041 0.067595735
2681.0415 -66.156479 -81.609268 0.91009212 0.37602311 0.17418095 0.1090431
2673.7258 -40.996624 -81.994385 0.99971449 -0.012313284 -0.020477723 0.10919533
2675.0161 -53.825787 -81.995903 0.9856078 0.16900124 0.0039772606 0.11389404
2673.3923 -27.108215 -82.221313 0.99895805 -0.020047322 -0.040999457 0.11590162
2672.488 -29.469368 -79.376945 0.99835682 -0.044679098 -0.03588108 0.12395101
2672.2332 -53.41922 -79.103432 0.98147976 0.1914122 -0.007671339 0.092596255
2689.5474 11.742427 -37.315674 0.79134327 -0.56688267 -0.22895379 0.10014555
2684.123 3.0783739 -35.858929 0.86525285 -0.49710014 -0.065030657 0.1267723
2695.6162 21.975428 -39.32465 0.74256408 -0.60539371 -0.28652591 0.10350034
2706.4739 31.929264 -41.8531 0.35855231 -0.80709469 -0.46908247 0.10885196
2706.4126 -99.178871 -110.85914 0.84619671 0.45157686 0.28289473 0.10522887
2697.6118 -84.783089 -110.3151 0.78566658 0.54803026 0.28703809 0.13946849
2677.7974 -3.7749679 -66.523483 0.96533829 -0.25207579 0.067673773 0.12851885
2674.4817 -29.025457 -66.978111 0.99757969 -0.052725833 0.045329191 0.11435576
2673.426 -42.042488 -66.829254 0.99971944 -0.0057199849 0.022986345 0.11482064
2675.8865 -15.59716 -66.467934 0.98709381 -0.096667111 -0.12767661 0.13116591
2674.6821 -54.40374 -66.981148 0.9871285 0.15984939 0.0050530871 0.11413224
2704.9929 23.090063 -24.77227 0.68427074 -0.69844037 -0.20965345 0.13380744
2696.74 28.397505 -65.063164 0.71364498 -0.61532009 -0.33480147 0.13487431
2682.0381 9.0073957 -67.413429 0.88444871 -0.43076575 -0.17941964 0.14235222
2702.4648 -100.49594 -83.329811 -0.69355297 -0.69776684 -0.1791807 0.060887419
2679.1025 -7.0399547 -41.008972 0.92880231 -0.36156815 -0.081208147 0.12906584
2675.8069 -62.520878 -83.87719 0.94726574 0.30496117 0.098419189 0.092381053
2686.6074 6.97122 -40.482479 0.85721993 -0.49807125 -0.13076328 0.11529914
2669.7761 -49.602146 -84.189651 0.98216337 0.18773723 -0.010478418 0.10090255
2684.2944 -75.868416 -83.591522 0.85809761 0.4860208 0.1656874 0.088762455
2705.5767 33.445286 -47.121986 0.46158621 -0.81098771 -0.35949558 0.12654591
2688.6362 13.41849 -42.531738 0.80847913 -0.55815655 -0.18660872 0.097277306
2698.4868 24.876472 -44.427757 0.70165801 -0.66235703 -0.26260081 0.11489782
2685.2854 13.822286 -55.233368 0.84277797 -0.50619769 -0.18300053 0.10292401
2677.1628 -7.2800131 -54.105267 0.96382767 -0.23983215 -0.11626175 0.1171188
2682.8491 5.30966 -53.846069 0.89760447 -0.39418107 -0.19730061 0.11706609
2704.49 34.397156 -51.345181 0.50767654 -0.85421544 0.11216297 0.1247598
2702.5776 29.900265 -53.811356 0.65030777 -0.74521738 -0.14748165 0.12530956
2677.2717 -54.078579 -97.288147 0.95797241 0.27714103 0.074038886 0.14865056
2689.6289 -74.831795 -99.234932 0.86015201 0.50381285 0.079442322 0.1203223
2672.5491 -40.470505 -93.009575 0.91192865 0.14188935 -0.38503712 0.13073918
2670.5017 -27.169931 -92.460388 0.91576475 0.12606896 -0.38142043 0.12868282
2689.5237 -74.218674 -106.57666 0.77132922 0.49703473 0.3975018 0.12203147
2674.8521 -21.870869 -67.83329 0.99776393 -0.040928237 -0.052839417 0.12966621
2676.5117 -8.6995516 -67.756767 0.96788055 -0.19540451 -0.15819097 0.13960278
2682.625 11.813236 -68.828949 0.82351589 -0.56018412 -0.089528441 0.10953318
2705.8499 32.900444 -68.867699 0.59512109 -0.80280131 -0.036618508 0.15140106
2674.1562 -47.989101 -68.003578 0.99731255 0.06961146 -0.022846691 0.11510529
2702.675 -93.845772 -112.75023 0.81731403 0.5631575 0.12186627 0.13086469
2674.0737 -35.17635 -67.995148 0.99640083 -0.084734574 0.0023324606 0.1130923
2678.8552 0.67583835 -68.173035 0.94677883 -0.32099637 -0.023898773 0.13802838
2676.3633 -17.832493 -56.775829 0.98569661 -0.10087903 -0.13500243 0.12750043
2696.4768 -87.442657 -101.87379 0.77946079 0.57331902 0.25248012 0.10612504
2673.6919 -31.325415 -56.705101 0.99564803 -0.06905584 0.062580302 0.11595697
2674.8311 -43.477886 -61.442703 0.97110492 -0.035784513 0.23595487 0.11129559
2709.1843 -104.63871 -103.0881 0.78452289 0.61428314 0.084734716 0.082757264
2691.644 20.546724 -58.15007 0.80335152 -0.56532681 -0.18716808 0.11968312
2687.8518 11.305717 -55.878414 0.84270221 -0.45309269 -0.29079199 0.12430932
2700.9907 29.531481 -58.408649 0.66455168 -0.74413705 -0.068052143 0.13736416
2670.7932 -38.645126 -97.62973 0.90935028 0.14656848 -0.3893581 0.13228831
2680.3809 -3.1130702 -56.956261 0.93526411 -0.22919813 -0.26972073 0.12876175
2674.4714 -47.98708 -97.804047 0.95707095 0.15447386 0.24526109 0.16339378
2686.4248 -71.995583 -99.547798 0.80735844 0.50320566 0.30814993 0.10298931
2688.4617 19.287554 -68.361786 0.79344279 -0.60742784 -0.03847041 0.10295825
2700.2751 27.37595 -62.666962 0.46683061 -0.79035753 0.39674193 0.14447317
2676.6729 -3.8886259 -67.876778 0.9706673 -0.24020834 0.010246666 0.13697135
2676.1023 -25.645828 -67.904938 0.98945612 -0.11261832 -0.091069631 0.14553735
2680.845 7.0664091 -68.505394 0.87224609 -0.48652115 -0.049838986 0.1292088
2674.2573 -15.509212 -67.457085 0.99000239 -0.13272378 0.047745578 0.13886164
2708.0928 27.441826 -35.038494 0.41047737 -0.7377035 -0.53600544 0.13621597
2689.7439 12.179373 -33.801651 0.76446664 -0.5963164 -0.2449439 0.096835367
2709.5046 -104.07759 -110.43881 0.78104097 0.59945959 0.1749949 0.10177074
2675.2871 -58.018131 -65.266922 0.98198086 0.18236177 -0.049575828 0.10818559
2700.4482 -93.483406 -110.60233 0.8568027 0.49805808 -0.13351905 0.14975768
2675.4443 -19.799576 -64.719208 0.99532634 -0.056103654 -0.078599535 0.13489562
2674.2034 -46.027542 -65.039284 0.99819183 0.034507431 0.049217027 0.11075217
2679.7014 2.6929948 -65.889519 0.91744018 -0.3712346 -0.14313784 0.13986412
2674.4792 -32.873791 -65.128639 0.99305159 -0.082414202 0.084002435 0.11656821
2676.9221 -7.8314509 -65.250206 0.97636163 -0.20697512 -0.062283762 0.1285442
2689.9968 20.46771 -65.270691 0.77395445 -0.5670889 -0.28178841 0.12380251
2678.4543 -12.855068 -56.651054 0.96535516 -0.16885372 -0.19894175 0.13720015
2692.7478 23.002445 -59.685947 0.79285246 -0.57637739 -0.19792451 0.12423591
2683.0642 8.3862238 -58.922405 0.87720126 -0.45275679 -0.15977861 0.11561761
2680.0193 -1.5616088 -58.634842 0.9220621 -0.25644869 -0.28988886 0.12977378
2699.8303 29.286343 -57.754314 0.61305928 -0.7820856 0.11180521 0.12594488
2669.8264 -20.986712 -102.77403 0.98190165 -0.01111796 -0.18906495 0.17596191
2698.8335 -89.406944 -104.58932 0.81766129 0.53099835 0.22242022 0.11449686
2672.563 -34.452106 -99.394112 0.97482479 -0.038114853 0.21969034 0.18600076
2674.1931 -46.081856 -101.18133 0.97307163 0.17204326 0.15340355 0.13081987
2681.3708 -58.83754 -100.3307 0.84242016 0.33917663 0.41867346 0.1209601
2684.8921 -69.596519 -100.27212 0.79938954 0.51075065 0.31640187 0.095748849
2694.2358 14.696415 -76.255455 0.62776726 -0.63588125 0.44895807 0.12931515
2687.1682 3.328696 -75.919754 0.74705821 -0.44463876 0.49416637 0.15294898
2675.5693 -5.8256502 -79.841476 0.98670697 -0.12023798 -0.10932594 0.15114409
2674.22 -18.903641 -79.880859 0.99631536 -0.053934123 -0.066684201 0.13825727
2674.9993 -32.288967 -79.27787 0.9949047 -0.070736438 -0.071840011 0.11863872
2672.262 -16.84271 -92.462967 0.97974801 -0.056281462 -0.1921621 0.13808268
2681.0581 -60.984135 -92.629723 0.92157501 0.37001169 0.11743461 0.12156174
2680.865 -67.708664 -76.307625 0.94032687 0.31213233 0.1354944 0.10472742
2675.0674 -53.989582 -76.000488 0.98824507 0.15270835 -0.007196954 0.11050437
2698.8303 20.601475 -34.794899 0.73930675 -0.63856816 -0.21367325 0.11245592
2673.7139 -39.993927 -75.994789 0.99960923 -0.021219371 -0.018197291 0.11005212
2715.9827 34.036156 -34.565613 0.57588917 -0.77032822 -0.27376276 0.13663246
2673.7896 -27.010309 -76.057289 0.99729383 -0.01302067 -0.072356634 0.12054282
2674.2859 -14.25973 -76.169846 0.99556953 -0.078696221 -0.051461417 0.13114347
2677.8269 -1.0537689 -76.125755 0.96363223 -0.26534918 -0.031666201 0.14512597
2677.2559 -12.121151 -61.682552 0.96403098 -0.14749765 -0.22110802 0.13890964
2694.6519 -82.548134 -105.56004 0.78902501 0.52975672 0.3111228 0.090683244
2681.7261 2.1724792 -60.543606 0.91163844 -0.27227923 -0.30786264 0.13902713
2705.8818 -100.14066 -108.44331 0.86588341 0.46627107 0.18121031 0.10517142
2674.4458 -38.658512 -62.75457 0.98386163 -0.073773757 0.16301464 0.11384232
2673.9792 -51.8088 -61.85627 0.99277568 0.095909066 0.072096333 0.11776683
2675.4099 -25.458145 -63.295643 0.99395901 -0.096344464 0.05256677 0.13286695
2695.3723 25.666519 -63.086227 0.73401201 -0.65751147 -0.17001475 0.14051354
2682.8203 10.447124 -63.808979 0.84958309 -0.46778378 -0.24369435 0.11265325
2675.7974 -16.053686 -77.09774 0.98805702 0.0043470459 -0.15402734 0.12502721
2673.9009 -41.923626 -78.977135 0.99981093 -0.018628623 -0.0055765323 0.11088794
2673.1724 -29.375938 -79.287117 0.99707603 -0.060729586 -0.046381697 0.12379383
2682.8335 0.19789796 -38.201508 0.91156322 -0.39876878 -0.10017961 0.12540813
2687.4302 -81.471764 -79.551392 0.83637524 0.5259642 0.15439603 0.083935812
2692.4326 14.682765 -38.110062 0.78994542 -0.57930392 -0.20098048 0.1122207
2680.1895 -68.146629 -78.777802 0.92759371 0.36153585 0.094137006 0.094879471
2718.7397 -111.50265 -81.117874 -0.45011842 -0.86938459 -0.20387207 0.1002293
2675.7134 -56.227726 -78.986282 0.98464006 0.17428061 -0.010497684 0.11501504
2696.7126 -93.684875 -79.197815 0.74209118 0.63335603 0.21945569 0.080849737
2713.3796 34.047203 -37.104012 0.67680877 -0.72820902 -0.10789583 0.13141872
2691.2148 -90.189308 -68.476494 0.81241232 0.54125845 0.21685374 0.10481837
2696.1248 -97.543365 -66.09758 0.72660607 0.63189042 0.26973709 0.10735991
2677.1169 -61.441765 -68.020935 0.96689981 0.25497711 -0.009561507 0.12179059
2718.4863 -112.5479 -67.748131 -0.37520471 -0.87141269 -0.31600848 0.15937811
2683.3601 -76.841316 -68.606003 0.88263541 0.44649845 0.14694858 0.092291512
2686.9661 17.654898 -65.081642 0.81618321 -0.54976666 -0.17776825 0.10702094
2681.8228 7.2114859 -64.420609 0.89788342 -0.38842684 -0.20719557 0.13173577
2673.7834 -31.256519 -63.72451 0.99788851 -0.04426112 0.047534402 0.11879368
2674.8203 -45.276081 -64.472008 0.99711227 0.038341701 0.065552033 0.11411168
2713.1223 -112.85471 -64.957001 -0.62799031 -0.74622947 -0.22083876 0.15370388
2692.6165 -94.375717 -62.989357 0.77514493 0.60856575 0.16970009 0.11862551
2677.0994 -6.1176434 -64.700974 0.96812397 -0.21219054 -0.13308345 0.13424858
2675.2817 -18.097025 -64.08065 0.99519116 -0.07532604 -0.062613882 0.12040283
2679.2749 -68.925865 -64.312553 0.92922992 0.36537701 -0.05505868 0.10552491
2684.0933 -80.966309 -63.278271 0.86589533 0.49240535 0.088103689 0.11607074
2675.697 -57.438805 -64.034004 0.97895509 0.20370218 -0.012341502 0.11598549
2687.3037 17.369596 -65.684372 0.79328281 -0.56140095 -0.23565081 0.11083423
2675.3594 -58.752293 -66.610535 0.97696507 0.19168155 -0.093794964 0.108624
2676.1941 -8.9575329 -64.909882 0.97803169 -0.20823573 0.0095861964 0.13809721
2673.8477 -46.897198 -66.028816 0.99833459 0.055548482 -0.015570217 0.11541272
2680.374 4.01438 -65.432289 0.91077721 -0.37812775 -0.16584407 0.13304074
2682.7229 -75.993095 -66.418297 0.90287924 0.42072827 0.088299349 0.091920808
2709.5059 35.797337 -65.339333 0.54328364 -0.82712412 -0.14390473 0.14492483
2673.5862 -33.326397 -65.217514 0.99866599 -0.042968091 -0.028634867 0.1104973
2674.488 -20.417248 -64.859276 0.99770474 -0.064163402 0.021640772 0.12771575
2716.3696 -111.3909 -73.258484 -0.62557489 -0.68071085 -0.38116765 0.18290111
2696.0815 -93.867767 -70.407112 0.75935227 0.56269985 0.32673073 0.13001257
2723.5876 41.991447 -42.724434 0.57481754 -0.81055844 -0.11216006 0.17220907
2673.3831 -24.769506 -44.051678 0.94335669 -0.24418798 0.22461164 0.12315279
2687.9453 10.616589 -42.469833 0.79960114 -0.56863278 -0.19311847 0.10257628
2678.0144 -10.419541 -42.239555 0.91768003 -0.39561909 0.036726896 0.12400619
2704.4026 27.863432 -41.585915 0.64175767 -0.74864596 -0.16636214 0.13372827
2681.4639 -1.0436288 -42.368279 0.91220218 -0.38638842 -0.13634928 0.12259877
2674.009 -40.065998 -42.307255 0.99694169 -0.016412266 -0.076406144 0.14243661
2685.3562 -80.54245 -73.474174 0.86618334 0.488666 0.10455616 0.097309247
2707.208 -106.25172 -74.074623 -0.63907951 -0.74672079 -0.18435144 0.10110724
2673.2957 -54.214733 -74.641609 0.98344511 0.17052771 -0.06128649 0.099414073
2678.8818 -67.646927 -73.869202 0.94380462 0.32897049 0.031800341 0.10519101
2689.8752 -88.902138 -71.488892 0.79523563 0.57158422 0.20221718 0.11267323
2673.8818 -42.985432 -75.01226 0.99976695 0.016519589 -0.013898109 0.10685425
2711.6907 31.30682 -38.009678 0.20592311 -0.8184008 -0.53648466 0.12141949
2676.8608 -9.9268951 -31.001593 0.88530779 -0.46489516 0.010131125 0.13291863
2685.616 5.5164661 -31.445995 0.77762556 -0.62373108 0.079108 0.12650117
2702.0229 23.576183 -34.06649 0.62761819 -0.677706 -0.38315785 0.11553294
2689.6768 10.751924 -32.261448 0.72589731 -0.65934765 -0.19579026 0.10500828
2676.8196 -13.644465 -56.614483 0.97388583 -0.16431691 -0.15667261 0.13702887
2673.3748 -39.220303 -55.823261 0.99862224 -0.040931199 0.032837052 0.11649008
2693.2605 22.710665 -56.774906 0.78347278 -0.60486817 -0.14249536 0.12208071
2688.6472 14.478676 -55.439243 0.82993472 -0.52161217 -0.19781078 0.11233164
2722.7385 37.181248 -56.528679 0.25019816 -0.95493716 0.15967426 0.20431541
2692.2849 -95.660789 -59.182545 0.73361886 0.5254153 0.43097812 0.11876687
2710.4387 -113.03383 -60.7393 -0.62273771 -0.68726093 -0.3739922 0.14092655
2679.5569 -1.8214065 -57.5396 0.91894209 -0.30120346 -0.25460154 0.12632795
2674.2107 -26.219021 -55.954777 0.99935234 -0.03524176 0.0072765723 0.12897673
2673.2271 -51.822334 -55.492519 0.98806918 0.14143755 0.060948256 0.10754838
2678.3098 -65.317474 -57.057343 0.95873433 0.28330541 -0.023801595 0.12712657
2691.4336 11.474059 -31.525274 0.78186232 -0.61086065 0.12466186 0.13583401
2681.3242 -74.890656 -70.310669 0.89422894 0.44144195 0.074050993 0.10221018
2673.1033 -39.151184 -70.271027 0.99815607 -0.029569948 -0.05300995 0.11727563
2703.3984 -103.02716 -69.345779 -0.61975819 -0.72449714 -0.30166808 0.11627223
2691.2031 -89.990898 -69.600533 0.78485709 0.56188232 0.26131895 0.10564642
2676.2554 -12.095754 -68.179123 0.94713145 -0.097939745 -0.30553207 0.13986669
2678.0366 -64.658852 -70.940811 0.94890058 0.31526822 0.013913889 0.11701062
2674.6143 -52.797394 -70.988815 0.99219227 0.12452791 0.0068755918 0.11351961
2711.0967 27.144274 -32.682873 0.40759638 -0.74956232 -0.52155685 0.14377396
2673.9387 -26.0707 -71.189331 0.99868608 -0.017926775 -0.048008014 0.12102865
2698.1667 18.735544 -29.771276 0.73432535 -0.64818281 -0.20155726 0.12424037
2703.0173 30.97724 -70.001213 0.60285586 -0.79672492 -0.042357884 0.15116699
2674.7803 -21.876572 -68.746765 0.99619401 -0.038189441 -0.078351893 0.13061592
2680.0098 4.7637949 -68.471413 0.90615934 -0.34777635 -0.24067998 0.147916
2673.0894 -35.276451 -68.473694 0.99818438 -0.03035995 -0.052021537 0.11822017
2676.5215 -8.6916237 -68.846107 0.97389007 -0.20313072 -0.1013706 0.13864852
2687.4473 17.982452 -69.625755 0.8280338 -0.52395052 -0.19958921 0.11937188
2674.5198 -49.12442 -68.033112 0.99623829 0.083741724 0.022285141 0.11858008
2673.6033 -39.018139 -77.016136 0.99919152 -0.030035863 -0.026722955 0.10985571
2677.2637 -0.56739807 -78.186035 0.96692884 -0.24235183 -0.079461642 0.14990622
2674.3684 -12.497597 -77.279869 0.99439293 -0.092169955 -0.051840156 0.14236023
2674.9998 -52.261974 -76.974449 0.99145174 0.12985796 -0.012664926 0.11426525
2678.6216 -64.780357 -76.964531 0.94149351 0.33272061 0.053730056 0.1090399
2674.1489 -24.795128 -76.528976 0.99444103 -0.04199753 -0.09655682 0.12287293
2676.1868 -57.1712 -70.003204 0.97854495 0.20599729 0.0038579826 0.11771584
2672.8818 -30.52733 -69.50032 0.99730533 -0.053220253 -0.050493952 0.12068139
2674.6606 -17.307365 -68.904434 0.99615645 -0.083642058 0.026006542 0.12116303
2687.9902 19.479925 -69.656937 0.81246287 -0.57311761 -0.10695913 0.11038258
2672.6226 -42.998512 -69.348648 0.99946183 0.00013994653 -0.032803591 0.11390656
2697.5701 -83.360085 -111.74532 0.80050558 0.49065128 0.34416881 0.14684933
2681.3186 7.8870597 -69.410172 0.89027113 -0.42733273 -0.15749303 0.14952788
2677.8269 -64.233162 -65.896431 0.96451682 0.261646 0.035337135 0.11716233
2685.3162 -81.156639 -66.994606 0.86417395 0.47993365 0.15121871 0.10365859
2675.4919 -24.45701 -65.82177 0.99616659 -0.083113737 -0.027281607 0.13270225
2674.1379 -38.011467 -65.998611 0.99650687 -0.08290232 0.010063815 0.10868013
2703.4729 -104.51608 -65.80172 -0.67067838 -0.68636823 -0.28122804 0.13340269
2678.834 -5.7110891 -25.420721 0.86969495 -0.48775139 -0.075691789 0.15256703
2674.1792 -50.854362 -65.96331 0.99763364 0.066671237 0.016795814 0.11589498
2705.9565 23.046516 -25.977858 0.64434576 -0.69049466 -0.32868788 0.13388808
2684.9585 4.6139855 -26.072289 0.79701513 -0.58668083 -0.14343128 0.12666391
2717.5117 -113.16665 -64.884598 -0.37520471 -0.87141269 -0.31600848 0.15937811
2692.4153 -92.40377 -66.156082 0.80375904 0.55493659 0.21451519 0.11158061
2698.2581 21.543186 -35.147865 0.64792097 -0.66565531 -0.37027204 0.11998976
2715.0486 32.370445 -38.434505 0.17418952 -0.81874871 -0.54709101 0.12304714
2694.2217 21.79027 -73.853073 0.70796424 -0.70109624 0.085150711 0.13972582
2683.8005 5.8802266 -72.331947 0.85374588 -0.45917687 0.2455088 0.15366092
2677.1807 -3.6678269 -74.202065 0.97677535 -0.2050838 -0.062053263 0.14259467
2674.8176 -15.732357 -73.756668 0.99360228 -0.083562836 -0.075972021 0.1296913
2673.8499 -42.956699 -72.998672 0.99972588 0.02340172 0.00071860058 0.1088007
2695.9751 -82.732712 -104.01788 -0.4014855 -0.4486472 0.79845166 0.1980186
2674.2175 -30.071121 -73.021408 0.99814463 -0.058304284 -0.017547388 0.12001348
2676.855 -56.784691 -73.240654 0.98095298 0.18570818 0.056953676 0.11280366
2675.5923 -16.55047 -58.468037 0.98784691 -0.11841366 -0.10068122 0.12539716
2673.0164 -41.819248 -56.831036 0.99962366 0.020039821 0.01873314 0.10821425
2710.3054 -105.46296 -101.19046 0.75424165 0.65110236 0.084765874 0.064556681
2683.8425 9.0830088 -58.527 0.86726075 -0.43164745 -0.24807104 0.12326559
2673.0007 -29.276594 -56.589294 0.9987765 -0.027623573 0.041017342 0.11560225
2677.2891 -4.7501955 -60.000305 0.94948316 -0.25378877 -0.18458863 0.11659212
2699.0522 -90.962456 -99.991905 0.80518979 0.57969928 0.12497266 0.10755598
2690.958 20.167461 -58.779709 0.80297953 -0.5746333 -0.15817833 0.11878003
2707.3918 32.636402 -58.746899 0.48005623 -0.87576574 0.05079734 0.13470134
2687.7825 -71.692055 -105.45142 0.84331077 0.52076274 0.13278949 0.12607193
2700.6318 -105.35218 -56.737648 -0.67059404 -0.68758023 -0.27845481 0.13311154
2681.0132 0.2938585 -57.685509 0.91659451 -0.27296782 -0.29213539 0.13654229
2677.7583 -66.244354 -57.719025 0.94711542 0.27784404 0.16054626 0.12073126
2675.1895 -25.497379 -58.109718 0.99432993 -0.1038926 0.022678602 0.13875709
2674.1577 -52.566036 -58.131287 0.96752906 0.11310055 0.22604378 0.1221792
2714.218 -116.20512 -56.360924 -0.47280461 -0.80893713 -0.34939456 0.16725636
2693.5149 -96.290123 -60.759769 0.72229749 0.52986008 0.44444865 0.12185039
2682.5957 -80.201752 -57.523907 0.87797135 0.43882525 0.19130793 0.11427733
2674.0432 -38.290867 -59.280502 0.97857416 -0.099748388 0.18011919 0.12231261
2678.2227 -12.34808 -57.116642 0.96026284 -0.16572875 -0.22456457 0.13851909
2688.0723 -84.099609 -70.242966 0.82781291 0.52069819 0.20880404 0.10335122
2699.5403 -97.948738 -70.594536 0.71817404 0.61210179 0.33099467 0.11339357
2714.1648 -113.09097 -69.966827 -0.67399752 -0.71892923 -0.16990624 0.16782743
2704.532 22.532793 -26.9349 0.66822547 -0.68578851 -0.28839016 0.13693571
2676.2664 -55.480064 -68.270889 0.98026991 0.17214787 0.097139254 0.12159477
2679.4836 -67.835548 -67.976601 0.94577861 0.32157353 0.045752075 0.10793252
2689.7019 10.277267 -28.500589 0.77599138 -0.62646765 0.073318489 0.14334752
2674.5732 -40.759743 -68.152107 0.99902254 -0.037348036 0.023644472 0.11188425
2674.6638 -27.900862 -68.021088 0.99906027 -0.042394593 0.0090173213 0.11887405
2675.2539 -15.135764 -68.12368 0.98944235 -0.10713576 -0.09760005 0.12478014
2675.7712 -15.883593 -66.91806 0.99335545 -0.094110571 -0.066242799 0.12902139
2675.6499 -56.071259 -67.006615 0.97975433 0.1993469 0.018500315 0.12015971
2703.0129 31.933794 -62.483017 0.68919086 -0.61650032 -0.38071418 0.14102253
2684.9741 12.477618 -65.22036 0.85485083 -0.42142627 -0.30270439 0.13468593
2673.7642 -41.966209 -66.018974 0.99994701 0.0089764679 -0.0050410596 0.11340443
2673.8545 -29.331415 -66.854515 0.99860883 -0.048282117 0.021195158 0.11693843
2673.9412 -6.8183236 -66.981941 0.97249109 -0.23293748 0.0011018242 0.14830419
2680.8774 -70.157394 -67.171272 0.93642163 0.34709701 0.051362943 0.11183684
2687.2363 16.619492 -61.105881 0.80982262 -0.56882811 -0.14360347 0.1055761
2684.1846 8.7950583 -59.41151 0.87810177 -0.38458335 -0.2846629 0.1223411
2674.332 -31.023199 -59.959057 0.99010456 -0.069179393 0.12209491 0.11948944
2679.7466 -4.2605844 -58.986385 0.93302292 -0.21205452 -0.29069075 0.13084121
2674.7781 -56.614628 -60.685261 0.98485005 0.15543282 -0.076883346 0.11148227
2674.0061 -44.036373 -60.476452 0.99291855 0.0090432363 0.11845254 0.11367019
2677.0674 -17.238327 -59.122116 0.98623627 -0.10835585 -0.12488811 0.13323784
2691.8582 -87.45713 -77.584259 0.80655462 0.54869509 0.22000757 0.092395186
2705.8203 -103.81932 -78.016052 0.72660333 0.66396374 0.17663436 0.072491363
2687.7717 -76.742638 -79.50528 0.83773381 0.48285037 0.25506386 0.094001591
2678.4868 -43.067066 -78.440567 0.99509937 0.004598299 0.098773092 0.10686675
2675.1533 -28.347643 -76.041985 0.99524808 -0.054805119 -0.080483943 0.12593704
2716.8203 -111.59901 -76.304459 -0.46440271 -0.86766487 -0.17744799 0.093829922
2673.1938 -35.173138 -79.183556 0.9934513 -0.078398943 -0.083115354 0.11888323
2681.4338 -2.8114774 -37.874866 0.90651268 -0.41985792 -0.044205062 0.12724988
2691.6182 12.214975 -37.147327 0.79651868 -0.58440918 -0.1549964 0.12133329
2705.1086 27.061348 -37.697693 0.68332291 -0.70708501 -0.18193585 0.13315304
2674.2292 -48.127087 -79.982101 0.99738395 0.071579687 -0.010081271 0.11507235
2676.1206 -60.702721 -79.980133 0.96936709 0.24558768 0.0037610857 0.11248999
2702.5693 -100.30248 -80.294548 -0.67766553 -0.71144414 -0.18605539 0.072578497
2692.6584 -88.53521 -79.849731 0.80314696 0.56688935 0.18327968 0.092496961
2680.7131 -71.005417 -78.931656 0.88133788 0.45644405 0.12207536 0.095980704
2688.781 -75.166664 -99.986954 0.84397203 0.51209193 0.15960291 0.10342419
2697.321 -88.648697 -99.571014 0.80518979 0.57969928 0.12497266 0.10755598
2709.1179 -104.70315 -100.46558 0.79444593 0.60259092 0.075761564 0.072561093
2680.9827 -59.622231 -99.873756 0.90894926 0.36705089 0.19769888 0.14500763
2702.2256 31.681122 -59.604313 0.67220372 -0.6590699 -0.33729658 0.14741687
2686.1152 12.92427 -61.030178 0.81658721 -0.53621203 -0.21368669 0.12057181
2678.458 -10.397229 -59.570671 0.96982092 -0.18196996 -0.16227838 0.13429862
2675.2341 -24.462029 -61.283237 0.99448693 -0.092786521 0.048851419 0.13736781
2674.0366 -37.829731 -61.221603 0.990022 -0.085854009 0.1117384 0.11366481
2704.6257 -98.226952 -106.06612 0.84547651 0.51269257 0.1493849 0.10384412
2678.9985 -1.0602123 -62.243523 0.92567664 -0.24544778 -0.2878857 0.14199559
2698.4895 -88.094177 -106.95423 0.81235641 0.55726314 0.17185713 0.1292814
2674.8472 -52.565731 -62.14537 0.95579934 0.13020743 0.26361638 0.12155657
2719.894 38.241753 -47.939312 0.39096862 -0.89270449 -0.22410327 0.18578267
2688.6199 11.825714 -46.661865 0.83979684 -0.50240725 -0.20573825 0.11045435
2685.1255 2.5355389 -46.289711 0.91336983 -0.38094664 -0.14364979 0.11930443
2676.5186 -57.607372 -91.406288 0.94819504 0.29223952 0.12458825 0.11380819
2697.063 23.098801 -47.316914 0.74377406 -0.63057768 -0.22174746 0.10636082
2672.843 -43.804493 -91.630142 0.98368633 0.17185602 0.053167399 0.1163668
2681.3984 -10.91965 -47.477402 0.95718098 -0.28714472 -0.036776491 0.12877075
2686.3679 -73.3741 -93.100716 0.85256684 0.50465029 0.13585971 0.081752948
2672.9148 -32.044186 -91.728127 0.9960385 0.014265181 -0.087771453 0.13927838
2695.3865 -87.15863 -94.244698 0.80616611 0.57891935 0.1222644 0.08362975
2711.2837 26.622166 -27.188383 0.55762339 -0.7428785 -0.37038857 0.13627253
2680.4124 -1.0569872 -27.071495 0.79994309 -0.5987078 -0.040497154 0.14420728
2692.969 13.125894 -27.159702 0.73700005 -0.66488671 -0.12147657 0.1201506
2676.8325 -13.871276 -27.931887 0.95624208 -0.26189804 -0.13042407 0.14328383
2673.6973 -54.413555 -55.672592 0.97259277 0.12178686 0.19806895 0.10588271
2673.2266 -40.731945 -56.862015 0.97194344 -0.033516008 0.23281465 0.11353172
2678.9692 -67.977661 -55.24147 0.94898385 0.30612567 0.075608842 0.12715942
2692.6987 8.4331264 -13.616112 0.65936309 -0.72622168 -0.19453117 0.13959233
2702.8987 -104.19485 -66.05159 -0.5772866 -0.76385844 -0.2885488 0.12841326
2672.5042 -32.32346 -68.270523 0.99943191 -0.025853433 -0.021622112 0.11868311
2673.2166 -44.861492 -67.988304 0.99985695 0.016855063 0.0014228905 0.11538849
2676.8154 -67.654213 -69.250427 0.93393487 0.34350646 -0.098838352 0.11245456
2673.9438 -56.097649 -68.814255 0.98258966 0.17080076 -0.073106803 0.10413859
2682.5864 -78.642426 -67.567398 0.87622547 0.48078957 0.032715496 0.11594993
2687.8206 -89.025436 -67.720306 0.793513 0.60245943 0.085905202 0.12151585
2710.2151 23.070007 -25.213821 0.47029397 -0.74704611 -0.46983585 0.141928
2678.1609 -4.5625377 -24.773153 0.83988559 -0.53513449 -0.090682253 0.13321683
2689.6533 9.423111 -24.369505 0.71381193 -0.69324672 -0.0994059 0.1128078
2695.446 -87.682175 -92.424828 0.82718861 0.54481876 0.137592 0.081899151
2674.7056 -21.151131 -45.207588 0.9438284 -0.26119432 0.20239933 0.12490339
2681.4514 0.18958266 -43.684319 0.91706735 -0.37297684 -0.1409813 0.12380081
2677.0027 -11.838552 -44.305511 0.97003472 -0.19810362 -0.14066842 0.12469941
2687.8484 12.4489 -43.842007 0.81996495 -0.54357129 -0.17940935 0.097738624
2699.0637 30.665251 -47.791012 0.64409703 -0.72544402 -0.24263142 0.12968375
2698.1233 24.281002 -45.771751 0.71282971 -0.65658516 -0.24651524 0.11222354
2709.6143 34.190228 -55.043777 0.49813578 -0.86699384 -0.013508683 0.15510948
2686.7424 11.283573 -54.395027 0.84664661 -0.48136842 -0.22687873 0.11009036
2676.469 -16.376804 -55.382866 0.97714025 -0.14912336 -0.15152265 0.12998661
2678.1335 -4.9491401 -55.950848 0.95676357 -0.2614193 -0.12752803 0.12467644
2691.7139 20.320267 -55.696114 0.80173343 -0.57848227 -0.15027238 0.11243068
2673.3374 -42.187424 -54.773716 0.99848825 -0.0350614 0.04233063 0.11948309
2673.833 -29.448166 -54.768227 0.99627984 -0.076546758 0.039586917 0.11780721
2673.7341 -39.978786 -41.99258 0.99644399 -0.079535045 -0.027812509 0.13376823
2673.4888 -53.949741 -41.980804 0.9939968 0.10220865 0.039035521 0.11721245
2673.2144 -26.392302 -42.614803 0.97490591 -0.15649647 0.1583266 0.10819651
2678.4885 -9.4948559 -43.446552 0.89533019 -0.42407835 0.13616686 0.11417899
2693.1411 14.530676 -40.806145 0.79345053 -0.57656521 -0.19495849 0.10894171
2704.8103 30.276909 -44.701523 0.57900286 -0.76960021 -0.26920485 0.12066752
2682.0259 -1.0110447 -42.00378 0.91137952 -0.38940045 -0.1332467 0.12368036
2698.665 23.495319 -42.521229 0.72267562 -0.6531117 -0.22624132 0.11033902
2674.9746 -47.339172 -67.55114 0.99428159 0.055969633 0.090948105 0.11723685
2674.8376 -33.445026 -67.374893 0.99168909 -0.10661199 0.072018154 0.11582407
2699.8418 -100.21863 -66.689865 0.70761323 0.65675771 0.26067767 0.11222704
2675.261 -20.755087 -66.654922 0.99603724 -0.05147519 -0.072526686 0.13664398
2689.1333 -87.577759 -67.197739 0.81749696 0.54490191 0.18649563 0.095408916
2677.3367 -7.277441 -66.416634 0.9693405 -0.19118798 -0.15435718 0.14026074
2682.033 -74.437645 -67.086929 0.90801668 0.41090676 0.081616834 0.09184818
2677.1768 -60.683723 -67.158768 0.97045821 0.23501608 0.05457408 0.11186249
2680.8535 5.4296312 -65.733788 0.90829772 -0.31315595 -0.27736011 0.14787734
2673.001 -41.543987 -94.613052 0.99292475 0.090541571 0.076829046 0.13710457
2673.8435 -52.228916 -92.178802 0.96296912 0.22530848 0.14807616 0.1109178
2673.0676 -28.65395 -93.748734 0.99340063 -0.10706469 0.041137833 0.14175424
2688.6799 8.365612 -48.616776 0.86918986 -0.45190674 -0.20072193 0.13489601
2672.4414 -16.847704 -92.203285 0.97555614 -0.15754545 0.153198 0.10477632
2696.0745 24.506023 -51.060665 0.73963511 -0.65501159 -0.1545952 0.12539203
2685.0632 -4.7206917 -49.429779 0.94514591 -0.31309313 -0.093123153 0.11639953
2699.6506 30.25906 -50.517887 0.59279847 -0.80456853 -0.035489172 0.11889582
2693.9705 19.281723 -49.903545 0.75867611 -0.61789268 -0.20644407 0.11521164
2679.7939 1.4929777 -60.645054 0.90662956 -0.28500989 -0.31111455 0.13303983
2674.4688 -11.683485 -60.695866 0.9767676 -0.18115792 -0.11448518 0.13159311
2675.3054 -21.949944 -58.947052 0.99454343 -0.0716694 -0.075808063 0.13036159
2700.0823 30.491819 -55.369015 0.47771052 -0.84368837 0.24491343 0.13112243
2686.5315 14.63925 -59.695942 0.82041723 -0.54843104 -0.16167548 0.10787797
2678.6863 -1.2240361 -69.411217 0.95940793 -0.22466752 -0.17047271 0.15670022
2694.936 -78.793121 -114.3485 0.81600374 0.50866485 0.27458695 0.14983086
2675.625 -43.886982 -72.144424 0.99391311 -0.010826817 0.10963351 0.116908
2695.1111 27.526007 -69.137146 0.7344628 -0.64221495 -0.21937263 0.14963143
2678.5586 -15.06971 -64.529762 0.92433739 -0.063973881 -0.37617519 0.14281657
2675.1787 -29.30076 -69.553329 0.99560541 -0.07891994 -0.050413914 0.12683144
2683.9294 13.080868 -68.413391 0.84118354 -0.43001142 -0.32787251 0.13725452
2709.5764 -104.58506 -101.83369 0.74192613 0.66589749 0.078269832 0.067086332
2697.1816 27.066061 -57.807724 0.71963227 -0.68523389 -0.11217817 0.13466768
2676.9949 -18.876501 -56.628376 0.991476 -0.12369793 -0.040915925 0.13519518
2680.177 -5.8432965 -54.781216 0.94433278 -0.22647522 -0.23863056 0.12611027
2673.5215 -34.123917 -55.856659 0.9923355 -0.080814883 0.093484014 0.11370656
2692.7344 20.376989 -56.169758 0.79194784 -0.57643813 -0.20133987 0.12894885
2684.0393 6.2870183 -55.230267 0.89208364 -0.38780475 -0.23193586 0.1192224
2691.8967 -79.724976 -102.2111 0.82524472 0.54225576 0.15789168 0.10386473
2699.7634 -91.719269 -101.53268 0.79112464 0.57459915 0.20966075 0.11329
2673.2114 -47.003044 -56.114281 0.98965234 0.0038230736 0.14343528 0.11849311
2723.9695 45.183083 -45.764194 0.75067014 -0.6601972 -0.025178095 0.14161135
2672.2893 -19.591469 -86.346558 0.95458931 0.064818434 -0.29078817 0.13891959
2677.4531 -58.261868 -88.725609 0.95214021 0.28650641 0.1065039 0.12022011
2692.3008 -85.098976 -88.721649 0.80964309 0.56077266 0.17323992 0.082912609
2688.4124 11.728773 -45.084564 0.82352895 -0.5415622 -0.16885029 0.11499939
2672.9272 -44.22604 -87.747742 0.99476898 0.097122163 0.031654771 0.10935082
2672.1792 -32.411579 -87.893303 0.99912876 -0.040398195 0.010472738 0.12374106
2682.7534 -69.858849 -88.148842 0.85223371 0.48615742 0.19325815 0.094728597
2710.5833 32.533344 -44.620911 0.69567817 -0.70661098 -0.12935536 0.12370608
2687.6165 -79.812775 -85.925072 0.80821443 0.55800736 0.18819469 0.092612386
2682.4211 1.2569011 -45.915367 0.90595031 -0.40212452 -0.13247588 0.11737534
2699.179 21.497393 -44.342449 0.71358609 -0.68404949 -0.15123209 0.11101953
2680.7019 -67.360413 -86.067368 0.85923046 0.48236501 0.17043181 0.10226035
2673 -29.145479 -86.24366 0.99555546 -0.048279174 -0.080860317 0.13183729
2697.6846 -93.998589 -87.153221 0.76328772 0.62178653 0.17542334 0.066140212
2724.6262 42.996391 -45.78091 0.56455415 -0.82047021 -0.090039901 0.18117461
2673.5857 -43.071682 -86.704544 0.99842709 0.01321872 -0.054484859 0.11911215
2707.624 31.645739 -45.024673 0.66671938 -0.71998924 -0.1926156 0.14357387
2677.1594 -56.463966 -87.140732 0.96701074 0.24376865 0.073939502 0.12962896
2678.5737 -65.872734 -66.804329 0.95238304 0.300412 0.052146014 0.10966597
2673.6616 -40.064507 -66.027145 0.9991141 -0.038788799 -0.016323101 0.11273187
2692.604 -92.842667 -66.460419 0.7823804 0.56446624 0.2631706 0.11284658
2684.907 13.245362 -66.34436 0.82985026 -0.49374166 -0.259938 0.12986034
2673.8887 -26.289009 -65.70224 0.99861938 -0.036585651 0.037693489 0.12088416
2705.1448 -105.53822 -67.026062 -0.6294902 -0.72251928 -0.28584608 0.13344106
2674.7017 -52.926201 -66.985031 0.99429023 0.10458017 0.021210305 0.12172267
2680.5593 -74.718025 -66.87307 0.89429688 0.44734493 0.01074986 0.11470684
2675.1711 -13.704895 -66.149918 0.99042857 -0.13500698 -0.028712828 0.12621059
2678.0881 -2.1172795 -66.035553 0.96739429 -0.25323939 -0.0042519206 0.13676469
2710.8567 36.281864 -62.424553 0.66950172 -0.67864835 -0.30199975 0.10467138
2681.2683 -1.6470252 -47.625217 0.93595159 -0.33934972 -0.094001904 0.12536681
2670.5591 -9.5803251 -90.838951 0.95763695 0.074687101 -0.27812466 0.140524
2694.0083 20.385492 -48.494637 0.76540536 -0.61531824 -0.1885155 0.10441867
2691.2529 13.974175 -47.233139 0.82639861 -0.53060579 -0.18847498 0.11973179
2680.9189 -62.46394 -93.151192 0.91144222 0.39118004 0.12748057 0.11953997
2724.6152 37.089115 -48.423016 -0.03225708 -0.99830896 0.048359841 0.19663566
2673.7493 -47.730999 -92.972832 0.9882651 0.15197541 0.015347407 0.12283579
2710.166 34.334003 -49.39069 0.56307817 -0.80457604 -0.18868062 0.15597409
2673.4075 -23.401949 -91.927383 0.98251122 -0.18595402 0.0096318033 0.12356684
2672.2009 -35.145355 -92.098854 0.99942929 -0.027932066 -0.018996276 0.13162723
2684.5481 15.285385 -70.854805 0.81589788 -0.51533383 -0.26218644 0.12455997
2676.3032 -2.2134805 -69.755905 0.95911664 -0.28253731 0.016368007 0.15266235
2696.0957 22.99659 -68.677055 0.66414016 -0.65409434 0.36204761 0.13636425
2676.6765 -10.137646 -70.948158 0.97717106 -0.19881845 0.074885853 0.1334825
2690.4993 -80.057167 -105.45766 -0.5863899 -0.55579823 0.58926666 0.13634297
2690.9329 19.901669 -58.63586 0.80093151 -0.57302397 -0.17364402 0.11714307
2705.5647 32.303944 -58.117592 0.56990314 -0.82129633 -0.026129644 0.14468321
2721.584 35.681561 -54.506367 -0.028207613 -0.97111297 0.23694718 0.18584809
2670.3457 -21.003746 -99.075722 0.9767909 -0.010581682 -0.21393339 0.16871703
2674.8975 -49.541786 -98.23597 0.94757175 0.28631607 -0.14188321 0.14409222
2693.0823 -81.767975 -100.84994 0.80524367 0.58660954 0.086439744 0.10909417
2684.8306 9.520916 -57.643246 0.87992722 -0.39199179 -0.26845965 0.12436983
2680.627 -60.422752 -97.746552 0.8741892 0.38015813 0.30211434 0.11081279
2679.7625 -3.9397354 -57.934242 0.93619078 -0.23748027 -0.25913301 0.12835123
2671.6375 -34.8517 -99.171257 0.99633139 0.056021865 -0.064693756 0.15118037
2679.5344 -3.5904601 -32.911327 0.84008163 -0.52406269 0.14007547 0.14000045
2695.4556 16.823843 -33.511227 0.75031608 -0.60628361 -0.26352608 0.11683237
2682.0989 1.9437215 -32.394718 0.79929763 -0.59598547 -0.076971471 0.11780582
2686.0054 6.3485847 -27.121979 0.77110618 -0.63497674 -0.04690174 0.13015319
2691.0918 -90.863052 -66.994942 0.79470062 0.54928237 0.25834057 0.11168424
2679.2012 -4.6753941 -26.981195 0.87159646 -0.4900341 0.013643803 0.1638516
2699.7341 -101.24689 -66.198853 -0.68155265 -0.68428606 -0.25930393 0.10234634
2677.0181 -63.47184 -67.439911 0.95241237 0.30030042 -0.052253213 0.1177096
2683.6826 -78.646645 -67.924416 0.88382584 0.45746708 0.09785562 0.097082041
2710.9531 26.813103 -25.240549 0.61974025 -0.73710132 -0.26945072 0.12783191
2673.6387 -40.014107 -68.003357 0.99974245 -0.022078045 -0.0052554714 0.11194743
2674.1204 -52.399834 -68.068382 0.98942477 0.14411435 -0.016421054 0.10839978
2679.7908 -8.4655409 -29.556221 0.94006377 -0.23672988 -0.24543655 0.14128238
2684.5393 4.6725135 -27.065323 0.75690621 -0.65273374 -0.032119863 0.12831272
2695.3142 16.19487 -28.804556 0.75052005 -0.63523573 -0.18219551 0.12701716
2685.0244 4.1731057 -20.955593 0.78585911 -0.59449542 -0.17029576 0.13428532
2704.8806 18.229115 -22.98369 0.48419335 -0.72005916 -0.49706292 0.13817148
2680.0457 -0.42344519 -18.986485 0.77831656 -0.62784898 -0.005382136 0.16355355
2680.8152 3.0753405 -62.989784 0.90735561 -0.30637461 -0.28782016 0.14431186
2692.0471 21.038885 -61.155628 0.73903054 -0.53559244 -0.40862522 0.13300692
2678.3174 -9.2994728 -62.499687 0.96754247 -0.18949883 -0.16718766 0.13917707
2697.2666 -98.314873 -64.27256 0.7190845 0.608971 0.33477128 0.11956645
2680.4514 -68.873055 -63.304523 0.9461928 0.31940952 0.051929947 0.11969546
2685.1018 -81.502365 -63.072124 0.87065285 0.48690563 0.06990388 0.10947286
2675.4304 -38.124172 -65.965981 0.9798913 -0.081197046 0.18226384 0.11841902
2707.7788 -109.05894 -63.617725 -0.60842901 -0.73526061 -0.29867378 0.12934473
2676.948 -23.618643 -62.200027 0.98273635 -0.11263759 -0.14677204 0.14917956
2717.3291 34.352592 -55.358398 0.029222779 -0.94578528 0.32347518 0.16129777
2680.915 2.5087433 -59.296211 0.89274919 -0.34005079 -0.29557461 0.12995094
2690.3792 18.433559 -57.869675 0.80797744 -0.56427222 -0.16961509 0.11561125
2679.5288 -6.9238133 -56.817684 0.94161302 -0.22664309 -0.24899358 0.13081133
2672.0254 -41.215046 -101.92243 0.9735797 0.21480168 -0.0774775 0.11587613
2674.2959 -34.803841 -58.1134 0.99127525 -0.11411197 0.065968789 0.11670552
2681.7498 -64.502762 -100.21637 0.86441791 0.44788685 0.22842744 0.10183392
2699.239 -91.417671 -101.34211 0.79867923 0.54610914 0.25273758 0.11365443
2674.2324 -21.574339 -58.821747 0.99415541 -0.06184613 -0.088487625 0.12327314
2710.5942 -105.91904 -103.67409 0.75743759 0.64928496 0.068682984 0.074467719
2689.1763 -76.622833 -99.98185 0.80350107 0.49009168 0.33792919 0.093484387
2676.8689 -53.432083 -101.65993 0.94261485 0.28645116 0.17153126 0.14288062
2674.8464 -42.705353 -45.929466 0.99001002 0.0426073 -0.13440509 0.12734199
2687.4026 9.9931326 -44.666847 0.83622706 -0.51990998 -0.17440723 0.10984914
2675.8118 -17.538618 -45.155155 0.98070371 -0.18786101 -0.05411575 0.12807228
2679.019 -5.0376692 -45.906471 0.93770009 -0.31745133 -0.14122021 0.13118698
2700.2168 24.789787 -44.242893 0.69359446 -0.6952191 -0.18867207 0.12217914
2673.3247 -30.458 -45.602539 0.99732399 -0.044241056 -0.058202974 0.10785574
2715.1243 35.769356 -45.058777 0.46310705 -0.85885286 -0.21886888 0.1729418
2674.3105 -55.034164 -45.215389 0.98792702 0.15120581 -0.0337198 0.11493246
2713.4709 -113.88079 -47.041058 -0.63072968 -0.77581781 -0.016936004 0.20646082
2703.1653 -101.37243 -73.947594 0.74286133 0.62168896 0.24831402 0.09585008
2690.4395 -86.311981 -74.094765 0.8121354 0.5273369 0.24970359 0.094449885
2675.3245 -26.994732 -72.323433 0.99361986 -0.093564138 -0.062970385 0.1400786
2685.9014 -74.281654 -75.83532 0.87086791 0.40980953 0.27137655 0.10517871
2675.5811 -41.858349 -73.977684 0.9945448 -0.014956592 0.10323218 0.11439908
2715.8345 -111.79453 -72.636978 -0.55243844 -0.79814732 -0.24035934 0.13187063
2699.0493 24.912628 -47.723965 0.7061125 -0.67777574 -0.20500043 0.117339
2713.2971 35.601601 -48.521698 0.46722835 -0.86393464 -0.18792176 0.1599353
2712.1631 35.756088 -50.056633 0.5456897 -0.81627411 -0.18952385 0.16212483
2672.5691 -55.925133 -49.904823 0.97809893 0.12868528 0.16359256 0.11185016
2673.3701 -42.943913 -48.966866 0.99981326 0.016639475 0.0098295938 0.11935505
2677.427 -5.8709869 -50.423725 0.95587498 -0.26318923 -0.13051593 0.11351545
2685.8562 9.0812931 -48.971508 0.85800678 -0.48472869 -0.16988963 0.10882666
2681.0234 -69.990356 -50.001312 0.92309582 0.38106495 -0.051803872 0.11990854
2687.0264 -98.656525 -61.824184 0.16307814 0.13688383 0.97707129 0.11920206
2691.3274 19.312561 -50.085056 0.81094992 -0.5613184 -0.16517225 0.096810609
2673.6138 -29.362514 -48.815006 0.99613178 -0.078269474 0.03994137 0.12567817
2684.9177 -83.909241 -63.267532 0.22579506 0.066605113 0.97189522 0.11460852
2710.8831 -115.61921 -52.7216 -0.6410076 -0.71920645 -0.26805103 0.16194496
2676.1118 -16.200169 -49.047607 0.98330414 -0.17703131 -0.042105041 0.12994377
2674.4565 -54.948795 -62.405579 0.98511183 0.16039085 -0.061882466 0.10732308
2705.7485 -107.85141 -62.19659 -0.60624099 -0.74490798 -0.27853894 0.12417471
2686.4189 -83.935318 -63.191372 0.85604095 0.50641632 0.10361639 0.10122329
2683.9468 4.1698527 -21.999763 0.75188237 -0.65929729 0.00018805393 0.13932377
2693.9861 -96.011353 -63.005928 0.73574436 0.60032898 0.31350496 0.12210196
2679.2922 -67.834641 -62.204464 0.94107533 0.33310869 -0.058444854 0.10700563
2674.1396 -30.233273 -61.594303 0.98907334 -0.073485769 0.12780346 0.12089393
2674.1736 -42.997013 -63.16753 0.9958182 -0.0016291061 0.091342688 0.11244527
2695.7444 14.314901 -23.180004 0.69540381 -0.68438858 -0.21914794 0.11966514
2694.6648 -97.082413 -61.595505 0.73398745 0.59505147 0.3273778 0.12653863
2674.3806 -53.874104 -60.288425 0.98381203 0.17359775 -0.044471443 0.10822989
2691.2666 11.59351 -20.267803 0.65586388 -0.75425732 0.030634971 0.12676539
2706.7861 -109.25835 -61.104946 -0.60842901 -0.73526061 -0.29867378 0.12934473
2674.2922 -41.740688 -62.237183 0.98270351 -0.037989318 0.18124729 0.11238544
2674.3748 -29.15583 -59.975834 0.99780273 -0.065472409 0.010152673 0.12134348
2686.4915 -84.840454 -61.785236 0.83705205 0.52734363 0.14578246 0.11484182
2680.3162 -69.251328 -60.96899 0.93776196 0.34466475 -0.042528346 0.1103207
2705.6931 18.088512 -20.540619 0.54737031 -0.71980417 -0.42692816 0.14692912
2692.137 -91.357727 -66.344818 0.80239308 0.55401278 0.2218902 0.11382698
2685.7466 15.560029 -65.869514 0.82255775 -0.53568363 -0.1908973 0.10706539
2674.2639 -33.942204 -64.064308 0.99317318 -0.077975065 0.086758137 0.11470611
2674.7644 -21.045731 -64.025291 0.99767071 -0.059693687 -0.033012871 0.12876695
2676.9316 -7.813612 -64.450882 0.97313637 -0.2013749 -0.11159625 0.12948106
2679.9082 3.039036 -64.916893 0.91496277 -0.36555266 -0.17092216 0.13616772
2681.3416 -73.393745 -63.980938 0.91119641 0.41176879 0.012946682 0.094426066
2703.4619 -104.13938 -66.3526 0.71917969 0.63811648 0.27493253 0.13307276
2674.2703 -47.076267 -64.143509 0.99561548 0.043896899 0.082600355 0.11039737
2676.6375 -60.075581 -64.021011 0.97737437 0.20378903 0.05665141 0.11105625
2717.8765 36.568607 -47.545132 0.33183399 -0.92048585 -0.20637816 0.18571706
2688.6921 12.194616 -45.932117 0.83087957 -0.52540922 -0.18326017 0.11554521
2673.8567 -40.019844 -45.99556 0.99493581 -0.0020031054 -0.10049266 0.13044082
2676.3352 -14.292136 -45.621376 0.97533321 -0.19893096 -0.095663764 0.12485936
2678.5061 -3.2074258 -46.226448 0.94051647 -0.31733969 -0.12134368 0.11412574
2674.1924 -27.329071 -44.976757 0.99470294 -0.10253587 0.0072417404 0.12210611
2703.291 27.847818 -45.497925 0.66589445 -0.71994352 -0.19561681 0.13248758
2672.4563 -53.281784 -45.298065 0.98724657 0.10936654 0.11568573 0.11259558
2689.8821 -91.075615 -61.031326 0.82155269 0.5267176 0.21821944 0.11463461
2673.6741 -49.442932 -60.065552 0.99287617 0.11833423 -0.013924839 0.10984602
2674.1011 -24.212135 -59.77599 0.99905753 -0.02984602 0.031516444 0.13247766
2675.7107 -2.7781637 -62.436787 0.94636834 -0.28782162 -0.14678435 0.14089656
2697.5256 26.540302 -60.350151 0.71288854 -0.69427794 -0.098833621 0.13852736
2673.5193 -37.274509 -59.844612 0.99837089 -0.049654812 0.028107485 0.11693236
2704.8696 -107.13598 -63.15152 -0.65975815 -0.66147661 -0.35660604 0.12161516
2684.7898 -81.326653 -61.892525 0.87450415 0.46845102 0.12568288 0.11304661
2677.0811 -10.648346 -60.797947 0.94857931 -0.19960986 -0.24566887 0.13370828
2687.2188 14.855565 -60.048843 0.82034355 -0.54173392 -0.18319614 0.11405826
2677.3313 -62.891182 -61.087437 0.96857393 0.24795619 -0.01955273 0.11987811
2692.6829 13.008973 -28.95842 0.72737449 -0.63882148 -0.25066602 0.12124938
2675.1855 -10.437379 -26.959311 0.93656307 -0.35047454 0.0041486365 0.13899648
2717.0112 29.947687 -29.006458 0.40458459 -0.82108223 -0.40266028 0.14783759
2682.8818 2.8294551 -27.091455 0.79852718 -0.60142517 -0.025340661 0.12889639
2687.8643 16.651073 -58.925854 0.81373149 -0.56022567 -0.15488148 0.10404515
2673.1963 -45.928394 -57.579041 0.99119395 0.022205479 0.13054284 0.11799574
2683.5203 7.2120695 -57.86536 0.88589478 -0.39162487 -0.24863717 0.12615947
2673.8865 -32.142303 -57.840645 0.99364847 -0.074953064 0.08393278 0.1120716
2707.7273 -110.61626 -57.967163 -0.61052883 -0.7574926 -0.23121311 0.13612328
2685.9639 -96.761246 -55.443729 0.65731269 0.49651471 0.56693316 0.12667903
2680.1294 -71.154411 -58.000565 0.92939615 0.36908364 -0.00024600798 0.097771659
2684.0278 -82.550293 -57.115791 0.86096716 0.49273255 0.12629409 0.12701042
2675.5891 -59.300247 -58.223381 0.96657157 0.20570982 0.15304531 0.11618537
2677.5657 -7.447988 -59.318413 0.95828384 -0.2113387 -0.19242674 0.12017348
2675.813 -19.177986 -58.23204 0.98723865 -0.096921556 -0.12635712 0.13174967
2673.1228 -38.231632 -55.523949 0.9918558 -0.05572601 0.11452811 0.11780348
2686.7175 -92.893616 -58.850594 0.69221336 0.39933255 0.60114402 0.12149895
2677.3333 -62.861565 -56.188637 0.96632236 0.25387305 -0.0420659 0.12411102
2673.8035 -50.91853 -55.959877 0.99367261 0.1007599 0.04962052 0.10892551
2681.8096 -104.15028 -56.429329 0.38618165 0.30476135 0.87062287 0.13619857
2707.8672 -112.34544 -54.873425 -0.53912348 -0.78832078 -0.296473 0.12699169
2680.583 -73.146408 -56.85342 0.90854019 0.40791422 -0.090336859 0.10202012
2684.76 8.0918407 -22.987011 0.60142112 -0.65686506 0.45477563 0.12552005
2686.7974 15.684146 -60.930984 0.81233239 -0.56148344 -0.15764658 0.10624743
2677.4023 -7.930531 -61.134926 0.94866872 -0.20052713 -0.2445741 0.12846206
2675.8184 -19.617685 -59.748966 0.99407178 -0.090884648 -0.059676528 0.13008313
2680.082 3.1191142 -61.607841 0.90646434 -0.36874107 -0.20579694 0.12628548
2681.1589 -72.495514 -60.06739 0.91559452 0.39856231 -0.053242065 0.09650784
2692.1938 -95.897972 -58.535843 0.76623261 0.60516864 0.21600579 0.12602186
2704.0269 -106.92682 -58.478085 -0.57058173 -0.80286604 -0.17275017 0.13447067
2674.0811 -46.040936 -60.65432 0.98629361 0.010302134 0.16467789 0.1132378
2673.8489 -33.127384 -59.792988 0.99146843 -0.068311818 0.11101303 0.11771234
