# .PCD v0.7 - Point Cloud Data file format
VERSION 0.7
FIELDS x y z normal_x normal_y normal_z curvature
SIZE 4 4 4 4 4 4 4
TYPE F F F F F F F
COUNT 1 1 1 1 1 1 1
WIDTH 600
HEIGHT 1
VIEWPOINT 0 0 0 1 0 0 0
POINTS 600
DATA ascii
2550.7166 -826.12463 288.37939 0.90403336 -0.374259 -0.20652816 0.18085794
2564.845 -795.86865 289.86487 0.90276533 -0.42502236 -0.066111721 0.1048939
2572.6499 -780.26715 292.44287 0.94840688 -0.30718213 -0.078508429 0.10540979
2557.4946 -810.45593 289.85803 0.85031331 -0.52406597 0.048188649 0.11757382
2583.0815 -969.31964 297.80191 0.74535769 0.59788615 0.29491365 0.058474485
2549.9702 -857.01556 251.16812 0.80001438 0.071790919 0.59567028 0.12697612
2547.719 -854.91913 284.55499 0.84386235 0.22748654 -0.48594877 0.079093225
2541.9221 -835.56226 284.29126 0.98523879 -0.034792498 -0.16761276 0.13913554
2550.8459 -810.96796 243.03502 0.95557487 -0.19905807 -0.2173764 0.14229411
2551.1382 -842.53339 246.23689 0.94118875 -0.054933671 0.33338577 0.14114805
2549.9482 -825.6781 244.243 0.98229045 -0.15055935 0.11152281 0.14067706
2577.8179 -765.60187 290.50116 0.91550422 -0.3841137 -0.11961874 0.11425012
2556.6143 -881.13605 298.00891 0.9946301 -0.014074829 -0.1025322 0.087771021
2546.0007 -831.27576 289.22772 0.88580197 0.049347419 -0.46143219 0.16479371
2548.8577 -854.12799 253.85222 0.90107179 -0.029902749 0.43263778 0.11392009
2551.835 -848.53455 292.99561 0.79504514 0.17046227 -0.58210468 0.073861018
2578.1184 -964.29095 303.71616 0.8176561 0.54090554 0.19712858 0.073046416
2555.3254 -865.22028 293.95471 0.89626783 0.083940186 -0.43549746 0.084674671
2546.658 -865.02075 256.58423 0.88286114 0.081119068 0.46257526 0.1311179
2549.531 -840.34247 253.23477 0.94002068 -0.091165207 0.3287096 0.12295289
2550.0215 -825.82721 251.98666 0.96449697 -0.26405954 -0.0042592762 0.13152432
2563.3691 -795.8988 298.19516 0.85001719 -0.49190387 0.18841799 0.11803251
2577.0806 -770.60095 300.11917 0.91089845 -0.39537117 -0.11809167 0.11197708
2584.783 -757.76373 301.79807 0.87137455 -0.46207452 -0.16490455 0.11936866
2571.0527 -784.40509 298.91165 0.9304558 -0.35798952 -0.078073457 0.11830825
2556.5188 -798.64056 251.26463 0.92916268 -0.33733219 -0.15120757 0.11368836
2561.2612 -810.67487 299.11707 0.9058125 -0.39862344 -0.14353772 0.14994682
2553.3555 -813.01178 251.70518 0.93488944 -0.35118797 -0.051465932 0.13637987
2539.8494 -819.76385 297.64703 0.64698994 -0.58182675 0.49283028 0.17709656
2565.7644 -774.67224 262.92352 0.93034571 -0.22999142 -0.28558841 0.12290475
2543.3333 -845.13208 270.08237 0.9692347 -0.11756516 0.21624635 0.12358014
2576.1785 -774.591 309.12854 0.91449016 -0.38349754 -0.12898606 0.13976426
2551.1973 -820.20605 266.89716 0.88966006 -0.456487 -0.011161606 0.11511243
2571.9849 -788.00458 304.22598 0.86265934 -0.28824869 -0.41560984 0.17359439
2559.4097 -933.42291 321.09497 0.88793975 0.27525431 0.36850786 0.04210398
2546.75 -832.29138 269.30389 0.9314726 -0.31620094 0.17993259 0.13054676
2557.7427 -805.30115 265.06705 0.89127994 -0.43636134 -0.12332428 0.10697232
2556.5317 -930.03174 272.40912 0.91879946 0.18972903 -0.34613642 0.11163076
2584.2661 -761.35883 308.10199 0.8066783 -0.51452488 -0.29074782 0.10932893
2599.2539 -991.91376 281.82315 0.216903 -0.31583077 0.92369044 0.10200731
2593.8904 -748.57489 309.48642 0.74018091 -0.6594193 -0.1315235 0.10103069
2556.585 -892.42639 317.33545 0.994991 -0.097309858 0.022884948 0.10857128
2554.9888 -808.18805 256.55554 0.89829713 -0.362625 -0.24812375 0.10271053
2551.4299 -820.84381 256.06195 0.95920521 -0.26279214 -0.10423856 0.11340229
2554.1394 -772.4162 264.97809 -0.45148215 -0.31731868 0.8339501 0.092964284
2557.6318 -795.43042 256.93024 0.90827912 -0.2184615 -0.35679626 0.092688918
2548.9373 -832.62225 256.34344 0.94245279 -0.25750348 0.21324809 0.1359427
2557.8967 -939.9682 275.51938 0.88096571 0.031253658 -0.47214687 0.097563036
2558.6199 -926.46454 278.31979 0.923967 0.12699248 -0.36077398 0.08749716
2598.6086 -990.21844 284.61002 0.40642199 -0.055194121 0.91201687 0.083819479
2550.4392 -827.41974 275.08856 0.94472909 -0.32733834 -0.018344991 0.15171725
2547.1528 -861.51373 272.24249 0.94887698 0.25774914 -0.1822028 0.12202895
2555.6389 -814.43561 274.68726 0.86037195 -0.5059182 0.061700221 0.10900993
2547.0547 -840.00714 274.00305 0.99008834 -0.12898652 0.055565309 0.15048271
2572.9722 -767.91913 277.77539 0.8886494 -0.2384783 -0.39170188 0.11063349
2561.9075 -803.68219 277.36124 0.91424912 -0.37483114 -0.15378593 0.098807342
2566.2837 -791.78845 277.45709 0.90734714 -0.35103926 -0.23128456 0.096652105
2546.2566 -850.45081 273.90347 0.99442089 0.10389322 -0.01825799 0.14485644
2569.4465 -780.04767 277.14572 0.92222828 -0.24714629 -0.29734448 0.098713353
2550.76 -829.76831 276.42862 0.95410407 -0.29410011 -0.056485377 0.15035532
2563.9089 -859.99396 323.1134 0.97985816 -0.19840731 0.022638088 0.092094816
2546.5298 -855.02399 273.36169 0.97847694 0.17270227 -0.11294626 0.13696115
2557.9949 -923.27277 277.70685 0.9354471 0.1272628 -0.32976189 0.087311044
2557.876 -888.25726 323.05737 0.96826416 -0.24966921 0.011392622 0.10145623
2557.3064 -933.55774 273.0173 0.91073912 0.17978218 -0.37179643 0.10866833
2556.8699 -899.18378 321.93143 0.99986345 -0.015481942 -0.0057774275 0.1281689
2567.6753 -890.6568 288.56165 -0.60570157 -0.4973622 0.62109298 0.21712331
2560.7449 -874.21704 322.6362 0.96598589 -0.24776158 -0.074063919 0.093690701
2555.5095 -814.68573 275.45367 0.85302693 -0.51491815 0.084878504 0.10891868
2546.8835 -843.06171 275.02386 0.99720693 -0.069664247 0.026930483 0.15565543
2565.4014 -845.28174 323.42517 0.97817874 -0.1147707 0.17318793 0.092242725
2565.1702 -829.8158 321.63834 0.99190372 0.057627995 -0.11316394 0.15243571
2604.8225 -992.12982 280.71249 0.67303604 0.074216753 0.73587662 0.14005542
2562.4993 -802.94348 278.28857 0.91456413 -0.3726767 -0.15711324 0.095348194
2574.3357 -763.0119 279.06046 0.89801592 -0.1902431 -0.39670521 0.11278921
2569.9937 -776.2113 275.08954 0.93495905 -0.2835781 -0.21315506 0.11628424
2567.1824 -790.27081 278.27682 0.91322595 -0.32777727 -0.24203406 0.088210031
2547.5969 -830.44513 272.46658 0.92126298 -0.37012649 0.11950283 0.13016681
2553.7952 -882.32123 274.3891 0.9223907 0.24589193 -0.29788011 0.13516721
2558.303 -934.12244 275.30914 0.90255725 0.15853396 -0.40032154 0.087531917
2554.4075 -816.11359 271.94742 0.87339115 -0.4861649 0.028836653 0.10928702
2566.7224 -786.61615 273.40771 0.91588634 -0.27516794 -0.29229236 0.089573488
2554.3181 -897.84814 273.51071 0.93207175 0.10738255 -0.34599316 0.127073
2551.6497 -867.9942 275.6174 0.95809752 0.15000203 -0.24402557 0.13394868
2555.6851 -913.47302 272.81448 0.96373165 0.10840088 -0.24386591 0.096646048
2561.4287 -801.52594 273.77682 0.90622628 -0.37403211 -0.19711402 0.10036796
2606.7571 -989.13702 278.64114 0.67303604 0.074216753 0.73587662 0.14005542
2570.6665 -772.185 274.24585 0.91308159 -0.22322942 -0.34124866 0.11305172
2580.7903 -764.88257 304.03235 0.86478376 -0.48410153 -0.13339688 0.11531287
2593.4934 -747.76801 306.95502 0.78549951 -0.60368228 -0.13622858 0.098618999
2557.4084 -843.59241 294.11688 0.82515264 -0.073254138 -0.56014013 0.081364065
2577.3474 -766.54779 289.82724 0.91991627 -0.37395698 -0.11794168 0.11342444
2584.3701 -969.74231 295.17361 0.76586604 0.5332647 0.35927421 0.054671105
2550.7917 -829.20953 247.21329 0.98636031 -0.11535434 0.11741674 0.1268142
2583.4478 -751.90106 292.07159 0.91796321 -0.28399897 -0.27692634 0.11524991
2553.0916 -813.61707 245.99117 0.9591192 -0.28297335 -0.0040532532 0.13183105
2554.6284 -873.73431 289.36261 0.9206298 0.15022618 -0.36037883 0.090920053
2568.896 -946.46063 293.14966 0.91574466 0.38210329 -0.12413231 0.0527617
2561.7666 -927.41333 292.20462 0.979334 0.18125495 -0.089730456 0.08080218
2559.2122 -906.51105 290.99863 0.9933297 0.11530849 -0.00032445535 0.099514984
2559.863 -891.90326 291.17667 0.99420655 0.051615864 0.094281949 0.15154755
2563.5696 -795.69916 288.09268 0.91096091 -0.40501234 -0.078199677 0.13254057
2549.1982 -857.51526 252.16223 0.85517663 0.04064953 0.51674038 0.12430027
2570.4761 -780.73956 287.56793 0.9340865 -0.33343354 -0.12768914 0.12235992
2557.6953 -799.31769 246.92578 0.90528768 -0.41365916 -0.096645527 0.14737526
2550.4084 -823.69934 286.81833 0.87813133 -0.43826547 -0.19185607 0.1794721
2550.3733 -843.33032 249.46782 0.92328727 -0.036424071 0.3823792 0.12133026
2554.8335 -858.12274 290.79169 0.82431191 0.086752333 -0.55944961 0.074111164
2549.7737 -832.33832 274.37387 0.97332883 -0.22381942 -0.050357677 0.14457445
2545.8496 -842.56531 273.35599 0.99354231 -0.096009761 0.060463071 0.14808887
2565.7961 -795.33405 278.39502 0.90300512 -0.3596749 -0.23498015 0.083922975
2559.9644 -918.34161 280.50677 0.93010634 -0.067773037 -0.3609834 0.11870252
2551.897 -874.85449 275.98349 0.92202622 0.25390625 -0.29223162 0.11176665
2568.5115 -783.73248 276.32791 0.9255811 -0.26137701 -0.27382791 0.091005899
2558.4417 -930.25293 276.61844 0.91907871 0.14917487 -0.36474818 0.086236931
2559.6758 -807.22052 275.70844 0.91070569 -0.40025944 -0.10201753 0.10080585
2553.8892 -818.97559 273.56512 0.8944177 -0.44267988 0.063651361 0.12226047
2546.5872 -855.40289 272.6236 0.98836863 0.12864703 -0.081101343 0.13478695
2602.5906 -981.2403 283.20987 0.44298884 -0.066928722 0.89402539 0.071010165
2572.0439 -771.65076 277.56277 0.89931315 -0.20372595 -0.38695168 0.11220789
2548.3135 -807.91174 237.45593 0.8969034 -0.26475972 -0.35421258 0.15015548
2560.7141 -933.0531 281.10138 0.9283281 0.17251006 -0.32931325 0.082818702
2558.9629 -918.00293 281.0123 0.94690096 0.074125722 -0.31286404 0.096139498
2598.2085 -981.91064 285.19507 0.69681805 0.2987127 0.65208536 0.078247979
2561.0146 -905.08191 280.98697 0.99667615 -0.080454379 -0.012798396 0.14390871
2547.7131 -856.61383 277.06238 0.95967561 0.23284611 -0.1574973 0.13000008
2551.8828 -873.53461 278.39566 0.92684031 0.22907281 -0.29747722 0.10853641
2564.0886 -797.7041 280.53726 0.9008773 -0.40098068 -0.16623655 0.093356237
2573.4243 -773.40704 281.41174 0.93423903 -0.26691321 -0.23654754 0.1146127
2545.2852 -842.22614 277.24896 0.99934471 -0.024335792 0.026794817 0.15493688
2576.6548 -761.80542 283.40793 0.92078799 -0.17335413 -0.34942502 0.12735485
2547.9141 -832.55035 278.09399 0.95998913 -0.27603978 0.047147248 0.15537129
2553.1497 -819.86163 278.23865 0.87547982 -0.46963266 0.11393105 0.12720892
2558.8398 -808.31122 279.15335 0.8811574 -0.4708859 -0.042756826 0.1014853
2568.6213 -785.8634 280.07654 0.92409194 -0.33339453 -0.18682134 0.09823738
2572.1714 -895.76093 279.54132 0.59497368 -0.077783585 0.79997253 0.18467377
2547.6743 -856.02643 258.70172 0.9754222 0.019452032 0.21948378 0.13155429
2549.3772 -830.20782 258.77106 0.95396185 -0.28813556 0.083275102 0.13284853
2548.1523 -867.4201 260.30884 0.96350086 0.10844403 0.24475704 0.17746979
2562.0081 -793.58459 264.78455 0.89468002 -0.24032532 -0.37655193 0.082208313
2556.428 -805.58118 258.63269 0.90100241 -0.36670494 -0.23178045 0.10412566
2551.6067 -877.14197 260.59686 0.89971232 0.40330192 0.16692889 0.17092544
2552.3708 -817.15851 257.53934 0.94490349 -0.32013977 -0.068321921 0.1319796
2548.5613 -843.69061 258.32278 0.9564184 -0.12133238 0.26559794 0.12017012
2553.2664 -820.1452 285.14301 0.89504796 -0.44465029 -0.034281708 0.13803178
2559.1101 -907.87317 286.91824 0.99745256 0.059954133 -0.038651325 0.10001948
2566.9465 -945.29608 287.53674 0.91769224 0.33187485 -0.21840328 0.063202664
2568.2363 -790.06958 286.50729 0.92231649 -0.37374619 -0.098214567 0.10495026
2573.4517 -774.80847 286.06985 0.93730682 -0.32742083 -0.11937954 0.1126795
2555.7803 -887.27136 284.86871 0.96258825 0.14672439 -0.22780648 0.11733478
2549.6235 -839.02466 239.0816 0.99808764 0.017900536 -0.059166271 0.14873251
2560.7183 -925.69305 286.70432 0.97059226 0.17337787 -0.16700546 0.085912369
2554.979 -873.32751 286.38507 0.89616144 0.28747988 -0.33800888 0.098652385
2561.2319 -804.87152 285.14514 0.87020218 -0.49155346 -0.033517428 0.10216549
2554.6077 -856.44513 287.58865 0.89928907 0.11800594 -0.42113397 0.10472944
2544.6799 -834.11023 282.84982 0.97694087 -0.21297123 -0.01515722 0.15319277
2554.1394 -856.98608 239.04556 0.94629037 0.094507687 0.30919704 0.17284708
2579.1731 -759.16998 284.5314 0.929371 -0.34268287 -0.13725173 0.13928442
2585.3274 -968.68317 291.56091 0.76586604 0.5332647 0.35927421 0.054671105
2555.7314 -893.46973 326.42297 0.97244197 -0.15775357 0.17166959 0.11959425
2557.3728 -907.40875 279.41895 0.98701632 0.056262858 -0.15044375 0.098225459
2558.3872 -923.48743 279.66464 0.93581879 0.19161631 -0.29584858 0.08604937
2559.4575 -879.1543 326.73425 0.94425333 -0.31407988 0.098688655 0.099442698
2580.6714 -887.13452 281.43011 0.50049442 -0.40095252 0.76729548 0.18991227
2565.4148 -848.49384 325.11557 0.98451483 -0.17477897 0.013522436 0.13150449
2567.1521 -788.77216 280.23514 0.93644398 -0.32209733 -0.13901789 0.1100704
2541.4263 -840.29779 277.36111 0.99501055 -0.089511417 -0.044064861 0.12700585
2572.4155 -774.4527 280.67892 0.93099916 -0.2977393 -0.21116792 0.11873577
2560.6736 -803.20892 279.37909 0.89765424 -0.42425871 -0.11925387 0.10528752
2564.7715 -900.22382 281.49597 0.92168462 -0.11485869 0.37054685 0.17840591
2563.0469 -864.30212 326.55875 0.97887659 -0.17280932 0.10925936 0.086484611
2552.2427 -816.94464 280.43564 0.84390593 -0.5332492 0.058890417 0.11912671
2590.1687 -972.20685 289.63724 0.71679419 0.30832955 0.62541103 0.050299834
2566.167 -834.61035 326.5441 0.97831935 -0.13455999 0.15743192 0.12212236
2562.1841 -944.33148 281.26648 0.91394413 0.14602807 -0.37865812 0.066032849
2545.228 -854.75763 276.00357 0.92668813 0.22517909 -0.30090451 0.10587767
2543.6614 -829.5849 279.98962 0.91734046 -0.3750163 0.13360123 0.15964185
2576.9062 -759.91003 280.20523 0.92338395 -0.28913662 -0.25251156 0.13553694
2558.7583 -882.92853 325.99323 0.95861244 -0.28344217 0.026883684 0.11295073
2555.6472 -898.15515 325.60358 0.98883116 -0.13209561 0.069019288 0.11770882
2563.3135 -864.45715 325.03091 0.97437418 -0.22488266 0.0047697509 0.10532743
2565.679 -846.02002 324.31305 0.99048483 -0.13156512 0.040378265 0.13195504
2566.6018 -828.30109 324.67865 0.98723435 -0.064589255 0.14559041 0.13466379
2558.3647 -913.59741 314.26517 0.9798463 0.16681463 0.10988211 0.058812212
2561.6016 -933.09442 317.48068 0.91839677 0.31243038 0.24276453 0.037433706
2562.6558 -837.63141 310.92325 0.93516397 0.11048704 -0.33654267 0.11915445
2562.1365 -854.36981 308.94662 0.94209749 -0.11107355 -0.31640953 0.096438028
2595.3799 -746.35181 304.93918 0.72873759 -0.67477977 -0.11667824 0.099274203
2557.7966 -893.09784 312.04401 0.99926525 -0.034954589 0.015720731 0.076197311
2559.0962 -872.8988 308.68283 0.96744931 -0.14264265 -0.20903316 0.083679356
2580.8237 -763.63062 302.72171 0.83425564 -0.52008253 -0.1831166 0.11551122
2573.7783 -778.85736 301.65649 0.93542665 -0.27334401 -0.22418758 0.12735279
2596.321 -983.33594 288.47937 0.73860317 0.36550015 0.56645828 0.065757073
2546.0291 -831.08081 274.29446 0.90313143 -0.39584196 0.16632135 0.13242568
2551.6953 -819.02765 272.79727 0.88227719 -0.46176991 0.091408432 0.11346524
2582.4478 -889.35638 283.33713 0.18608455 -0.14810857 0.97130656 0.21351622
2558.1206 -923.55652 278.77023 0.93693399 0.18993485 -0.29339293 0.088735633
2543.144 -841.74115 275.11133 0.98043108 -0.065204397 0.18575044 0.13263392
2563.3206 -932.3905 293.95163 0.97676533 0.17685799 -0.12104029 0.08748389
2560.4678 -892.13788 288.8201 0.99794787 0.038946778 0.050824918 0.15248053
2564.0688 -884.4856 291.7233 0.90376103 0.38339189 -0.19033301 0.20044102
2551.2415 -838.22552 240.72154 0.98448479 -0.052350182 0.16747889 0.12340775
2554.4912 -856.57788 242.7681 0.88697255 0.10723707 0.4491992 0.16521546
2561.3386 -910.85828 290.60757 0.99601775 -0.030285498 0.083853506 0.12682377
2561.3442 -802.64459 281.85059 0.89719951 -0.43021959 -0.099720053 0.10767984
2550.8201 -805.36481 236.15416 0.92187703 -0.32936016 -0.20411921 0.18972589
2549.1929 -820.03888 280.41898 0.84609777 -0.53208607 0.031670898 0.13811184
2567.573 -787.53192 280.41846 0.94139403 -0.3153511 -0.11971199 0.10900789
2576.2346 -756.05737 278.90118 0.89900076 -0.2199114 -0.37873024 0.15295713
2572.6277 -772.5307 279.56052 0.92088282 -0.30024421 -0.24865295 0.12492409
2546.6548 -821.5094 239.99199 0.9493944 -0.1392404 -0.2815358 0.13979711
2559.332 -918.97284 281.88794 0.9446817 0.077316612 -0.31874532 0.093949392
2593.6858 -974.99542 286.9809 0.71679419 0.30832955 0.62541103 0.050299834
2562.6968 -940.03778 284.09689 0.94591159 0.11780298 -0.30228093 0.085180029
2563.7808 -863.55322 322.08044 0.97893465 -0.1723135 0.10952169 0.079115562
2546.1318 -842.22614 275.18234 0.99572581 -0.071897529 0.057972815 0.14810225
2555.7771 -811.52106 273.04929 0.8769511 -0.48032773 0.015559402 0.11668929
2559.9253 -878.76184 323.04916 0.94569188 -0.29918468 0.12710379 0.094220527
2562.7693 -903.58337 281.33865 0.98335814 -0.096838295 0.15371768 0.16882062
2567.0881 -780.09723 269.72571 0.92481452 -0.24822612 -0.28827396 0.10532844
2549.3645 -826.88062 273.62677 0.9127003 -0.3876487 0.12925407 0.13806012
2596.083 -748.10504 316.18747 0.70813417 -0.69107914 -0.14476033 0.10692089
2566.0837 -848.70605 320.75113 0.99316382 -0.026744686 0.11362345 0.087298542
2563.2212 -796.27643 273.37811 0.90883857 -0.36971098 -0.19319996 0.090623491
2555.6577 -896.76782 323.13562 0.95480227 -0.22813462 0.19054458 0.11789184
2584.478 -763.36249 315.06802 0.80761057 -0.54857254 -0.21641023 0.10766279
2548.0811 -858.89478 274.94235 0.95754331 0.20828889 -0.19931519 0.13514923
2547.5037 -833.30914 263.94833 0.94120562 -0.27359262 0.19818948 0.13014284
2559.925 -792.2973 260.66089 0.89887786 -0.28889799 -0.32947928 0.089704186
2555.3943 -930.07196 271.28906 0.89735448 0.10662059 -0.42823708 0.10467769
2548.9062 -820.56616 262.83646 0.91050458 -0.39267814 0.12955804 0.13022903
2544.5371 -846.82373 264.93521 0.96320105 -0.10527247 0.24730837 0.11985665
2546.989 -861.14325 265.01929 0.98556572 0.16925041 0.0038085738 0.14772481
2545.981 -869.61731 264.8129 0.95413601 0.29910105 -0.012768522 0.17526038
2571.8289 -951.4826 304.03479 0.92422187 0.38086674 -0.027467659 0.050558321
2551.0474 -872.6344 256.49615 0.9643625 0.20718952 0.16455217 0.19491225
2561.3074 -846.45886 305.06479 0.90743715 0.062218197 -0.41555598 0.087825231
2550.8606 -830.11017 257.5578 0.98708111 -0.15366727 -0.045357101 0.12465545
2545.3474 -822.32477 285.1048 -0.16638362 -0.047859684 0.98489892 0.20492218
2547.6409 -812.0766 300.78946 0.71507734 -0.60426605 0.351464 0.13567758
2563.1096 -798.6073 300.04276 0.84024471 -0.50967604 0.18498404 0.14457402
2558.7832 -900.90833 302.52277 0.98877978 -0.028183624 0.14669792 0.096707284
2550.2576 -844.06927 255.01443 0.96995133 -0.10326537 0.22029686 0.12086523
2579.8645 -972.07629 304.53897 0.76201195 0.38407648 0.52136648 0.058385178
2560.0269 -872.88239 302.48199 0.98636043 -0.039016489 -0.15990873 0.099813625
2544.1343 -874.81427 265.91568 -0.1436042 0.63003099 0.7631768 0.15129772
2549.2473 -859.90558 255.6378 0.99331844 -0.0079791965 0.11512973 0.15357853
2559.9236 -886.71539 302.47681 0.98177034 -0.090831481 0.16696312 0.12249893
2561.531 -859.58246 305.05539 0.95125157 -0.061396725 -0.30224305 0.096027628
2558.0315 -802.40851 260.5455 0.89810884 -0.25951096 -0.35504168 0.093553051
2563.9937 -932.13171 304.10367 0.962044 0.27175656 -0.024894431 0.058341458
2553.6536 -815.62433 259.05795 0.93584126 -0.26637357 -0.2307514 0.11568823
2560.0901 -913.87567 302.02921 0.9932062 0.11328388 0.026611529 0.083032735
2581.957 -763.59583 303.91504 0.89424664 -0.43223193 -0.11618315 0.097394325
2568.5437 -787.67529 301.48547 0.88200331 -0.46010914 0.10183194 0.12013213
2575.2197 -775.56305 302.23682 0.9227643 -0.37978774 0.065325089 0.10696908
2575.908 -883.46912 283.60553 0.64965588 -0.32289776 0.68824726 0.19394201
2558.9854 -907.72119 285.69669 0.99660259 0.055739608 -0.060633309 0.10243124
2560.3501 -924.35175 286.40488 0.9671883 0.18715858 -0.17180924 0.084723063
2591.1096 -973.81311 289.35068 0.71679419 0.30832955 0.62541103 0.050299834
2564.7393 -943.84747 286.79178 0.94411522 0.1948031 -0.26589137 0.068046719
2554.5852 -887.82227 329.82739 0.8428477 -0.41902301 0.33767956 0.1480215
2570.2717 -899.00037 281.59396 0.80199963 -0.22423746 0.55363721 0.15256074
2569.1313 -787.08698 286.31387 0.92905873 -0.36505139 -0.059895065 0.10018821
2549.2422 -828.47211 283.94238 0.95726895 -0.28749147 0.031381082 0.18282114
2547.3953 -842.09998 282.96698 0.97323489 -0.022132488 -0.22874439 0.17106502
2556.3596 -813.52075 284.54355 0.84909576 -0.52375084 0.068712667 0.12528498
2550.4641 -858.52686 283.77521 0.88252586 0.16945589 -0.43867165 0.097956233
2563.6646 -800.40186 286.55688 0.89513069 -0.43590319 -0.093431234 0.10925028
2560.3799 -876.03387 333.36932 0.95464271 -0.28352386 0.090948023 0.11622224
2563.05 -846.4162 330.97458 0.95695513 -0.080381006 0.27888316 0.11354388
2578.8684 -760.02191 284.30222 0.9155367 -0.38022777 -0.13122267 0.13997027
2557.8555 -892.90045 311.96594 0.99879825 -0.04637425 0.01585895 0.074977607
2560.5686 -924.84644 315.05136 0.95335197 0.27126026 0.13243048 0.061980512
2558.3235 -908.53894 313.14679 0.98956692 0.13728487 0.043706018 0.061193593
2556.5857 -935.96564 274.30371 0.85362649 -0.0054149851 -0.52085751 0.10313776
2547.2932 -868.51575 263.54175 0.93535465 0.35069114 -0.046124149 0.17042713
2560.9834 -876.26788 311.17673 0.98286909 -0.17916018 -0.043243222 0.098682091
2559.6216 -791.87146 259.07477 0.89982378 -0.29910985 -0.31756967 0.095384814
2548.4229 -841.26495 262.59622 0.98362672 -0.15795262 0.08677201 0.12445749
2555.9253 -808.77814 260.24838 0.8973465 -0.4065024 -0.17182855 0.10441753
2568.1958 -788.6181 303.95847 0.90234911 -0.42847818 0.046609789 0.11984193
2550.2649 -824.49091 261.71103 0.9241212 -0.36742356 0.10488073 0.13093719
2576.0559 -773.13 304.0318 0.90355527 -0.42840958 -0.0072839702 0.11083003
2562.9343 -858.69336 310.49973 0.96199995 -0.14280501 -0.23272903 0.074948736
2563.5034 -842.03674 310.22534 0.96478736 0.0078791119 -0.26291311 0.10630659
2545.0537 -854.83496 264.75967 0.97001511 0.02269149 0.24198306 0.11545784
2575.5415 -957.44305 301.06683 0.85249639 0.5222522 0.022416892 0.070298307
2559.7603 -910.52057 296.08002 0.99482793 0.10018934 0.016719813 0.086981602
2544.6348 -828.91919 287.24228 0.89040846 -0.4546113 0.02239136 0.18046895
2565.1543 -936.79877 299.33344 0.95672095 0.26854792 -0.11210269 0.060734197
2559.4651 -891.98517 295.08179 0.98440284 0.031359941 0.1731115 0.13881674
2576.6941 -764.17859 284.45154 0.78626996 -0.61713678 0.030360211 0.12962458
2565.2979 -794.44641 286.61276 0.91053659 -0.39936489 -0.10691508 0.11061595
2553.7363 -849.94427 290.4975 0.8243621 0.062385645 -0.56261462 0.083166227
2557.3413 -811.20569 287.97922 0.85527503 -0.51554644 -0.052119624 0.11101377
2572.6294 -776.3255 285.4263 0.92913347 -0.33932444 -0.14686693 0.1130584
2556.2983 -870.8891 292.36551 0.89582855 0.076515175 -0.43776318 0.097399458
2562.5042 -931.7533 288.14386 0.95659548 0.16027717 -0.24338523 0.07888186
2558.4485 -906.60321 283.29929 0.99229306 0.06105683 -0.1078264 0.1024146
2557.6355 -808.38812 275.83966 0.88349736 -0.46534222 -0.053749718 0.10614055
2546.5012 -836.67584 277.29947 0.98678106 -0.14816482 0.065652795 0.15204705
2551.7991 -857.65088 281.27686 0.94643909 0.1466352 -0.28766495 0.12000087
2551.7197 -821.84131 276.77414 0.8880592 -0.45123598 0.087960251 0.13026877
2564.6787 -793.6947 275.58099 0.90036809 -0.37260592 -0.22472678 0.09192834
2568.6619 -777.37976 272.53589 0.91815382 -0.27174297 -0.2883563 0.11363646
2572.2793 -762.61597 274.86917 0.87538946 -0.19537392 -0.44217905 0.13261245
2553.2551 -874.19672 281.2659 0.91395253 0.24134529 -0.32625639 0.11099575
2585.2231 -761.68622 318.95636 0.79176807 -0.59621507 -0.13278124 0.1085429
2600.2625 -746.46582 322.02255 0.49051252 -0.87041605 0.042111903 0.062212344
2556.8066 -890.64154 280.86646 0.95452964 0.089885153 -0.28424248 0.15556742
2557.5039 -810.80261 282.92062 0.86430192 -0.50281841 0.01248461 0.1125773
2575.3757 -770.73114 285.44833 0.94295901 -0.28060973 -0.17912707 0.11382035
2560.4324 -871.57056 330.51389 0.96855038 -0.23648043 0.077376522 0.096602023
2570.2068 -784.54492 284.85162 0.9433428 -0.28637764 -0.16760741 0.097824894
2551.5344 -899.0127 330.17041 0.91602618 -0.26245385 0.30333808 0.14474858
2562.8328 -856.40063 330.44263 0.97850502 -0.13838854 0.15289406 0.082688287
2567.5654 -951.52509 282.66135 0.88770866 0.33463767 -0.31621346 0.051380262
2557.3835 -885.9162 328.93793 0.95492828 -0.29676947 -0.0063166735 0.14845581
2547.0396 -838.6687 281.46378 0.97822088 -0.16192953 -0.12985642 0.17561142
2560.4404 -931.24469 281.42953 0.93823493 0.19511779 -0.28573456 0.083653554
2565.0974 -841.05829 330.26477 0.99175018 -0.027557556 0.12518866 0.10482354
2563.3433 -828.43646 328.75543 0.96215445 0.090183742 0.25714925 0.14004982
2594.3174 -983.07129 290.07037 0.71450323 0.28634772 0.63834953 0.060044199
2565.8926 -797.79535 285.31781 0.89886993 -0.40528631 -0.16666074 0.091598384
2553.7307 -827.21088 284.47937 0.95260078 -0.23445372 -0.19386402 0.16517706
2547.7366 -857.034 259.36145 0.98133874 0.010231371 0.19201462 0.13178842
2561.6204 -793.24683 263.52176 0.9010253 -0.24760246 -0.35615507 0.075884774
2557.3308 -805.12329 260.77332 0.91599375 -0.30087692 -0.26538378 0.090617701
2549.7515 -829.24384 259.80365 0.94461453 -0.31764635 0.082487628 0.13087156
2549.2737 -844.02374 258.65576 0.9776541 -0.12352899 0.17009707 0.12682644
2553.408 -817.30933 261.04388 0.94228345 -0.28488916 -0.17589787 0.11529245
2552.5693 -877.19781 261.71909 0.8407473 0.47114429 0.26677147 0.17643821
2549.2979 -925.54321 263.32556 0.84032249 0.12330861 -0.52787602 0.15291789
2550.4409 -871.74915 259.3588 0.96369326 0.20285678 0.17362149 0.17913166
2559.9019 -879.23267 319.91379 0.96416855 -0.24876794 -0.092160009 0.099446744
2565.7122 -847.75793 318.07498 0.99392211 -0.10515559 -0.032574113 0.097734943
2556.9036 -895.2373 321.09055 0.9912129 -0.12358689 0.047151104 0.10600713
2563.8313 -785.51428 264.37616 0.93454635 -0.24268448 -0.26024488 0.1108119
2596.3718 -975.28558 283.51813 0.74631345 0.33933538 0.57259738 0.066849582
2559.4102 -801.46375 266.34015 0.90472966 -0.38835055 -0.17506593 0.10911304
2548.491 -830.8421 268.96899 0.95346463 -0.29585665 0.058086284 0.13519202
2581.9131 -894.48877 283.8754 -0.012337293 -0.2116148 0.97727525 0.15362419
2545.7068 -858.15234 269.05649 0.98173994 0.16941719 -0.086513296 0.15719131
2553.7444 -816.88538 267.97858 0.89165956 -0.45257404 -0.010952299 0.11173075
2565.9954 -831.04205 316.99039 0.99976844 0.020977845 0.0048011318 0.093235791
2557.1238 -918.7182 276.38284 0.95257485 0.12639531 -0.27681285 0.090314083
2563.6028 -863.69678 319.07169 0.97602952 -0.21179856 -0.050077341 0.083081141
2544.7332 -844.46466 269.73355 0.99178654 -0.068444766 0.10805003 0.12760629
2560.9143 -942.14056 279.90442 0.91570336 0.061725579 -0.39708608 0.0795798
2570.4922 -773.43134 274.42468 0.8840307 -0.11087225 -0.45408931 0.1128829
2579.6646 -768.79803 311.06503 0.84515816 -0.50696111 -0.16940534 0.12360947
2589.6094 -754.17871 311.62161 0.79263949 -0.58051366 -0.18635045 0.10909498
2572.0776 -781.65485 312.97983 0.93635261 -0.35046321 0.020476425 0.14299883
2576.4851 -962.401 305.65512 0.8210246 0.52827281 0.21644041 0.078212947
2557.615 -884.01355 296.98529 0.99999362 -0.0024144263 -0.0026204155 0.094292417
2577.5105 -764.99609 288.03287 0.90042871 -0.42279756 -0.1023246 0.13218784
2550.9697 -822.77136 247.15092 0.98772329 -0.15330632 0.029997613 0.14368019
2550.2839 -855.05457 250.55652 0.91682529 -0.038974442 0.39738193 0.12187526
2554.9451 -851.82831 292.5448 0.79872537 0.070510246 -0.59755009 0.074124329
2557.4685 -868.95465 295.81485 0.9262858 0.089627579 -0.36600751 0.10607239
2560.5337 -918.65741 299.89148 0.99009228 0.13386083 -0.042409319 0.066742927
2565.6599 -793.03076 289.46646 0.90777141 -0.41311291 -0.072723992 0.11275461
2556.8455 -808.00403 290.8183 0.83986431 -0.53568137 0.087597772 0.12655696
2585.1079 -750.14746 290.46976 0.88921207 -0.40069371 -0.22078608 0.11700246
2567.9954 -942.74023 303.15463 0.93563688 0.34550646 -0.072172768 0.055059448
2558.1926 -901.00488 298.29379 0.99579197 -0.0015177823 0.09162987 0.09660507
2571.3735 -777.73633 287.93484 0.94631165 -0.3108702 -0.088622585 0.11604722
2550.9534 -833.82214 286.29913 0.77010375 -0.091057129 -0.6313864 0.16434996
2550.9905 -869.4809 252.97108 0.89054847 0.1158476 0.43988946 0.18240048
2550.9648 -840.06335 249.2552 0.96480685 -0.06336429 0.25521109 0.13021244
2602.6138 -980.94165 283.22067 0.44298884 -0.066928722 0.89402539 0.071010165
2557.4023 -879.15936 280.56012 0.90295851 0.34832707 -0.25166288 0.14122969
2558.3381 -916.12317 279.54034 0.94864315 0.07030607 -0.30843675 0.1005923
2560.2058 -902.9859 279.06247 0.99676436 -0.017676352 -0.078411281 0.15840723
2547.0264 -831.44757 277.46555 0.93550849 -0.33633786 0.10816994 0.14293127
2557.7224 -890.4884 280.32974 0.9493013 0.10838025 -0.29509449 0.1635007
2559.136 -807.54425 278.22955 0.88918823 -0.45195729 -0.071266346 0.10041894
2553.2957 -818.47113 277.80841 0.86886042 -0.49121559 0.061553068 0.12478287
2547.2046 -853.01422 240.26981 0.88915038 0.13996667 -0.43568444 0.17206568
2564.6931 -795.99548 278.52753 0.89733171 -0.39075196 -0.20520394 0.087492839
2574.9399 -773.37585 284.43954 0.90631807 -0.21503548 -0.3637957 0.10776239
2575.9761 -759.92456 281.7131 0.89994347 -0.16066755 -0.40532422 0.13336244
2560.5034 -931.59546 281.23297 0.93115574 0.15857345 -0.32833439 0.082235917
2570.1047 -784.48615 281.49405 0.91242701 -0.29051712 -0.28823045 0.087991513
2558.2507 -855.54663 247.8373 0.14176358 0.46943495 0.87151241 0.19412364
2559.2356 -883.50507 312.05817 0.98413652 -0.17620027 -0.020705635 0.099878341
2565.8862 -784.0484 267.15118 0.90325141 -0.28832644 -0.31781244 0.099103518
2565.74 -771.49335 267.42685 0.87496638 -0.070811518 -0.47897762 0.12656777
2557.3826 -895.42737 310.785 0.99790704 -0.057766166 -0.029061969 0.078208774
2556.5273 -810.56769 265.1611 0.89710838 -0.39870989 -0.19033389 0.099255592
2562.8923 -930.62567 312.75616 0.95281011 0.28284439 0.11023585 0.046756111
2560.7612 -797.59851 265.19946 0.91692829 -0.30317855 -0.25947118 0.088391356
2552.8711 -929.20477 265.52115 0.89583892 0.1625143 -0.41359615 0.14785293
2547.4783 -838.1001 263.07825 0.96648443 -0.20227416 0.15809172 0.12398775
2563.9119 -841.1203 312.92755 0.95706254 0.037292108 -0.28747278 0.12155345
2557.9351 -909.01343 311.44196 0.98806733 0.14056416 0.06296581 0.057854775
2551.5044 -823.92957 263.76767 0.90730757 -0.41784492 0.046889525 0.1145694
2563.6736 -854.58838 312.81354 0.96442664 -0.11934602 -0.23587659 0.083309151
2588.7925 -755.77771 312.86871 0.86986268 -0.45943817 -0.17959815 0.11068729
2560.9441 -868.98901 311.01038 0.9654085 -0.18959239 -0.17900045 0.08948613
2546.4048 -864.46741 264.23514 0.97865063 0.08138106 0.18873289 0.15767936
2545.3159 -850.39862 264.44882 0.97284573 -0.061396591 0.22316283 0.11877408
2571.6565 -782.07477 310.91306 0.92958915 -0.36698064 0.034485884 0.13822892
2559.1562 -915.83203 282.50287 0.97164106 0.075678036 -0.22402327 0.10255674
2599.0732 -986.2547 286.26105 0.69681805 0.2987127 0.65208536 0.078247979
2556.304 -883.76178 282.53271 0.9277488 0.16948605 -0.33250058 0.14338727
2561.8296 -934.0329 284.04895 0.94499278 0.18257813 -0.27139252 0.077265657
2554.9226 -896.19055 279.95999 0.95324141 0.11145934 -0.28090504 0.087791614
2544.8247 -832.71741 280.49069 0.96269864 -0.26626971 0.048080936 0.14737804
2549.9512 -820.25702 281.32803 0.83236355 -0.53626961 0.13994947 0.12020804
2550.9661 -839.20526 239.73645 0.98835605 -0.040857662 0.14657085 0.13473982
2554.2959 -854.27161 241.34529 0.90720499 0.12477811 0.40175807 0.16154666
2547.6746 -848.77655 280.75735 0.98115051 0.13090216 -0.14215581 0.15024197
2550.7185 -865.63843 281.37836 0.92248273 0.19408841 -0.33369943 0.098821595
2551.5168 -863.03473 243.55284 0.99731332 -0.066467874 0.030791471 0.19502035
2549.7761 -833.93329 257.3645 0.98554754 -0.14552981 0.086701259 0.12320444
2553.4863 -875.70636 258.58313 0.87921786 0.41030195 0.24213272 0.17299977
2553.6826 -820.54407 260.59891 0.94778949 -0.28942263 -0.13390148 0.11479174
2549.2427 -863.79974 258.23431 0.99474502 0.073954798 0.070802644 0.15668869
2549.1411 -847.35266 256.23502 0.96443033 -0.091019616 0.24817242 0.12046311
2560.188 -913.76941 307.23297 0.98297369 0.13012765 0.12972876 0.071432754
2558.9387 -891.76868 305.4722 0.98273998 -0.074256957 0.16943441 0.1114191
2564.386 -933.17645 309.00458 0.96107936 0.27618009 -0.0071462397 0.05408844
2549.5552 -932.883 263.1499 0.84798366 -0.028805641 -0.529239 0.18653195
2573.3037 -955.87067 311.99731 0.92003047 0.39176244 -0.0081323991 0.045321133
2548.5413 -853.01947 255.19707 0.93913299 -0.033813804 0.34188566 0.12624986
2561.1833 -874.19843 305.39737 0.99149638 -0.11659538 -0.057796881 0.10922841
2573.699 -779.11584 298.83112 0.9355824 -0.35277516 0.015339725 0.10875642
2563.7539 -857.07617 307.37433 0.95486265 -0.078440093 -0.28650385 0.10855515
2580.429 -763.33246 297.26569 0.90942186 -0.38639364 -0.15379155 0.11265461
2548.4446 -812.56561 299.06894 0.73317534 -0.58819163 0.34129831 0.1371368
2566.0461 -794.43848 297.63849 0.88296556 -0.44982821 0.13426252 0.12102628
2552.2876 -816.185 252.12785 0.95773673 -0.28715497 0.016802905 0.12040484
2549.3777 -834.6969 253.83215 0.95205021 -0.19643179 0.23455258 0.1276325
2549.0293 -869.67078 258.33307 0.91350752 0.20138705 0.35347885 0.17740527
2587.4456 -753.31378 293.70001 0.62073189 -0.77649564 -0.10838092 0.094920963
2560.9961 -834.97833 303.18567 0.91638505 -0.0039717564 -0.40027824 0.093996599
2565.2666 -940.61743 293.81094 0.94766885 0.2862094 -0.14144924 0.063640185
2600.1028 -746.16852 329.00558 0.5205431 -0.85336536 0.028327985 0.06470114
2554.0852 -856.1217 287.98199 0.88838786 0.056458864 -0.45560884 0.09356536
2582.2534 -967.80798 298.11313 0.75093055 0.56896365 0.33523682 0.054224283
2564.1143 -798.21295 284.51993 0.90189165 -0.41476393 -0.12067453 0.10244258
2575.5591 -764.72137 278.9328 0.89317101 -0.44209239 -0.082461536 0.13690883
2560.9907 -919.22333 292.16025 0.99077296 0.11011345 -0.079018742 0.097289369
2559.3242 -878.7851 289.76727 0.95818496 0.20464617 -0.20000389 0.15651616
2570.5957 -780.8819 283.06931 0.94714236 -0.27670908 -0.16233753 0.10238671
2555.4443 -814.73767 284.01773 0.84369767 -0.53680217 -0.0042059789 0.11983071
2548.9846 -834.20837 284.78809 0.95733702 -0.20259964 -0.20605619 0.1743722
2560.3123 -898.00171 290.91876 0.99309486 0.0024980018 0.11728739 0.13424794
2548.7451 -848.02167 253.53687 0.91478181 -0.0034546971 0.4039335 0.10888062
2549.3713 -834.14264 251.99297 0.95471185 -0.14798568 0.25811908 0.12088227
2549.2214 -863.66565 254.1472 0.93757826 0.097310275 0.33388272 0.14996628
2550.8879 -822.41614 253.83344 0.95988226 -0.13681981 -0.24475783 0.11779144
2562.9902 -849.15076 304.61737 0.90714175 -0.09618289 -0.40968615 0.090723626
2549.7346 -847.85083 252.36079 0.96049708 -0.063244171 0.27100834 0.12356821
2552.0625 -818.28516 253.46819 0.9601959 -0.23367278 -0.15303883 0.11652869
2561.959 -923.70081 300.88675 0.98491967 0.1707959 0.027604217 0.082807228
2558.0442 -903.83496 300.28232 0.99427885 0.053911753 0.092212379 0.093419619
2561.0093 -799.11072 297.151 0.77726799 -0.54361242 0.31676486 0.10348406
2547.9165 -813.57599 297.98425 0.71795827 -0.59040391 0.3687264 0.13528226
2551.8826 -873.09485 255.39354 0.83401084 0.27010003 0.48111522 0.19984156
2559.0413 -890.00378 300.09412 0.99593258 -0.003618133 0.090028957 0.11961972
2549.8738 -832.6449 251.85522 0.98412246 -0.16435441 0.067011908 0.12148181
2566.6885 -940.40991 302.12973 0.95024157 0.2969968 -0.093988612 0.052615471
2560.9573 -862.85419 301.88971 0.93606955 -0.027068393 -0.3507722 0.10390328
2560.4351 -877.14075 300.15808 0.99661309 0.054683134 -0.061417513 0.12992734
2577.4995 -962.97296 302.52573 0.81102389 0.52585852 0.25634551 0.069046319
2553.7083 -828.42511 291.207 0.7819919 -0.12797609 -0.61000884 0.19307841
2550.4683 -864.52942 251.27377 0.96385026 0.078123815 0.2547338 0.17390437
2569.0601 -788.9212 299.49686 0.91208827 -0.40462613 0.066125855 0.11241609
2582.2817 -762.32129 301.65503 0.9007265 -0.42195496 -0.10317853 0.095973603
2574.7844 -776.37762 300.12326 0.93292129 -0.35904574 -0.027276641 0.09715236
2588.8547 -750.90918 301.03687 0.82887608 -0.51838684 -0.21033195 0.11104861
2603.0459 -979.30908 283.12885 0.44298884 -0.066928722 0.89402539 0.071010165
2558.9844 -930.91504 277.96997 0.91430831 0.11925621 -0.38706359 0.085477889
2565.3923 -788.28278 271.15735 0.91109359 -0.34451267 -0.22631712 0.10630151
2569.7581 -773.10352 270.96497 0.92764986 -0.27238476 -0.25548437 0.1341237
2550.9832 -877.00482 273.00449 0.93158185 0.26532337 -0.24851313 0.11068089
2574.5234 -761.33374 279.53436 0.86193949 -0.060601421 -0.50337636 0.1057015
2554.8132 -895.19299 274.09216 0.89184487 0.078722492 -0.4454385 0.16404338
2584.8704 -762.31793 315.42776 0.78744012 -0.57919055 -0.21089426 0.096408635
2545.8989 -855.69366 270.28217 0.98265713 0.16251181 -0.089302227 0.13370493
2560.0012 -801.96136 271.68912 0.89267844 -0.42882878 -0.1386763 0.10659515
2546.467 -829.84015 272.11975 0.88148576 -0.45333159 0.13218677 0.14244792
2598.103 -746.03021 318.9425 0.69349539 -0.72015423 0.02102468 0.11070093
2557.6953 -913.19702 276.38437 0.95032597 0.025632678 -0.31019926 0.13765082
2553.7878 -815.97205 271.22693 0.8857407 -0.46113726 0.05306489 0.11099321
2542.2217 -838.95282 272.6868 0.98049504 -0.065693416 0.18523997 0.11344647
2558.8662 -907.17383 300.92471 0.98632294 0.15125285 0.065495215 0.095001392
2556.7034 -807.59259 292.81357 0.83869481 -0.5389291 0.078398846 0.12901071
2558.8347 -866.02063 298.49219 0.92106652 0.016313553 -0.38906342 0.087919086
2578.1296 -975.94885 308.09079 0.77957225 0.30744651 0.54565901 0.083278596
2563.3486 -929.4574 304.05743 0.96317434 0.26678362 -0.033490676 0.058808595
2568.0027 -789.13916 291.77628 0.91869426 -0.39282691 -0.041083656 0.12305297
2558.7249 -846.95306 299.43396 0.86899281 -0.0095428433 -0.49473271 0.083752051
2559.1719 -885.06805 300.03085 0.99797428 -0.057940431 0.026271805 0.11148751
2575.1987 -771.23395 291.43253 0.91417855 -0.39283586 -0.099787444 0.11183721
2569.9277 -947.6037 294.63541 0.92079586 0.36261979 -0.14367293 0.045140237
2560.0364 -911.31152 292.97302 0.99448043 0.10453042 0.0090574501 0.088909082
2555.9736 -877.47919 290.16867 0.94965851 0.16631831 -0.26549366 0.10826633
2590.3647 -975.85419 291.21066 0.71679419 0.30832955 0.62541103 0.050299834
2551.3679 -832.00629 286.52338 0.82913333 -0.1554324 -0.537009 0.16649573
2555.4685 -864.20502 291.9183 0.85205549 0.11404687 -0.51087642 0.080078423
2554.4602 -849.01453 291.35318 0.83663177 0.022519276 -0.5473026 0.083708711
2562.5037 -928.64514 293.54419 0.98841381 0.11602035 -0.097864173 0.098714419
2559.3967 -892.82611 292.36084 0.99311894 0.050841387 0.10549852 0.14006007
2567.8477 -792.10229 292.20135 0.92651045 -0.37536398 -0.026081856 0.11436908
2583.0303 -753.0882 292.7724 0.92770255 -0.28485444 -0.2413006 0.12647197
2561.4666 -803.84814 291.45453 0.86575174 -0.49314293 0.085345924 0.11511371
2552.7888 -818.15985 289.92972 0.8386032 -0.54374576 -0.032941855 0.1534622
2577.9988 -766.56934 292.13373 0.91178489 -0.3921997 -0.12176902 0.10890143
2573.3291 -779.05518 292.57852 0.94499701 -0.3209441 -0.063051336 0.10143115
2560.2463 -918.88409 280.31836 0.81381863 -0.077263623 -0.57595962 0.13638006
2561.1531 -930.88446 317.23608 0.92509234 0.28738675 0.2482198 0.038995747
2558.3953 -910.94055 315.03516 0.98506594 0.14820711 0.087634154 0.064144835
2545.8164 -869.18286 265.51797 0.94374168 0.32904035 -0.032924995 0.16634166
2556.4573 -933.22302 272.77963 0.885158 0.12796138 -0.4473491 0.10110009
2557.6079 -893.21539 314.04688 0.99644607 -0.082306288 0.017914128 0.083354414
2559.6257 -878.60315 312.79492 0.97180951 -0.22321661 -0.075899109 0.08440055
2547.9653 -863.00568 266.00116 0.9863559 0.16119608 -0.033434164 0.1430421
2564.6482 -849.64392 313.57272 0.96925354 -0.054332864 -0.23999068 0.092572019
2583.9951 -759.38416 303.07993 0.83881974 -0.47350523 -0.26865271 0.11374032
2562.4678 -863.79633 312.37402 0.96347594 -0.12808031 -0.23517972 0.073809616
2561.7971 -787.40448 259.54211 0.92132533 -0.26974019 -0.27999985 0.12238458
2575.0583 -772.96106 301.54172 0.89418346 -0.40115279 -0.19877732 0.14226912
2551.7615 -817.75842 261.58984 0.89824814 -0.43786505 -0.037742823 0.13438608
2545.0298 -844.42462 265.34799 0.9736138 -0.068565547 0.21765777 0.120972
2570.6565 -786.48639 302.37561 0.92503411 -0.32790169 -0.19181342 0.15667219
2548.2458 -831.18073 263.66498 0.9526571 -0.26491958 0.14920478 0.12201622
2561.6077 -909.36591 284.33612 0.993756 -0.098582268 -0.052254312 0.16183113
2562.5068 -865.23993 327.40961 0.97016919 -0.17987427 0.162533 0.10043222
2564.1619 -851.54565 327.0773 0.96967202 -0.056207154 0.23785901 0.075468644
2568.7793 -896.92804 280.26804 0.78851396 -0.13587654 0.59981942 0.19387591
2560.5945 -922.15515 284.45612 0.945961 0.1044414 -0.30700135 0.097638391
2562.9072 -940.26062 284.66876 0.94591159 0.11780298 -0.30228093 0.085180029
2546.5708 -845.0387 280.96198 0.99940437 -0.024613844 -0.024188494 0.1720213
2586.1533 -966.64673 286.55826 0.73414141 0.56068236 0.38297734 0.057731684
2547.1453 -856.00391 278.68234 0.91930664 0.25681934 -0.29819316 0.12079266
2556.2644 -889.81689 327.39362 0.94211942 -0.29837 0.15292592 0.11332095
2560.2651 -876.65265 327.68167 0.93765634 -0.33825099 0.079917498 0.10222922
2571.5354 -781.02869 284.08127 0.94450396 -0.28801855 -0.15797952 0.10518552
2566.9976 -793.92853 283.95502 0.90987283 -0.37677172 -0.17370819 0.10136191
2549.2241 -832.80286 282.23477 0.95156747 -0.30169281 -0.059167519 0.16979481
2553.5957 -818.49994 281.71613 0.86829489 -0.49288145 0.055963248 0.1249449
2559.7385 -806.73511 282.09274 0.87220639 -0.48782891 -0.035762414 0.097563379
2574.6699 -767.32336 280.99219 0.91080463 -0.32844269 -0.25012058 0.12671918
2566.7717 -831.17706 311.79791 0.99946725 0.021509798 0.024546351 0.082949899
2546.7886 -877.37341 263.1355 0.92094874 0.36143765 -0.14565799 0.11905979
2561.9102 -874.42175 312.44745 0.97425973 -0.21688122 -0.061486255 0.096781559
2555.0779 -811.97888 264.24506 0.89241737 -0.43738297 -0.11084863 0.11598854
2565.3132 -844.69562 313.20575 0.98314232 -0.044753011 -0.17728041 0.10221161
2579.5493 -768.50043 311.23578 0.85011768 -0.52020144 -0.081795007 0.10932555
2547.5974 -839.60345 265.80304 0.98344046 -0.16230883 0.080627009 0.13605934
2558.4907 -889.52191 311.91064 0.99053228 -0.13494259 0.025224712 0.083149299
2546.0413 -865.48718 265.72894 0.98318523 0.16450967 0.079267912 0.16415796
2564.3479 -933.69061 312.03845 0.93972892 0.34187305 0.0056903129 0.051312029
2573.1118 -782.96417 309.02222 0.94118989 -0.30247095 -0.15057519 0.1403887
2546.2065 -852.92725 265.3428 0.99774259 0.01394013 0.065691695 0.13053827
2549.8098 -825.54242 265.55173 0.91267222 -0.39939684 0.086669423 0.12783028
2559.5291 -797.49292 263.64047 0.88954896 -0.40107447 -0.21872798 0.10771044
2565.5107 -783.56512 266.46964 0.91873837 -0.26827657 -0.2897369 0.10545293
2563.5273 -860.12848 313.37247 0.96987188 -0.1305927 -0.20565528 0.076333791
2558.8721 -905.21039 311.94095 0.99476898 0.098350331 0.02760197 0.066295698
2572.3782 -958.07996 314.3992 0.9214133 0.35647279 0.15467593 0.034639265
2559.9648 -918.33124 312.26184 0.97188991 0.21923253 0.085831814 0.050392911
2551.2397 -917.64417 265.92542 0.8924945 0.1417993 -0.42818984 0.14103565
2579.3074 -966.0907 302.35379 0.80038464 0.5157603 0.30557448 0.070802286
2566.8384 -940.75543 300.22455 0.9394998 0.3283518 -0.09759739 0.052126352
2560.6729 -917.12085 296.99164 0.99585819 0.090702944 0.0062794844 0.093616366
2549.9761 -862.78308 246.01442 0.99649638 -0.017975058 0.081681252 0.17650561
2548.1035 -833.04773 285.16055 0.90222812 -0.20294793 -0.38052145 0.17032808
2570.2942 -784.10461 287.96872 0.93751115 -0.33337459 -0.099670447 0.1004868
2559.7402 -896.02496 295.14435 0.98097479 -0.033053275 0.19130062 0.14047047
2562.3989 -800.1958 287.98499 0.89719361 -0.44034705 -0.033735611 0.1130392
2557.4382 -874.95776 293.85559 0.94582713 0.091146626 -0.31161407 0.1207063
2553.5649 -817.01202 287.90326 0.83856571 -0.54232788 -0.051846378 0.14300534
2554.4771 -854.89746 290.96341 0.81721777 0.05672906 -0.5735302 0.068511553
2549.4836 -834.98468 285.57257 0.87620986 -0.13307498 -0.46319261 0.17352892
2561.3928 -925.08655 292.06061 0.98519361 0.14043377 -0.098346025 0.094087489
2559.4233 -908.76813 290.97568 0.99768943 0.067569509 -0.0070846374 0.098693945
2569.3804 -946.57648 294.36218 0.91298127 0.39764223 -0.091355905 0.049809806
2559.5322 -881.93579 291.01199 0.99256104 0.11967946 0.02234862 0.15271658
2589.3657 -749.15192 291.66293 0.75116086 -0.63355178 -0.18539011 0.10472038
2580.6816 -760.4458 292.21292 0.91181481 -0.38328335 -0.14726722 0.12730014
2575.4851 -772.30524 292.48322 0.93155289 -0.34966958 -0.09970171 0.10643445
2559.9114 -895.02972 291.7084 0.9839648 -0.007477365 0.17820604 0.15035616
2569.9604 -785.98578 291.00369 0.937581 -0.33653218 -0.087680802 0.098858096
2582.72 -966.19946 294.8685 0.76086313 0.54176658 0.35717827 0.05323498
2564.5613 -797.33752 291.01465 0.90029246 -0.43526858 -0.003836131 0.10913438
2554.4387 -864.8009 290.12225 0.8477754 0.11731512 -0.51721758 0.077644296
2550.3118 -848.48468 285.98456 0.81557113 0.097472705 -0.57038832 0.11078943
2551.7024 -822.48297 288.68808 0.87222981 -0.47862276 -0.10067491 0.15674454
2557.97 -810.57495 289.92645 0.85839337 -0.50884455 -0.065099992 0.11883093
2549.1965 -842.38513 258.06662 0.97397977 -0.12467553 0.18926011 0.12798873
2549.5967 -869.07568 257.91434 0.96208984 0.18062335 0.2043485 0.18393403
2553.3091 -816.23438 258.47806 0.9480809 -0.26976252 -0.1684362 0.11701816
2550.2549 -829.19342 259.20761 0.96552491 -0.25860876 -0.029718738 0.12074658
2548.1655 -857.10443 258.11664 0.98857754 0.017698934 0.14967009 0.1373336
2557.897 -803.80682 261.27188 0.91376752 -0.28214502 -0.2922723 0.088999696
