# .PCD v0.7 - Point Cloud Data file format
VERSION 0.7
FIELDS x y z normal_x normal_y normal_z curvature
SIZE 4 4 4 4 4 4 4
TYPE F F F F F F F
COUNT 1 1 1 1 1 1 1
WIDTH 623
HEIGHT 1
VIEWPOINT 0 0 0 1 0 0 0
POINTS 623
DATA ascii
2666.3789 -19.544931 -336.57816 0.97982919 -0.15802322 0.1223252 0.06641531
2664.9702 16.902084 -292.35953 0.9925223 0.032074947 0.11777373 0.16075891
2666.8914 -4.0121632 -338.01218 0.98764902 0.1106915 0.11089069 0.072084576
2767.437 92.547302 -299.42398 -0.58459032 -0.5594601 0.58758706 0.073186852
2711.2539 103.00249 -342.33984 -0.5985775 -0.0058604912 0.80104345 0.064437196
2751.3115 111.98734 -303.26102 0.65515178 0.39316204 -0.64513546 0.058822531
2662.9004 144.05241 -335.1326 0.87746638 -0.43814871 0.19513714 0.14016216
2697.3745 -1.8251139 -212.1904 0.79873556 -0.15065269 -0.58251631 0.12078087
2772.4431 81.19632 -303.61987 -0.58251625 -0.482876 0.65383911 0.086680248
2674.4836 -38.033875 -252.25845 0.9404732 -0.0091455998 -0.33974481 0.091895662
2699.0547 -31.072075 -209.32933 0.81403482 0.062061682 -0.57749087 0.070046909
2663.9348 11.305944 -336.92288 0.94749403 0.3100768 0.078150399 0.094651639
2674.4368 -22.834517 -250.76807 0.95175368 0.064631417 -0.29997963 0.077479422
2665.9365 -11.267894 -291.54697 0.99006993 -0.11953905 -0.073973022 0.088138074
2699.8005 -16.048437 -208.30826 0.79253262 0.017453572 -0.60957974 0.087535843
2690.8418 67.897873 -475.99857 0.84012288 0.54234183 -0.0076754936 0.048155162
2727.1655 19.882351 -443.07489 0.53394526 -0.35457414 0.76758039 0.20320356
2664.9819 164.38838 -295.86234 0.84284145 -0.52502459 0.11818416 0.16094844
2663.0537 13.153956 -338.7749 0.933227 0.35264039 0.068790533 0.10665461
2673.481 176.09067 -340.89178 0.99570954 -0.059429809 -0.070926651 0.11165766
2706.5583 122.60455 -342.69348 -0.52448368 -0.14387634 0.83917606 0.11600937
2667.8796 152.80482 -385.93539 0.98357642 0.17135264 -0.056707039 0.10563678
2674.5471 8.3221407 -385.70459 0.78124589 0.46007037 0.42188874 0.089982741
2781.5537 59.373795 -305.20312 -0.5364728 -0.13732876 0.83266908 0.14714167
2659.1824 97.939064 -383.85739 0.76195973 -0.25449267 0.59552568 0.079724953
2710.6545 -36.995922 -437.17407 0.89294642 -0.01053885 0.45003957 0.069293074
2719.314 12.614203 -479.88965 0.87682486 0.23272938 0.42073181 0.090204775
2666.3149 -12.402344 -296.30804 0.98698336 -0.14757541 -0.063917056 0.094276324
2667.5447 -5.5047302 -340.51624 0.98712337 0.11182719 0.11437724 0.070676006
2709.2874 104.95638 -344.15344 -0.64354277 -0.03939084 0.76439589 0.08741799
2671.7217 158.35281 -340.61118 0.99255407 -0.081850335 -0.090204686 0.10910826
2683.7539 -10.512554 -389.88055 0.85731781 0.13536955 0.49667016 0.064708836
2714.2913 0.26222032 -439.43408 0.74190015 -0.071817935 0.6666531 0.081445694
2683.9565 -27.917379 -386.45526 0.7844488 0.033123668 0.61930841 0.061319128
2676.8828 54.248722 -427.59149 0.9190492 -0.11736713 0.37626258 0.04439256
2767.9585 79.559944 -308.9917 -0.61216378 -0.48756993 0.62251991 0.076470509
2668.606 127.85907 -429.97577 0.93999314 0.3362622 -0.057798695 0.098448597
2754.9883 -25.003532 -488.0087 0.78038985 0.23555489 0.57922846 0.19626212
2727.0667 -1.4166265 -482.15115 0.74123877 0.65316558 0.1547251 0.098935716
2670.095 135.51157 -387.3331 0.9950254 0.082303882 0.056129266 0.095390297
2676.0854 20.927128 -296.9935 0.75978476 -0.64761025 0.057689536 0.17456783
2675.8508 192.88205 -340.78333 0.95894927 -0.27839726 0.053956036 0.15338671
2667.9775 117.52993 -386.71115 0.91581351 -0.23996806 0.32202628 0.10960953
2711.811 -17.891502 -437.84171 0.81391352 -0.074275196 0.57621872 0.04312918
2658.135 -29.421337 -295.73865 0.83053714 -0.55412418 -0.056164622 0.091418281
2677.8494 91.828636 -431.24942 0.96710622 0.14404407 0.20965889 0.051419109
2664.7363 81.082085 -390.97903 0.85650915 -0.0085079754 0.51606166 0.11210848
2714.4275 30.13196 -482.60132 0.81612182 0.27539542 0.50803792 0.049387179
2676.0078 89.517632 -474.59738 0.79177684 0.55615318 -0.25255314 0.039628215
2679.1978 72.977264 -430.55859 0.93815094 -0.017811565 0.34576803 0.038391341
2666.8054 2.7609084 -296.20972 0.9986847 0.038545419 0.033809554 0.11285334
2674.9646 108.17175 -432.08038 0.96779525 0.25149584 0.011056412 0.075396694
2668.4336 141.83133 -343.29529 0.9009217 -0.3371205 0.27329454 0.2167186
2666.8169 -22.79114 -340.16882 0.97519094 -0.17215413 0.13916039 0.075251497
2675.9978 185.10577 -297.6442 0.9603675 -0.2653397 -0.085376486 0.11593825
2706.0081 46.895016 -481.86777 0.80927318 0.50337714 0.30280095 0.059925549
2710.1731 303.11108 -350.70551 0.8113848 -0.49344155 0.31332114 0.096231118
2699.3271 281.40228 -346.04694 0.90032494 -0.23123105 0.36871022 0.10359284
2736.5164 327.92258 -356.49606 0.59960985 -0.67518502 0.42964312 0.11778805
2671.4658 119.85226 -431.99661 0.96378827 0.26659894 -0.0060990835 0.087807551
2674.2268 170.33076 -342.05042 0.98915905 -0.04830483 -0.13867608 0.10183839
2707.1746 98.479568 -347.42697 -0.66019797 -0.1456013 0.73684388 0.091521956
2714.3474 36.951836 -486.86462 0.79735887 0.35100788 0.49093005 0.067306697
2701.9424 53.994305 -483.18567 0.82322389 0.54437089 0.16112949 0.062797591
2681.0828 65.198524 -434.52805 0.93058729 -0.047162566 0.36301929 0.048347931
2684.9438 -21.23085 -388.45407 0.81306493 0.091283694 0.57497191 0.058685079
2704.9387 115.97315 -344.91202 -0.55425501 -0.24293129 0.79610664 0.10937699
2713.8528 -7.8124194 -439.7287 0.77714646 -0.067889147 0.62564719 0.039010815
2709.1204 -27.058594 -435.04172 0.84690887 -0.015903259 0.53150022 0.051545847
2670.0325 141.6575 -387.02209 0.98609602 0.16615395 0.002733282 0.093267158
2715.8652 9.5216513 -443.36166 0.68581438 0.079340547 0.7234388 0.18223508
2675.2117 187.95641 -341.99344 0.97899187 -0.20162691 0.0303568 0.13786235
2670.5339 125.29585 -386.74844 0.99234331 -0.045404416 0.11486147 0.12305232
2750.6208 -32.855392 -491.46249 0.78394145 -0.56293088 0.26181021 0.15395507
2678.1541 135.68513 -349.31046 -0.019762987 -0.34471181 0.93850052 0.22601847
2657.7859 88.498177 -384.79654 0.7649315 -0.17211705 0.62068957 0.088157415
2665.9014 161.65002 -384.41852 0.98092538 0.16343975 -0.10522769 0.11073525
2672.1165 152.22371 -341.64105 0.99627078 -0.045637026 -0.073224217 0.13689692
2663.6431 106.80152 -385.52289 0.80761874 -0.27465251 0.52184093 0.10056419
2725.0295 3.420177 -482.30661 0.80652809 0.4843964 0.33892861 0.1407939
2680.6196 83.310768 -435.54581 0.95391458 0.12219952 0.27406973 0.04179512
2683.9915 -4.474905 -391.24796 0.89120537 0.18754913 0.41301122 0.073942997
2678.9504 46.930779 -431.09564 0.90674633 -0.032182876 0.42044666 0.060097728
2686.582 73.635147 -478.45734 0.81544012 0.56417847 -0.12946051 0.036714688
2668.2417 -12.017573 -341.52997 0.9938482 0.0036705493 0.11069006 0.067623146
2718.76 19.944304 -484.14203 0.84404904 0.19579409 0.49924538 0.051666703
2676.6001 100.71225 -433.62003 0.96671295 0.23053437 0.11099516 0.058198247
2782.3999 -19.2644 -493.7782 0.15358631 -0.86962265 0.46922034 0.11176521
2664.073 -30.023279 -339.98468 0.93410671 -0.29827601 0.19615328 0.065772794
2666.0188 6.0043335 -339.99826 0.97034001 0.22460857 0.089393549 0.085396513
2685.9573 300.37433 -309.95294 0.89732331 -0.083086096 0.43348309 0.12632471
2728.1587 319.31058 -361.47495 0.70603484 -0.64189136 0.29914939 0.12052944
2697.0974 320.64557 -321.07358 0.66145051 -0.047964886 0.74845344 0.15215667
2708.9175 43.284763 -484.38379 0.81348568 0.45264626 0.36517447 0.069201119
2668.4138 168.38031 -300.96252 0.91562581 -0.40129888 0.024260949 0.15697606
2744.9189 116.9349 -307.29596 0.71937263 0.36816782 -0.58902925 0.061730452
2679.4141 88.599495 -435.56711 0.9657985 0.14957842 0.21180086 0.050223261
2662.0276 97.991409 -387.98087 0.79733312 -0.24730942 0.55054331 0.082255878
2665.8665 5.8548145 -298.13858 0.99560398 0.067749493 0.064673573 0.12315369
2675.04 106.86366 -435.16879 0.96040207 0.27559343 0.040939972 0.071677551
2720.396 25.843056 -488.26102 0.79940057 0.20088388 0.56621933 0.042316176
2680.2524 82.186218 -478.06287 0.78903329 0.58206505 -0.19653687 0.037484504
2680.9429 71.022331 -435.39645 0.93612844 -0.019777589 0.35110164 0.036981404
2680.2188 51.915493 -433.41272 0.89910495 -0.062346462 0.43327034 0.052232448
2704.3242 291.28818 -353.59036 0.84982353 -0.45682853 0.26288334 0.095561318
2677.043 188.91917 -302.24289 0.98059916 -0.15130576 -0.12462677 0.10540314
2694.6372 63.060013 -481.0827 0.82212961 0.56711006 0.049890999 0.059252281
2726.8962 16.817463 -445.40881 0.62632966 -0.36676088 0.68789357 0.21149772
2678.6736 206.04572 -303.96207 0.98384422 -0.13776368 -0.11433158 0.10439305
2684.5427 283.16824 -310.29581 0.94519931 -0.14807147 0.29098651 0.10828451
2667.8569 141.65973 -345.33536 0.94521993 -0.29099679 0.14791927 0.18619938
2673.0681 177.8981 -346.11716 0.98959821 -0.094417095 -0.10853953 0.11255559
2756.5129 86.265984 -314.3233 0.62060893 0.50178838 -0.60253876 0.080082722
2671.2244 17.040833 -297.57425 0.71955675 -0.69313776 0.04240435 0.18755078
2702.6841 106.68222 -350.02505 -0.6189869 -0.25074822 0.7442987 0.1228258
2659.5129 80.084396 -385.52057 0.86138994 0.028929437 0.50711977 0.092124104
2679.4507 260.64249 -304.28915 0.98439252 -0.079075262 0.15722097 0.12611324
2668.7527 127.1991 -433.06619 0.95241749 0.30433321 -0.016799992 0.10110794
2670.9011 160.17482 -345.81244 0.99262023 -0.082678385 -0.088709727 0.10795613
2662.3423 14.569806 -340.89902 0.91828424 0.38984829 0.069082215 0.10981271
2669.3716 117.94054 -390.92563 0.96167791 -0.19541921 0.19231988 0.10054006
2666.9812 152.74977 -389.94864 0.96997768 0.23822583 -0.048905373 0.099408813
2675.51 7.8699327 -387.17838 0.78375119 0.45152557 0.426449 0.09401302
2669.6746 134.64407 -391.02576 0.99429113 0.10642289 0.0076984083 0.10277733
2682.2529 125.41084 -350.88019 -0.22430667 -0.43162346 0.87372059 0.13502954
2722.5156 8.9597692 -482.68488 0.83951175 0.320301 0.43889326 0.11133116
2756.5952 -25.338623 -492.23108 0.66122669 -0.71106768 0.23908584 0.16131473
2687.0591 -28.995195 -389.95685 0.80622524 0.065465622 0.58797544 0.061096571
2714.4451 -20.506908 -441.57562 0.80474216 -0.11162005 0.58303607 0.039453968
2665.6074 -10.232903 -297.79089 0.98930418 -0.14073206 -0.038362276 0.087327197
2667.7092 -3.6538548 -342.47482 0.98272532 0.14974973 0.1087475 0.070338622
2684.0508 -10.380238 -391.10852 0.85704011 0.16717674 0.48737475 0.05862711
2659.0178 -27.816685 -296.90955 0.85798478 -0.51218069 -0.039154682 0.09135294
2711.4963 -39.943184 -439.35669 0.87903261 -0.01994876 0.47634414 0.07603851
2666.7007 -22.126429 -340.91394 0.97699982 -0.17628653 0.11997694 0.067988239
2714.6807 -1.7776409 -440.81262 0.78568226 -0.075324439 0.61402738 0.092245504
2703.1001 293.51346 -346.56467 0.85993826 -0.38036507 0.34033594 0.08990714
2682.9932 252.47295 -252.54735 0.98529851 0.12960386 -0.11130896 0.098361686
2680.3115 260.93939 -297.68423 0.98309785 0.016155018 0.18236688 0.10131022
2682.2876 243.29253 -296.72208 0.99621594 0.080894865 -0.031778 0.110775
2690.7302 216.98581 -252.28957 0.92677271 0.35423374 -0.12494321 0.13279754
2716.3704 313.46405 -350.36472 0.72955739 -0.53771192 0.42262506 0.0979954
2679.5027 296.00107 -297.78491 0.91938448 0.0019716243 0.39335522 0.13309719
2680.3843 279.15158 -298.38504 0.96873909 -0.090883844 0.23083487 0.10398175
2686.2788 233.95117 -252.26831 0.95140195 0.29001275 -0.1035709 0.1129538
2686.6877 233.27274 -243.41583 0.95923108 0.15500554 -0.23632407 0.12492634
2685.9492 247.99588 -243.59064 0.95703006 -0.0020246783 -0.28998163 0.11994987
2691.5605 218.76819 -242.85359 0.84840345 0.44756228 -0.28266513 0.11421127
2677.6948 255.54829 -286.93521 0.96896845 0.11316148 0.21976027 0.13216251
2676.8672 283.64172 -286.87711 0.95420635 -0.049781118 0.29497808 0.13831586
2681.7026 226.61195 -288.3251 0.98398316 0.088853553 -0.15453856 0.12143181
2678.665 269.96527 -289.84439 0.97243762 -0.050799862 0.22756203 0.11019083
2677.5461 240.86482 -285.6138 0.98821068 0.081037797 0.1298942 0.15013497
2673.593 174.7375 -287.94778 0.85882926 -0.50726753 0.071358189 0.1049542
2765.7795 99.469238 -294.74136 0.61553431 0.50821912 -0.60235441 0.059706088
2673.4507 4.0350661 -238.79707 0.84433174 0.31523845 -0.43327656 0.098615825
2680.7842 210.8627 -287.74188 0.98779154 -0.028348967 -0.15318045 0.10786168
2776.29 85.783493 -296.71375 -0.57833099 -0.48927665 0.65279526 0.1014218
2717.6865 10.234808 -194.50459 0.78819895 -0.3315073 -0.51850295 0.16723455
2665.1223 -4.8746128 -280.55154 0.99758422 0.015399875 -0.067739353 0.10938158
2676.075 181.97156 -286.01208 0.92432672 -0.35118791 -0.14928898 0.13092723
2789.156 69.78701 -296.49136 -0.56539911 -0.38495675 0.72947389 0.14480278
2698.6218 206.12294 -243.5582 0.79109389 0.54775435 -0.27227861 0.11040993
2706.7629 -6.4841499 -200.62323 0.71565109 -0.07274542 -0.69465935 0.11455686
2663.6885 9.0885649 -280.00244 0.99012506 0.14018641 -0.00031395018 0.11592839
2680.2463 196.23763 -287.08008 0.96968687 -0.14090918 -0.19962959 0.098833218
2681.9294 -11.174357 -235.19583 0.86115152 0.048899736 -0.50599098 0.09727186
2710.7771 -20.039175 -195.13991 0.76686335 0.013513737 -0.64166814 0.1087077
2665.0391 -19.57893 -280.58203 0.96539694 -0.18391107 -0.18489324 0.11153204
2682.4355 -39.993423 -235.67931 0.86946052 -0.010125619 -0.49389863 0.065341726
2709.7961 -34.227592 -195.39418 0.80542427 0.083172463 -0.58683389 0.10572559
2654.9336 -38.029999 -280.69104 0.84282291 -0.47454596 -0.25388119 0.10030099
2681.9404 -26.018286 -235.82265 0.86812305 0.0077076294 -0.49628922 0.058945812
2722.0933 322.18677 -347.56607 0.69059253 -0.56331801 0.45360202 0.11220831
2691.082 275.07953 -335.66422 0.85937887 -0.32474834 0.39497656 0.10953541
2704.5935 299.18231 -343.12842 0.82725298 -0.40642759 0.38790345 0.08011689
2670.4053 136.46506 -377.15179 0.99733037 0.070248455 0.019933132 0.11150212
2715.7422 13.453935 -470.21552 0.87870514 0.4546949 0.14536081 0.095053285
2681.7646 84.253731 -466.8613 0.85199755 0.51473171 -0.095663317 0.037892565
2672.4075 166.4151 -332.99362 0.99593908 -0.090019435 -0.0013816765 0.093086064
2700.28 2.1392972 -423.05927 0.8027342 0.087348953 0.58990502 0.045402192
2705.8296 44.957851 -476.7739 0.79400897 0.3928245 0.46393827 0.047614854
2673.5481 112.20844 -423.2377 0.98320103 0.17481405 0.052495748 0.077501677
2732.0154 26.189377 -516.24921 0.74133188 0.61923796 0.25878832 0.11639657
2692.8857 64.774025 -469.48807 0.87477881 0.47327995 0.10376983 0.057726916
2675.6045 94.817482 -422.66742 0.96072918 0.073197447 0.26765934 0.058717772
2666.1848 119.32066 -376.49261 0.88634473 -0.30682534 0.34677261 0.18071128
2667.5938 0.56180155 -330.14825 0.99805498 0.059051242 0.019978762 0.095936082
2650.936 100.46799 -373.04581 0.68046969 -0.29931068 0.66886032 0.092873365
2702.4478 -14.944029 -423.73059 0.85198188 0.10649509 0.51262623 0.043360375
2686.4858 208.44713 -340.03021 0.87041217 -0.40685365 0.27722338 0.11924265
2718.5269 112.03956 -336.39322 -0.61408228 0.051346526 0.78757 0.05159146
2668.4683 131.8931 -421.26242 0.96581966 0.24870066 -0.073077492 0.097124606
2688.8201 179.66052 -382.10901 0.71152145 -0.64016861 0.2896919 0.10900759
2676.1011 76.000137 -421.961 0.93293124 0.0012599021 0.36005229 0.043643031
2674.7852 184.18613 -334.03104 0.98815012 -0.15140115 0.02523917 0.10775597
2674.2073 56.458225 -418.42819 0.95262265 -0.099113919 0.2875526 0.059922311
2667.6775 155.09309 -376.06689 0.98598933 0.13546216 -0.097339585 0.10188788
2666.9048 -15.25602 -330.60233 0.98280561 -0.14350699 0.1161849 0.057885032
2662.6821 144.62131 -330.26688 0.86420113 -0.44424233 0.2362311 0.12580991
2676.1096 8.8892946 -375.33456 0.92980826 0.11561819 0.34941247 0.12253326
2658.7097 20.256536 -328.22644 0.90460986 0.41948304 -0.075597309 0.105921
2678.8359 -8.1036959 -379.08755 0.89400792 0.01503926 0.44779867 0.096474797
2738.1169 89.433678 -332.09323 -0.63187432 -0.44617164 0.633771 0.12618087
2739.3633 -13.334551 -478.60287 -0.65318578 -0.73406219 -0.18574461 0.099767879
2710.4492 28.085842 -472.36523 0.84070212 0.30128324 0.44994256 0.077502906
2748.7388 -26.273157 -479.87555 0.76637423 0.092581861 0.63568789 0.12103053
2707.521 -34.521938 -429.43796 0.90677863 0.063281715 0.41683087 0.061983027
2676.3149 -27.002888 -373.82993 0.8798691 -0.0080707259 0.4751476 0.10855174
2666.3623 129.1458 -375.1669 0.94456726 -0.2159833 0.24727283 0.12691534
2653.6013 108.43383 -370.05344 0.72122884 -0.43423185 0.53969592 0.0942261
2666.7314 137.91214 -418.95914 0.9406321 0.30776432 -0.14315146 0.10098796
2671.425 120.29382 -418.98795 0.97936398 0.20193505 0.0082744583 0.089089341
2665.8411 165.58629 -375.1701 0.98218781 0.084174357 -0.16799358 0.1098283
2668.4854 146.96672 -374.98993 0.99772489 0.0645236 -0.019539637 0.10572531
2698.1243 9.1741695 -422.11472 0.77990359 0.12082149 0.61412746 0.054612052
2695.3552 59.221546 -470.46188 0.87610024 0.41463974 0.24601267 0.062546343
2701.6123 -26.039528 -420.46722 0.90059227 0.15412341 0.40642285 0.050450422
2712.1099 22.03207 -471.94345 0.86039752 0.25135437 0.44332504 0.073238656
2673.3833 -35.114758 -371.23117 0.88911182 -0.018953079 0.45729744 0.14303565
2762.5156 -12.394642 -484.58411 0.61812592 -0.46220148 0.63583815 0.14077365
2672.147 0.41969228 -369.79868 0.96595055 -0.046147514 0.25457796 0.099626914
2672.8284 -17.656338 -370.35773 0.94450796 -0.079189487 0.31880045 0.088931374
2675.7932 82.965988 -420.48062 0.92871153 0.026174663 0.36987805 0.041799795
2747.937 -33.86845 -478.71039 0.82707787 -0.10234761 0.5526908 0.072162271
2676.125 64.994644 -419.96014 0.95198727 -0.040780373 0.30340934 0.080091804
2719.2048 6.096673 -471.45673 0.85595626 0.50927013 0.089346364 0.089454502
2704.0435 40.606495 -471.60867 0.797014 0.32790661 0.50719416 0.040034112
2673.4663 102.20538 -418.65155 0.96399361 0.13503613 0.22908857 0.067122743
2687.1584 74.435211 -468.67316 0.8526414 0.52031428 -0.04770416 0.041926526
2675.041 95.873016 -466.55609 0.85054898 0.4893066 -0.19273172 0.048126727
2675.6592 46.537601 -421.58575 0.95420331 -0.096051574 0.28331977 0.12478768
2652.7781 94.680435 -378.04147 0.59454513 -0.37746587 0.70995462 0.09086702
2699.9421 -8.7710457 -421.15588 0.84547216 0.065795034 0.5299508 0.039206471
2679.4702 289.00198 -293.47458 0.95509064 -0.0012365003 0.29631126 0.12129461
2683.8252 248.9225 -247.76083 0.97786129 0.064506598 -0.19906335 0.1170643
2679.5471 273.12845 -293.53717 0.97557509 -0.05108647 0.2136433 0.1054863
2691.3269 216.10727 -247.54158 0.85756963 0.45756751 -0.23496029 0.11037166
2679.5137 255.64 -292.45706 0.97369915 0.14097752 0.17898393 0.10386427
2723.2058 324.87009 -346.01089 0.67391241 -0.50976348 0.53477401 0.10080018
2678.6816 240.0804 -290.53464 0.99187404 0.021660067 0.12536646 0.12066346
2699.9075 286.83636 -340.37973 0.88658655 -0.23977992 0.3955628 0.088036321
2706.4668 304.69315 -342.08978 0.79569244 -0.38129911 0.47062141 0.077988081
2695.8606 269.86996 -339.90536 0.89226943 -0.18752782 0.4107171 0.13780263
2686.5791 232.19237 -247.45909 0.96192265 0.22709392 -0.15209576 0.11434618
2680.8528 224.05197 -291.11038 0.98992264 0.06032512 -0.12811728 0.12996688
2693.1133 179.82097 -379.89148 0.47569999 -0.75222695 0.4559212 0.099762879
2681.2136 204.39281 -333.57153 0.95392591 -0.27758181 0.11390208 0.099526122
2679.0579 -21.230619 -240.56021 0.8959986 0.07023184 -0.43846777 0.062361613
2659.2234 -32.730846 -283.76309 0.88637459 -0.38894862 -0.25111562 0.10474405
2781.5999 81.111076 -294.7742 0.63509113 0.49980447 -0.58894372 0.1114708
2722.0771 106.84921 -333.83417 -0.61746752 -0.10089774 0.78009838 0.056358863
2720.8953 123.00497 -334.8782 -0.65169007 0.030890316 0.75785607 0.061072748
2665.6382 9.719821 -325.93649 0.97846204 0.20131841 -0.045639332 0.1079158
2675.7688 186.52795 -332.11215 0.98633343 -0.16116597 0.034232352 0.11395101
2711.6948 0.65937865 -197.01845 0.74110621 -0.21198164 -0.63704425 0.13946237
2665.8193 1.1953231 -283.04214 0.99402201 0.10672268 -0.023032421 0.10540017
2666.4443 162.47682 -375.54028 0.97880656 0.13550857 -0.15354189 0.10974708
2667.5566 -5.174283 -327.44257 0.99841708 0.020608967 0.052332092 0.062333629
2657.5027 112.1414 -371.97202 0.74648178 -0.42655265 0.51070321 0.088084929
2766.6279 97.808052 -294.73587 0.61973339 0.53840113 -0.57101202 0.056343187
2673.823 170.38359 -330.82416 0.99827594 -0.053355977 -0.024459032 0.097992301
2677.3994 -5.1333346 -240.68259 0.86752516 0.19263314 -0.45857668 0.11477698
2674.4875 -30.078356 -371.30502 0.90496653 -0.047669031 0.422804 0.1193012
2668.5791 154.54593 -330.83896 0.92916334 -0.32490918 0.17632224 0.1050975
2663.7419 14.778972 -284.50134 0.96990627 0.22523332 0.092475921 0.14100932
2742.1501 86.934235 -330.85779 -0.59210032 -0.51274496 0.62169909 0.13689385
2668.9453 145.64238 -375.86996 0.99233043 0.11617202 -0.042242143 0.10384216
2702.4116 -14.291638 -202.99461 0.78590614 0.086828053 -0.61221927 0.089836329
2671.4937 174.3123 -288.05679 0.90780222 -0.41797569 -0.034517702 0.13433507
2681.3027 208.02925 -289.87631 0.98379064 -0.041261267 -0.17450932 0.11120729
2676.4514 -13.848781 -374.65479 0.90562868 -0.038592249 0.42231184 0.087247998
2676.2007 1.836237 -372.19427 0.93675607 -0.06970951 0.3429704 0.10998232
2669.1187 130.21097 -376.39774 0.99333918 -0.053994611 0.10179345 0.13393748
2679.8362 192.03215 -288.97211 0.96786362 -0.18990354 -0.16485342 0.10328443
2664.9529 -19.881413 -326.46429 0.95802146 -0.26479235 0.10990852 0.051571038
2693.5955 12.731097 -241.05122 0.58251244 -0.66164964 -0.4721218 0.12683463
2647.7527 97.107483 -371.23843 0.68707567 -0.29861158 0.66238821 0.094702139
2709.0193 -30.249111 -195.77687 0.79980385 0.066843793 -0.59652799 0.096893147
2665.9448 -13.748792 -282.75815 0.9859097 -0.12050402 -0.11602106 0.10618748
2678.3523 -35.893875 -242.58464 0.90370661 0.028609481 -0.42719534 0.059936419
2691.9165 -38.678879 -370.71606 -0.23231231 -0.88745171 -0.3980709 0.13893791
2708.6321 -45.852005 -196.32278 0.81496346 -0.050936859 -0.57726943 0.11341479
2681.1655 230.32364 -272.01212 0.92847419 0.29502887 -0.22559626 0.16485384
2677.8396 244.54132 -272.05554 0.97124833 0.10863838 -0.21183588 0.15502627
2673.3428 185.10767 -312.07855 0.96830672 -0.24954917 -0.010359464 0.13176642
2679.4875 251.87581 -315.31665 0.99808466 -0.022587134 -0.057591967 0.13075139
2692.4104 234.51669 -229.24318 0.82885396 0.1255798 -0.54518878 0.12740766
2685.0432 196.87288 -270.44794 0.91315544 -0.11127856 -0.3921279 0.13813278
2667.6387 142.67497 -399.32959 0.97935098 0.18166517 -0.088709928 0.094173722
2690.9678 303.00555 -319.02051 0.83423394 -0.1438385 0.53231961 0.11162548
2698.0056 321.50455 -322.88815 0.71421409 -0.18069367 0.67620116 0.13464513
2730.3987 318.44012 -367.80432 0.55781937 -0.78348643 0.27383676 0.13821337
2663.8647 92.121361 -392.56497 0.88848639 -0.11372003 0.44458929 0.084731065
2661.4883 154.29099 -309.54266 0.8699345 -0.41443306 0.26731852 0.13428459
2648.5845 116.30927 -350.13486 0.77630895 -0.577815 0.25194094 0.11373
2746.3445 94.914459 -319.37277 -0.63181663 -0.42972422 0.6450929 0.072625287
2677.7285 203.87804 -314.02853 0.98554355 -0.16496524 -0.038604844 0.1228115
2702.3608 209.61359 -230.2717 -0.62843657 -0.65341467 0.42203879 0.13659708
2671.2092 166.01955 -354.44922 0.98105413 -0.0068686293 -0.19361207 0.10402319
2709.834 299.34622 -364.96265 0.78647846 -0.61661172 0.035237093 0.10436052
2683.1204 188.02539 -360.60327 0.86770749 -0.44136965 0.22864063 0.14620738
2683.0901 213.88982 -272.41565 0.91780806 0.24463297 -0.31270292 0.15010674
2689.2056 287.6777 -320.87454 0.88528562 -0.15810993 0.43734503 0.10056598
2670.6694 170.80446 -311.91846 0.95338356 -0.27851185 0.11615071 0.14412792
2677.1084 259.91348 -273.2684 0.97039843 -0.0164351 -0.24094982 0.16526386
2664.3635 133.80838 -352.24054 0.88888133 -0.43910906 0.13066462 0.20305471
2678.9758 180.0116 -268.99408 0.87962145 -0.42388463 -0.21584235 0.13343662
2696.2544 221.50023 -228.92293 0.80691004 0.38395053 -0.44886318 0.13866933
2670.9001 125.45772 -399.87534 0.99586529 0.088532984 -0.020351579 0.088366754
2669.2859 109.94701 -397.93555 0.95996439 -0.17787856 0.2163967 0.075258754
2670.3992 150.31685 -353.59723 0.99584019 -0.056335215 -0.071614258 0.12715384
2666.8218 77.170906 -396.24182 0.91978705 0.086292952 0.38281244 0.073511265
2684.0938 269.79361 -316.69879 0.94854176 -0.17898768 0.26121241 0.14079677
2667.7773 -39.254696 -261.43759 0.85990065 -0.28735989 -0.42189467 0.11502481
2663.0417 7.5501361 -263.52594 0.92686462 0.35549179 -0.12061339 0.12716258
2664.5703 12.616007 -305.61432 0.99159551 0.10965789 0.068655282 0.12717555
2689.2141 -3.1189067 -222.45688 0.83454055 -0.044818036 -0.5491206 0.12801601
2665.2397 -3.0986333 -306.8179 0.99575257 -0.043852188 0.080955371 0.083307862
2692.4131 -49.952728 -218.5002 0.82037425 -0.010811001 -0.57172477 0.08385548
2691.6609 -34.992496 -220.0954 0.82863426 -0.004643539 -0.55977112 0.061376803
2668.7397 -25.202896 -351.98712 0.9850713 -0.10815007 0.13393319 0.09959583
2653.6372 -34.474648 -304.94315 0.79987353 -0.59591055 0.071364909 0.09278509
2667.916 -8.5786161 -264.71863 0.9615308 0.13894759 -0.23696434 0.10665623
2662.5635 -18.865438 -307.03738 0.95243508 -0.29361588 0.081591465 0.08570563
2692.1782 -19.150389 -218.40149 0.82652092 0.032523923 -0.56196564 0.067585781
2688.2012 -17.337452 -396.4014 0.87969005 0.18207596 0.43931058 0.058805957
2667.0181 4.7997346 -350.15457 0.96837962 0.19749369 0.15243743 0.080351107
2699.1155 -37.55798 -403.96655 0.86915904 0.32294402 0.37452593 0.067817636
2669.4263 60.946541 -398.18057 0.95014256 0.088513225 0.29898912 0.13240391
2669.3191 -25.004896 -264.13617 0.91970998 -0.014108171 -0.39234492 0.097269207
2686.8748 -2.5219359 -399.92239 0.89489758 0.21977897 0.3884013 0.054130476
2670.0637 -9.5780573 -352.05942 0.991956 -0.046836752 0.11759949 0.094504744
2674.2441 59.984024 -413.93875 0.96799308 -0.063364439 0.24284644 0.1015654
2666.9465 161.40555 -371.02097 0.98772448 0.057664607 -0.14517283 0.098411627
2648.3628 105.13458 -365.9397 0.70560104 -0.44806921 0.54896373 0.1219704
2669.3157 133.12138 -414.49222 0.96409798 0.22991227 -0.13287383 0.093292765
2673.7366 96.946045 -415.6423 0.96176422 0.022923911 0.27291778 0.054319814
2696.3887 53.580082 -466.61859 0.85891455 0.33772263 0.38497943 0.058666345
2672.5984 115.48332 -416.26755 0.99424851 0.095103472 0.049246665 0.079891458
2668.4946 125.80724 -371.74152 0.95442712 -0.21979053 0.20189337 0.19488902
2674.6008 78.83725 -415.82455 0.94376767 0.064019367 0.32435185 0.055466216
2669.0977 143.84485 -370.93414 0.99831784 0.053368427 -0.022656219 0.11318735
2689.3855 70.094666 -464.27231 0.88731241 0.45915636 0.043036215 0.046920855
2700.2546 36.435875 -463.17538 0.80251575 0.27881661 0.52747488 0.036500774
2677.8997 93.001732 -461.30695 0.87564754 0.4617601 -0.1414886 0.044997606
2732.9526 25.339788 -516.69849 0.75081903 0.60881841 0.25614628 0.11666651
2674.6777 -2.138757 -368.46829 0.95031893 -0.078601167 0.30119056 0.09478806
2720.075 1.5709505 -466.69586 0.88708162 0.45319733 0.087740608 0.089345694
2671.5598 -38.430847 -365.67261 0.93930537 0.081498079 0.33326185 0.15584515
2741.2339 -20.632515 -473.33182 0.76766878 0.27492741 0.57887787 0.10396499
2710.3472 19.46936 -463.98355 0.85208058 0.48400965 0.19923183 0.086517371
2761.7305 -27.495102 -521.18109 -0.27924684 -0.95771956 0.069242299 0.16750008
2697.9387 -12.812309 -416.53952 0.8836574 0.17669332 0.43350792 0.043192707
2701.7976 -30.553492 -417.25201 0.89989173 0.22353815 0.37446707 0.051977094
2743.6223 -38.66222 -473.85638 0.78331596 -0.11128029 0.61158222 0.05553712
2671.9915 -20.511276 -366.6683 0.96150815 -0.098485865 0.25652012 0.089098312
2694.9907 5.1781116 -416.39841 0.84482247 0.15189339 0.51303351 0.062489904
2681.0454 297.87903 -300.14273 0.92089713 -0.054466419 0.38598177 0.12605922
2677.9336 253.42432 -296.29495 0.96935964 0.059322115 0.23837541 0.12044549
2676.4045 192.55199 -296.91226 0.95334387 -0.25542298 -0.1609178 0.12285997
2712.1526 212.96535 -215.38727 -0.57467639 -0.54875153 0.60713983 0.12921606
2681.7358 245.6951 -253.07735 0.97591585 0.11826932 -0.18330486 0.1226421
2679.1519 267.92694 -298.72678 0.97115862 -0.061583553 0.23034413 0.11132812
2673.1609 179.56686 -295.06647 0.93556237 -0.34907401 -0.053576101 0.13797256
2688.0225 218.24159 -252.65514 0.90694296 0.37256885 -0.19658832 0.11849155
2681.9014 257.95493 -255.77696 0.93616945 -0.12382155 -0.32902122 0.13105194
2683.2061 238.83264 -299.50809 0.99318355 0.10741315 -0.04526376 0.1096928
2694.0759 202.81189 -251.7571 0.94893855 0.19315362 -0.24941392 0.12979639
2706.8564 236.99654 -214.88785 -0.70324302 0.00085322041 0.710949 0.11045328
2677.4746 206.68074 -296.95868 0.9880963 -0.12444919 -0.090433046 0.11123969
2665.1458 162.14053 -294.12784 0.91206396 -0.40908259 -0.028121436 0.17140993
2685.4495 231.10504 -252.03412 0.97111452 0.22694659 -0.073701136 0.1215251
2679.7544 282.74503 -298.94614 0.96073776 -0.065247104 0.26967707 0.11344197
2664.3545 15.633175 -288.88522 0.94279963 -0.33324489 0.0087599102 0.14950562
2660.2893 -25.009121 -288.64172 0.93750167 -0.3403281 -0.07257697 0.12112347
2748.3052 112.39425 -307.18881 0.68881965 0.26156169 -0.67610133 0.062536582
2660.4832 14.998174 -244.26982 0.82032651 0.55208099 -0.14923468 0.11804346
2699.7461 -21.651602 -207.02322 0.80090696 0.10161559 -0.59010369 0.070177436
2783.2061 51.012383 -302.99597 -0.62018645 0.0096748043 0.7843948 0.19269104
2664.2368 6.3739262 -289.6131 0.99203187 0.087554805 0.090592206 0.10943655
2760.8171 96.648521 -302.75638 0.63413757 0.50329745 -0.58699334 0.05933309
2768.6108 83.065918 -305.63928 -0.61452556 -0.48626035 0.62121594 0.075564303
2695.4133 0.40326548 -212.34288 0.76774532 -0.30921298 -0.56120807 0.12539349
2678.9268 -43.143555 -243.66377 0.90801734 0.02569394 -0.41814393 0.07254988
2675.8884 -14.141932 -245.55386 0.92159724 0.11767413 -0.3698802 0.073233224
2700.7151 -8.1185541 -207.22372 0.77319038 -0.03376196 -0.63327467 0.09765505
2697.3335 -35.900608 -211.01393 0.82421684 0.087689444 -0.55944359 0.088631012
2664.5852 -7.1774907 -290.03705 0.99872363 -0.049443644 -0.010317213 0.10911608
2670.3293 1.506251 -245.94167 0.88226867 0.39916122 -0.24954413 0.087032445
2648.1101 -38.240982 -288.14923 0.68471056 -0.72720426 -0.048429277 0.094632939
2776.4993 68.23941 -307.32986 -0.58314258 -0.37319884 0.72157282 0.1064072
2676.2498 -27.753483 -246.76656 0.92208099 0.053485878 -0.38328311 0.067751601
2718.1499 0.55386883 -190.5108 -0.46100542 0.40825313 0.78791076 0.11979879
2722.8394 -33.313038 -188.10861 -0.47351167 -0.084722862 0.87670332 0.14751612
2662.9045 94.512688 -389.26239 0.83835572 -0.20511737 0.50506097 0.089333713
2671.4065 130.2135 -390.18155 0.99561763 0.091121428 0.021033164 0.088156916
2667.6426 148.90866 -388.98666 0.9682259 0.24745084 -0.03614803 0.10083868
2664.2766 135.8927 -345.08533 0.79756194 -0.4054215 0.44668594 0.23031814
2680.3289 81.964165 -478.33731 0.79284996 0.5752334 -0.20123482 0.039005708
2736.8862 327.5903 -357.25198 0.59208298 -0.6826942 0.428213 0.11529158
2682.4583 270.30664 -304.9241 0.96821213 -0.039365359 0.24701354 0.11073116
2671.7913 153.5535 -343.68726 0.9947986 -0.088684104 -0.050108347 0.13135117
2695.2388 62.474895 -481.07422 0.82052118 0.56598967 0.08000423 0.060245916
2683.0754 288.36905 -304.29559 0.94582897 -0.088943489 0.3122445 0.11628564
2710.4778 302.94211 -351.53299 0.81495017 -0.50440204 0.28536791 0.096369594
2660.251 75.055405 -386.15479 0.82805663 0.036675069 0.55944359 0.098857895
2675.8748 181.73834 -300.84009 0.96520799 -0.2610386 -0.01524388 0.11305781
2663.2981 162.07991 -299.6384 0.77886808 -0.59957981 0.18403409 0.15754706
2678.0784 197.47041 -300.49301 0.97310573 -0.15668553 -0.16886337 0.10374273
2764.1931 88.461128 -306.66653 0.61652672 0.57311314 -0.53984827 0.076868035
2691.5298 119.51817 -349.4465 -0.4436805 -0.44162989 0.77981448 0.10793221
2682.1121 195.03491 -348.28299 0.93659955 -0.33955076 0.086524613 0.16003434
2710.3303 99.97036 -343.75266 -0.66477531 -0.0042192303 0.74703145 0.078894965
2701.1323 284.1333 -349.97415 0.88680524 -0.35046336 0.30125067 0.11212842
2680.094 86.222244 -436.18875 0.96054113 0.15227883 0.23274866 0.047224522
2683.0293 306.04108 -304.6412 0.8752321 -0.012106514 0.48355168 0.15202621
2681.5305 68.109764 -436.40057 0.92689914 -0.029324463 0.37416315 0.036549244
2676.1565 103.44901 -435.42545 0.96414888 0.25590932 0.070195124 0.064588413
2679.1865 250.87167 -300.77048 0.99661243 -0.040134262 0.071783431 0.1123319
2673.2288 171.30374 -343.64938 0.99251914 -0.07993976 -0.092278637 0.10992211
2670.032 124.119 -432.0329 0.96354949 0.26741451 -0.0078617819 0.099692672
2669.9175 114.50683 -391.40393 0.96022743 -0.20428972 0.1903393 0.10011749
2776.8074 70.658546 -306.38528 -0.62952238 -0.35156724 0.69289392 0.10383419
2721.9375 14.087663 -446.14487 0.76326489 -0.16398835 0.62492764 0.22329275
2722.9639 8.0630846 -483.31931 0.83040309 0.29783908 0.47087431 0.10545997
2661.4824 -28.016508 -297.51587 0.82326442 -0.5471254 -0.15129283 0.1121131
2712.6177 41.166821 -487.9487 0.79702592 0.4786956 0.36823928 0.06386473
2720.9834 24.690914 -489.34079 0.81335789 0.21224952 0.54166323 0.044281006
2679.8555 49.87735 -433.07404 0.89320004 -0.059044927 0.44576609 0.056452822
2667.4714 -0.38437063 -299.92343 0.99662203 -0.081497043 -0.010138038 0.10796165
2666.9128 15.915462 -298.89188 0.98888612 -0.091572233 0.11712731 0.1655485
2683.1287 1.7999011 -393.06006 0.89819723 0.22127713 0.37983966 0.081791177
2694.448 -35.03553 -398.56558 0.88600957 0.18880737 0.42348418 0.072715908
2667.408 -26.700031 -345.02097 0.9699716 -0.1912781 0.1502257 0.093164697
2666.2715 5.9938965 -343.26938 0.96312696 0.2598924 0.06958729 0.086690322
2716.4434 -4.6635361 -442.94949 0.79087245 -0.10408323 0.60306507 0.070437402
2663.1189 -18.128536 -299.01505 0.95715922 -0.28951892 0.0049985228 0.092690274
2757.8494 -24.715342 -493.48206 0.61608487 -0.78442293 0.071554355 0.14610428
2668.3389 -10.021204 -343.26059 0.99520838 0.0079298755 0.097454615 0.066090435
2687.573 -15.98619 -394.23825 0.87529445 0.19498573 0.44253841 0.064765111
2715.0083 -22.769691 -442.42606 0.80951446 -0.093603261 0.5795902 0.044392169
2693.7554 314.86349 -320.46564 0.80762362 -0.14593771 0.57135475 0.11277916
2691.0308 296.34689 -321.07153 0.8680582 -0.1529077 0.47232845 0.098570153
2673.0417 169.44162 -314.85394 0.94205612 -0.3255828 0.080784515 0.12300089
2676.2449 185.42479 -314.24124 0.98658383 -0.14409682 -0.076735966 0.10461847
2687.2642 277.28943 -319.68805 0.9186573 -0.1531866 0.36414644 0.12233853
2682.5083 258.05045 -317.05435 0.98881596 -0.10143901 0.10933006 0.15928967
2678.5149 203.70836 -315.60709 0.99228936 -0.10838449 -0.060121246 0.11074963
2669.3027 172.77699 -358.17065 0.96372008 -0.049948726 -0.26219988 0.10238452
2718.6907 309.30069 -369.01715 0.71644258 -0.69651532 0.039704487 0.11071106
2668.0247 -26.367929 -352.67651 0.98713577 -0.12007546 0.10556928 0.086365879
2714.0806 40.407104 -496.21478 0.82469094 0.53176868 0.19263166 0.078109801
2668.9678 94.002502 -401.0119 0.93559742 -0.072661459 0.34551093 0.066376157
2669.6096 17.847416 -309.72879 0.92683041 -0.35564932 -0.12041181 0.18380734
2736.0818 3.0381854 -498.9288 0.71186733 0.33189124 0.61894518 0.091776118
2664.625 -13.863828 -310.28809 0.97703898 -0.20652488 0.052366972 0.074184991
2672.1133 113.66899 -404.1763 0.98860377 -0.074422404 0.13085814 0.072610095
2657.978 147.43152 -311.61093 0.79241389 -0.56102961 0.23942848 0.11585218
2675.5132 56.3591 -401.1257 0.96720278 0.24925622 0.048888866 0.19056563
2696.7417 58.777412 -492.97543 0.75560427 0.65107822 -0.071828082 0.054236144
2698.28 -35.297203 -405.96597 0.89477873 0.24591152 0.37269089 0.063055657
2670.3984 130.61156 -401.84149 0.98724538 0.14740714 -0.060147531 0.087887213
2697.1047 29.802292 -447.58734 0.77454668 0.56247437 0.28930962 0.056567788
2667.7832 8.1884956 -354.77475 0.94421476 0.23820491 0.22741361 0.11087861
2668.8408 74.987312 -401.06042 0.93234932 0.074303955 0.35384125 0.08163061
2669.6667 137.28152 -356.86096 0.99738508 -0.064798869 -0.032000728 0.18309253
2654.8806 -33.566422 -307.92905 0.8391 -0.5397585 0.067616105 0.09094622
2743.9329 95.669472 -321.09927 -0.58687025 -0.42114645 0.6915338 0.074794687
2667.7546 2.4190364 -310.20285 0.99794203 -0.057715293 0.02794059 0.10949413
2652.1533 119.87135 -355.18463 0.64038354 -0.64895654 0.41080937 0.13081296
2692.1323 -15.454598 -403.78912 0.89884025 0.2187766 0.37976703 0.050808303
2734.9744 16.416098 -506.2001 0.82229352 0.41644594 0.38782227 0.091503657
2721.5007 -26.094473 -450.728 0.76199365 -0.047964808 0.64580572 0.044975456
2686.6514 1.8956057 -402.15497 0.88140464 0.26390868 0.39176276 0.056386705
2725.5466 -7.4261651 -457.12512 0.86564088 0.067648247 0.49607414 0.15050958
2682.6526 83.995819 -448.28781 0.95459992 0.2863608 0.082075872 0.05279588
2736.2107 113.33456 -320.20609 0.69524884 0.19212702 -0.69261551 0.067290455
2686.5601 65.47049 -449.88736 0.94078815 0.091571935 0.3263928 0.050818626
2751.1501 -15.987852 -502.16415 -0.64707798 -0.75210899 -0.12498874 0.17880358
2675.6616 103.23734 -446.01819 0.94093895 0.33758634 -0.025871998 0.058693431
2687.0725 47.081394 -445.86893 0.87726575 0.034452591 0.47876701 0.040179666
2715.2871 9.9303083 -452.30554 0.83863801 0.52374107 0.14960483 0.16837612
2671.0623 -7.4780664 -356.15778 0.97788304 -0.085957341 0.1906727 0.088837743
2670.4436 155.03127 -356.44281 0.99258226 -0.0068100523 -0.12138397 0.10427037
2690.7505 281.84686 -269.23755 0.73885942 -0.50079983 -0.45087284 0.14894389
2683.6052 271.48938 -313.6644 0.94544578 -0.19320618 0.26230446 0.13712381
2676.3967 198.39148 -309.31946 0.98013842 -0.17558844 -0.092181213 0.12062833
2670.5708 167.83195 -309.21613 0.87948537 -0.45362952 0.14396439 0.13769421
2679.4692 261.98477 -267.87796 0.97417951 0.027980817 -0.22403435 0.15540643
2681.8318 243.08105 -267.29089 0.96160489 0.25742346 -0.095127478 0.12897818
2711.9067 301.69696 -363.67053 0.78071851 -0.61858559 0.088489942 0.1038868
2686.3132 226.15536 -266.34351 0.95172203 0.2283884 -0.20509484 0.12791249
2687.3359 193.4075 -264.93915 0.91980463 -0.14069629 -0.36628401 0.11166026
2691.9868 308.36722 -318.78525 0.81922621 -0.074957959 0.56855053 0.098667413
2670.439 158.08011 -353.28049 0.98763621 -0.017344777 -0.15580066 0.10257766
2688.5342 209.32611 -265.28888 0.94779003 0.11685488 -0.29671377 0.14037837
2671.0466 174.82236 -353.81186 0.96474832 -0.056256372 -0.25709122 0.10031883
2681.4304 253.32582 -312.06274 0.99570763 -0.090884596 0.017501783 0.14842051
2686.0391 289.17297 -314.41327 0.90633184 -0.16314781 0.3898018 0.11039748
2674.7925 183.36311 -308.7977 0.97623444 -0.214369 -0.031816259 0.12125438
2673.8386 180.53256 -266.69281 0.72777754 -0.66388524 0.17203574 0.15367267
2711.812 298.85062 -364.94977 0.74689001 -0.66494048 -0.003079003 0.099138953
2689.8137 109.50849 -358.65738 -0.54737383 -0.50355113 0.66844457 0.10300294
2668.5977 -15.979772 -349.02472 0.9968642 -0.050123092 0.06123247 0.069576249
2684.6418 36.943455 -437.10919 0.86495018 0.22406636 0.44906059 0.056320377
2680.2351 22.502962 -305.22531 0.66544443 -0.74342722 -0.067080021 0.20871611
2666.9751 147.20941 -396.18607 0.93120253 0.33182824 -0.15083736 0.083614774
2719.4727 -15.240821 -448.33691 0.79773033 -0.13377298 0.58798903 0.044800404
2756.8784 -22.82782 -495.55746 0.69579524 0.56908703 0.43818825 0.2173638
2690.5615 -26.171091 -396.69653 0.89492971 0.10644039 0.43332577 0.063883647
2670.551 131.3885 -396.82849 0.98996478 0.13606329 -0.038163882 0.088358089
2723.657 26.760824 -495.80438 0.83660752 0.31011948 0.45156819 0.060203366
2679.0327 69.377136 -401.60236 -0.27349156 -0.7554478 0.59539986 0.18723664
2659.2922 151.76485 -309.14883 0.71447599 -0.61403215 0.33539316 0.13474494
2665.0891 -8.8763657 -303.03842 0.99004972 -0.13438092 0.041752435 0.078791276
2715.2151 -33.931278 -444.53619 0.82354558 -0.072110161 0.562648 0.064059958
2742.3005 114.38049 -313.32437 0.68921989 0.25125811 -0.67959201 0.071876101
2748.5522 97.372932 -315.52209 0.65239596 0.44051814 -0.61670351 0.064270228
2686.9199 -8.5360737 -396.89645 0.89365536 0.23031549 0.38514268 0.05538046
2729.3586 -1.3242104 -490.00723 0.70389599 0.62830925 0.33129743 0.11215655
2660.2366 -25.053591 -303.03394 0.88099933 -0.47281358 0.016954949 0.078508228
2684.7893 4.8907595 -400.12311 0.84662122 0.42370996 0.32202852 0.068231404
2684.5947 71.385918 -444.39404 0.93885833 0.061299242 0.33880287 0.040425152
2672.2551 2.7921576 -262.99802 -0.23718345 -0.96318775 -0.12654372 0.17515022
2725.3005 3.4034307 -451.85516 0.81783909 -0.25529298 0.51571774 0.13104661
2669.5884 -32.542835 -261.8096 0.91722357 -0.075571381 -0.39113927 0.11409955
2670.165 -1.8128449 -259.50699 0.94075382 0.29951397 -0.15897675 0.13049944
2667.5898 96.333961 -395.90854 0.92795825 -0.12857997 0.34980097 0.070553869
2666.1392 7.0066781 -303.9866 0.99427962 0.04768835 0.095571451 0.12236608
2693.75 62.930496 -488.86545 0.75730878 0.64794922 -0.081518516 0.049671412
2736.8525 17.567781 -445.68292 0.4013238 -0.67420155 0.61999315 0.21662599
2675.7739 81.708519 -486.3432 0.70106757 0.64176959 -0.31086341 0.03388859
2683.054 53.998611 -438.97159 0.88477284 -0.022726936 0.46546811 0.039015301
2670.2876 -29.316372 -356.30362 0.92493671 -0.21684214 0.31220442 0.15071717
2681.2383 87.862152 -442.00137 0.96556467 0.23559879 0.11035449 0.045843001
2667.4124 0.70319068 -349.16568 0.97784144 0.18279921 0.10203215 0.073689215
2671.4214 140.79803 -353.3848 0.99637002 0.026552068 -0.080881141 0.17151518
2670.4143 114.81763 -396.80151 0.97021472 -0.17299178 0.16957971 0.079846039
2674.9351 107.07474 -440.0621 0.95714653 0.2889539 0.019394031 0.06401664
2653.4177 125.24083 -352.34485 0.54233772 -0.68067706 0.49249217 0.14075646
2664.2371 79.179146 -391.82776 0.88352883 0.070756048 0.46300152 0.081918426
2727.6978 10.187591 -493.53485 0.81201065 0.21829183 0.54128307 0.066748992
2672.5811 -15.456823 -258.46231 0.970716 0.042561114 -0.23642966 0.085432947
2710.8188 44.394634 -492.66791 0.78194427 0.57552594 0.23944314 0.071049035
2723.2202 320.92264 -350.85489 0.70181519 -0.5759654 0.41918889 0.11351289
2693.5518 130.31117 -341.52008 -0.36851904 -0.47819188 0.79719901 0.099598035
2719.2754 110.16354 -336.41739 -0.60492629 0.03631122 0.79545313 0.060977571
2679.1121 191.5374 -292.54352 0.97146386 -0.18077217 -0.15355593 0.10015281
2674.4143 177.75803 -293.60696 0.89428669 -0.44389716 0.056626577 0.10800014
2703.0176 46.75563 -474.29358 0.84071684 0.37870759 0.38700879 0.05705215
2673.3459 163.1778 -335.55212 0.99802399 -0.023183787 -0.058400717 0.10444074
2677.8337 74.032738 -425.04785 0.94931269 -0.0098163867 0.31417996 0.059070729
2660.7285 156.6769 -290.22833 0.84648496 -0.53048611 0.045251083 0.20947848
2711.7732 28.586126 -475.37082 0.83727276 0.2800639 0.46961525 0.074443944
2771.8481 85.729172 -300.9216 -0.58521146 -0.50313622 0.63590997 0.08456865
2778.2563 69.07682 -305.49469 -0.55997336 -0.40479144 0.72289258 0.1120901
2681.7236 210.15167 -293.21854 0.98311162 -0.034868434 -0.1796544 0.10136842
2675.4377 54.822865 -422.50891 0.93995786 -0.11580359 0.32104328 0.05170127
2730.2915 23.455723 -440.4816 0.51185054 -0.39952955 0.76051635 0.14846334
2699.4888 276.0307 -342.28497 0.87225592 -0.052394897 0.48623496 0.11838319
2656.2524 85.832924 -383.94382 0.6688633 -0.28081387 0.68830627 0.11171062
2680.6504 264.9686 -296.95038 0.98456705 0.0057820305 0.17491214 0.10496668
2665.8284 8.9131784 -288.68372 0.98434734 0.14917471 0.093846612 0.14497423
2718.9419 10.976644 -473.00888 0.91852897 0.36949486 0.14063452 0.11880263
2790.9941 47.998795 -300.98621 -0.38485661 -0.080520064 0.91945738 0.15210959
2679.1689 88.108292 -466.84592 0.84868127 0.5103429 -0.13888918 0.040950246
2675.5242 9.8907728 -378.19141 0.9074288 0.20826007 0.36496675 0.13489553
2669.0051 137.87363 -380.17966 0.99732113 0.042083353 0.059829287 0.10064923
2668.9924 129.26373 -423.07849 0.96363991 0.25610551 -0.076210521 0.088540204
2691.9238 65.791649 -470.10007 0.86353856 0.50256276 0.041614968 0.054803956
2672.9009 180.86711 -335.00891 0.9989478 -0.045759231 -0.0030720464 0.10631061
2661.406 17.181326 -331.00647 0.91293836 0.40783748 -0.014566322 0.12613067
2669.6135 120.93857 -380.70737 0.97701305 -0.17024288 0.12830746 0.16306174
2676.2004 91.925552 -424.24304 0.9530068 0.088723153 0.28966564 0.051958788
2669.0674 146.66985 -337.59561 0.91356021 -0.22004373 0.3420358 0.18693854
2659.1904 102.37032 -380.49704 0.70224488 -0.34251052 0.62413031 0.10834678
2667.9119 156.84267 -379.89999 0.98563671 0.14251886 -0.090601869 0.10754836
2706.8701 299.01501 -347.26694 0.80563068 -0.47350591 0.35602155 0.08390867
2674.021 110.28364 -424.3497 0.98051602 0.17652778 0.086175956 0.07435891
2680.4468 246.93973 -295.24753 0.99743944 0.016918862 0.069486447 0.10818447
2680.7646 284.08011 -296.62195 0.96282977 -0.034510493 0.26789519 0.10971757
2675.2874 -34.941753 -250.59254 0.93734241 0.012734178 -0.34817669 0.083125927
2710.3796 -17.834524 -435.80283 0.82274425 -0.051954675 0.56603235 0.043288525
2659.4658 -27.193142 -293.09265 0.89965183 -0.43529731 -0.033805382 0.097743958
2701.3296 -25.286102 -206.01926 0.80022943 0.085731402 -0.59353429 0.071256518
2667.1169 -2.3776875 -338.30682 0.98605329 0.1291749 0.10494181 0.074718192
2658.9651 16.619526 -335.4592 0.88523954 0.46002904 0.068733551 0.080865316
2674.6477 -19.144117 -249.57812 0.94972742 0.10120744 -0.29626825 0.071519502
2703.8835 5.9906101 -210.40132 0.73705894 -0.39500406 -0.54837567 0.11163093
2666.3789 -19.544931 -336.57816 0.97982919 -0.15802322 0.1223252 0.06641531
2709.8127 12.1852 -440.16455 0.57995367 0.38985851 0.715307 0.14721605
2697.4028 -8.8329449 -210.29196 0.82871711 0.040684834 -0.55818701 0.091491349
2698.4194 -42.033897 -210.44165 0.81379026 -0.0080673806 -0.58110267 0.081166118
2710.3335 -35.90015 -436.30151 0.89668602 -0.019187158 0.44225115 0.069639854
2682.4971 -26.027897 -384.15268 0.79342735 0.014726078 0.60848683 0.06536822
2673.4348 8.3425007 -377.73938 0.87696147 0.18296067 0.44436917 0.12071753
2683.8152 -10.548468 -388.15848 0.87911397 0.16631715 0.44665113 0.06278915
2665.1882 5.9012089 -295.04517 0.99116868 0.12060645 0.055125065 0.11716292
2671.2446 -1.9224993 -250.07309 0.91686112 0.29041648 -0.27390495 0.099955276
2664.9583 -8.8792419 -293.99475 0.99333537 -0.11515088 -0.0050089252 0.098591417
2713.0481 -0.7517882 -437.80167 0.72397029 -0.060876966 0.68713975 0.064692952
2685.4102 188.10899 -270.70187 0.88057429 -0.16271929 -0.44509703 0.10603693
2684.9287 204.00327 -271.38651 0.92322689 0.0032454019 -0.38424158 0.13781978
2690.1882 306.59897 -316.71017 0.85094005 -0.15595053 0.50157791 0.12917228
2674.6746 183.16678 -311.55585 0.98107374 -0.1809669 -0.068885796 0.11559496
2669.075 144.27162 -355.92798 0.99541682 -0.092435658 -0.024514884 0.14083713
2692.761 241.85597 -230.29167 0.80460429 -0.065805025 -0.59015387 0.11633322
2681.4106 234.09583 -272.07074 0.96042752 0.22407633 -0.16543508 0.15245494
2685.6765 276.04559 -317.12094 0.92861032 -0.13086897 0.34721208 0.13209529
2661.1592 152.65674 -310.00784 0.82592446 -0.48165879 0.29300785 0.13472508
2672.9346 172.04181 -268.98917 0.83471936 -0.53307074 -0.13812743 0.14367884
2669.863 159.02394 -356.83035 0.98883516 -0.020822102 -0.14755145 0.10547125
2700.1704 325.52521 -325.01935 0.68673348 -0.094181761 0.72078216 0.13591167
2669.2659 173.75978 -357.48022 0.96176207 -0.043874364 -0.27034929 0.10051274
2681.8911 220.3502 -272.15656 0.92712218 0.27612731 -0.25337368 0.15675616
2677.7637 249.1223 -272.10065 0.97916198 0.15681025 -0.12904386 0.15733217
2672.4294 170.32657 -313.07486 0.92593181 -0.3593958 0.11612465 0.12935305
2733.9702 320.62579 -370.75388 0.57066238 -0.80832332 0.14476824 0.14553949
2682.7051 260.02835 -316.03873 0.98702312 -0.094879672 0.12955028 0.15994295
2701.1748 211.03737 -228.556 0.84342211 0.43274385 -0.31838948 0.13845326
2691.4292 292.80618 -322.02594 0.87171668 -0.12615024 0.47349355 0.085969597
2677.7422 263.7959 -273.10452 0.95778608 -0.052236587 -0.28269625 0.17418869
