# .PCD v0.7 - Point Cloud Data file format
VERSION 0.7
FIELDS x y z normal_x normal_y normal_z curvature
SIZE 4 4 4 4 4 4 4
TYPE F F F F F F F
COUNT 1 1 1 1 1 1 1
WIDTH 577
HEIGHT 1
VIEWPOINT 0 0 0 1 0 0 0
POINTS 577
DATA ascii
2447.5667 -1810.0278 -237.25806 0.8001889 -0.4549365 0.39080748 0.11088938
2448.2632 -1811.4496 -243.5778 0.8490262 -0.37714097 0.37002599 0.084165044
2433.1543 -1893.6674 -191.11729 0.93200797 0.21857645 -0.28911155 0.093634091
2459.9377 -1963.9417 -193.49127 0.89783347 0.39579207 -0.19298628 0.11658521
2435.2717 -1833.3573 -239.36874 0.74167794 -0.51527905 0.42941979 0.13481143
2427.1409 -1850.3846 -238.03809 0.90878832 -0.13766328 0.39389417 0.14647032
2428.605 -1858.0354 -192.15237 0.96816736 -0.056574166 -0.24382648 0.088565208
2446.8247 -1931.0758 -191.95203 0.89028364 0.38475743 -0.24363245 0.036949538
2434.0864 -1906.5101 -198.35469 0.89700323 0.32704082 -0.29737088 0.059368372
2434.0244 -1885.8009 -189.42557 0.98635781 0.1627478 0.024727207 0.13393061
2429.9219 -1884.3706 -193.04779 0.92252856 0.19873475 -0.33082557 0.087433055
2428.9114 -1874.8929 -202.30324 0.98273444 0.058162071 -0.17564212 0.13348147
2430.21 -1896.7411 -202.88713 0.90180719 0.23951532 -0.35968912 0.10304368
2429.062 -1864.3956 -256.25034 0.97609365 -0.20080769 0.083171248 0.20314448
2440.1494 -1841.5798 -257.3063 0.85319167 -0.42147255 0.30728629 0.12154956
2450.0942 -1938.9578 -204.99623 0.91179919 0.40901449 0.036460944 0.069036052
2422.2197 -1874.5101 -228.54379 0.93286973 0.1757025 0.31445619 0.13328777
2421.3181 -1863.0076 -225.85754 0.99244076 -0.081174009 0.092044279 0.10424945
2427.4653 -1842.2529 -218.41283 0.95902789 -0.26908123 -0.088661276 0.11985786
2433.0015 -1882.3589 -181.91379 0.93727386 0.20021835 -0.28535992 0.094645269
2449.4873 -1938.9307 -200.25955 0.91449732 0.39317605 -0.095431969 0.068509698
2424.9922 -1859.6276 -223.0589 0.98281598 -0.18232241 0.028832119 0.1320204
2430.9817 -1829.0713 -213.43486 0.87960404 -0.44865754 -0.15812398 0.12455352
2436.312 -1901.6085 -187.4465 0.91101635 0.27187017 -0.31005773 0.067686036
2440.1001 -1918.1704 -193.61629 0.89723635 0.35445166 -0.26330763 0.027355945
2434.22 -1824.1016 -221.95467 0.89235377 -0.41214067 0.18396957 0.15034805
2451.4333 -1825.5099 -262.16043 0.82490033 -0.29344666 0.4831444 0.15953974
2452.5903 -1826.2157 -266.15036 0.85123897 -0.28822356 0.43854237 0.18726788
2445.939 -1820.6211 -250.27573 0.89725578 -0.28739652 0.33516461 0.11799291
2445.7073 -1817.8982 -243.19608 0.81678432 -0.41821271 0.39744374 0.099720336
2443.6294 -1812.6033 -231.937 0.80706674 -0.49212238 0.32628033 0.12747981
2444.5461 -1815.9037 -236.01817 0.74858952 -0.52690363 0.40247518 0.099737927
2448.6125 -1823.5642 -256.08594 0.83227664 -0.29116353 0.47174081 0.14020331
2446.4946 -1838.0975 -263.3822 0.80641103 -0.38460645 0.44919828 0.13507685
2462.9519 -1962.4827 -181.60353 0.87301528 0.33519834 -0.3542406 0.092395149
2452.6133 -1934.2593 -175.61766 0.85831374 0.39410034 -0.32860693 0.034048293
2439.2419 -1898.5779 -171.13634 0.91896152 0.30807906 -0.24616452 0.044057671
2460.9216 -1944.6296 -168.46068 0.84175801 0.33827496 -0.4207297 0.057803683
2465.9133 -1964.6356 -175.33687 0.82251036 0.28675944 -0.49116775 0.068789907
2428.031 -1853.8439 -198.81764 0.97064537 -0.15644862 -0.18267828 0.099016458
2426.3594 -1887.4885 -208.69214 0.93945181 0.20367233 -0.27558637 0.101492
2431.9805 -1834.7443 -194.47998 0.95858073 -0.23935625 -0.15437475 0.071530804
2424.7222 -1865.3417 -204.63435 0.95996898 -0.05732087 -0.2741785 0.091898985
2461.114 -1939.4354 -218.3987 0.6852994 0.52157831 0.50825268 0.084948525
2446.0266 -1913.1726 -162.40771 0.91015893 0.3715966 -0.18310289 0.041175745
2429.1895 -1842.6395 -230.69354 0.92720312 -0.29292828 0.23342545 0.16125904
2451.6929 -1890.7052 -232.89914 0.27029186 0.5051325 0.81962395 0.13446794
2438.6418 -1822.8826 -232.37865 0.83560675 -0.44918048 0.31622493 0.13352776
2433.7395 -1831.5015 -190.67691 0.93596703 -0.24039367 -0.25724819 0.082475439
2431.5793 -1884.8577 -187.63675 0.91670316 0.22868328 -0.32765719 0.092523694
2446.0212 -1816.0427 -240.38777 0.78138804 -0.47349066 0.40649638 0.091724388
2429.2136 -1855.7754 -188.62888 0.96034354 -0.11984576 -0.25174841 0.077212282
2458.0684 -1958.4539 -187.6774 0.90920341 0.28691539 -0.30170962 0.081816658
2448.3613 -1931.2604 -185.82155 0.89650691 0.36543292 -0.25046775 0.034671441
2433.0164 -1833.8136 -237.60669 0.7659381 -0.52547318 0.37042785 0.1314107
2429.4634 -1839.6588 -205.08296 0.94010425 -0.28544423 -0.1863482 0.079642572
2425.0928 -1862.5488 -203.44179 0.95705426 -0.10313005 -0.27094531 0.087986946
2478.5396 -1965.8707 -206.16809 -0.42626366 -0.83789355 -0.34093064 0.17673196
2427.2681 -1888.4177 -203.14464 0.92026466 0.23230943 -0.31487346 0.081143565
2436.0764 -1819.4044 -205.89397 0.8738209 -0.47653145 -0.096720502 0.13156816
2439.6355 -1806.2419 -215.83937 0.90952337 -0.34630892 0.22986391 0.11596496
2441.4573 -1807.2137 -220.88905 0.88471681 -0.41374651 0.21468574 0.1014571
2445.9468 -1817.9806 -247.01845 0.89383996 -0.32463315 0.30929503 0.10166855
2441.8777 -1804.6277 -224.25867 0.92721444 -0.30758011 0.21370028 0.096765712
2445.0979 -1815.0356 -240.96013 0.8774811 -0.31947002 0.35772306 0.10054759
2438.0454 -1806.6345 -210.25024 0.90709966 -0.34732494 0.23777215 0.13903475
2422.9968 -1864.7219 -218.33551 0.98754376 -0.14269006 -0.066308558 0.114678
2428.4429 -1841.3723 -219.06833 0.96726245 -0.24961011 -0.045805391 0.12123056
2435.3928 -1820.5563 -221.20985 0.92561942 -0.29007405 0.24307548 0.1384863
2433.936 -1872.6263 -235.44305 0.93083394 -0.074934363 -0.35767731 0.23782648
2432.3982 -1828.0542 -208.15355 0.98568279 -0.16643147 0.027017899 0.11775929
2430.4551 -1891.355 -195.89937 0.91164076 0.23953296 -0.33396864 0.090024173
2423.2922 -1872.1245 -217.30052 0.9951542 -0.037638135 -0.090837829 0.1254739
2423.2266 -1866.634 -222.74559 0.99156547 -0.12028526 0.04826393 0.12065595
2424.0957 -1877.3669 -208.2074 0.95141637 0.08488968 -0.29597396 0.095045447
2427.7349 -1886.3765 -201.96001 0.92245144 0.21030582 -0.32381293 0.091576912
2429.3542 -1850.6869 -191.8047 0.99787027 -0.055347532 -0.034519084 0.11489456
2438.2493 -1903.4794 -183.51898 0.93231082 0.2552917 -0.2561692 0.063906774
2429.7148 -1854.9736 -186.78822 0.98649108 -0.020281758 -0.16255447 0.1010154
2423.938 -1876.6853 -212.85721 0.9741531 0.077844083 -0.212052 0.10283168
2432.4309 -1878.3507 -170.80725 0.97127855 0.23555878 -0.03361661 0.099830985
2430.5745 -1836.4994 -203.74939 0.99271524 -0.06692934 0.10018431 0.093537182
2427.7947 -1868.9896 -236.76891 0.99062192 -0.10872567 0.082746252 0.21328185
2424.3777 -1866.0343 -228.96414 0.99148005 -0.090036742 0.094131529 0.14739364
2432.1128 -1865.8989 -176.49478 0.97260362 0.046531618 -0.22776534 0.091400832
2431.1606 -1859.1217 -181.9532 0.95675373 -0.036856826 -0.28855482 0.07498993
2434.9756 -1899.3201 -189.64644 0.906542 0.28331748 -0.31291014 0.071113899
2429.4563 -1843.2073 -197.27211 0.99189645 -0.12016727 0.041245997 0.1029718
2424.6345 -1862.3463 -206.87236 0.96823639 -0.092270479 -0.23238863 0.094596729
2432.4287 -1887.3441 -186.88078 0.91117668 0.24608648 -0.33045191 0.09016142
2421.1184 -1866.1014 -218.15596 0.99143153 -0.09010867 -0.09457235 0.10823834
2428.7742 -1851.3314 -195.33652 0.96634632 -0.18050133 -0.1832867 0.085957892
2432.3511 -1874.9327 -175.16541 0.95905352 0.19128193 -0.20887212 0.072165482
2439.812 -1900.4144 -172.44937 0.9261207 0.29925901 -0.22966163 0.060463797
2426.6296 -1856.342 -200.71602 0.95736337 -0.12452802 -0.26066858 0.091131672
2422.7585 -1863.1044 -212.70499 0.97901314 -0.1107932 -0.17105 0.093427166
2430.0642 -1845.6824 -188.86212 0.98437148 -0.16154444 -0.070115373 0.09165252
2428.2854 -1894.0924 -205.16644 0.91197348 0.25192443 -0.32378766 0.082017288
2433.1255 -1838.0291 -183.02252 0.95957386 -0.2225109 -0.17235704 0.082947165
2426.0569 -1889.9867 -210.73886 0.93571717 0.26696694 -0.23056898 0.083630674
2430.1108 -1893.3912 -198.77284 0.9063918 0.26139152 -0.33185598 0.093209155
2425.8767 -1838.4631 -230.94542 0.81866771 -0.48646545 0.30517954 0.1262314
2431.9341 -1891.7549 -192.31465 0.91966403 0.241329 -0.30980384 0.089304022
2440.2292 -1898.9336 -166.80351 0.92411482 0.30518797 -0.22993943 0.037183993
2440.4404 -1905.4845 -177.66563 0.93556905 0.29064256 -0.20059264 0.051539343
2433.8862 -1886.0265 -180.97243 0.94785142 0.22097002 -0.22967355 0.091568142
2427.8293 -1896.9581 -216.45197 0.92803264 0.34172735 -0.14824943 0.096732758
2433.0732 -1873.9858 -168.01073 0.97182411 0.18804678 -0.14211364 0.08477167
2434.1023 -1891.5337 -225.38264 0.80707657 0.47986233 0.34403431 0.13851202
2436.8774 -1817.1248 -218.41882 0.86948794 -0.47645235 0.13032241 0.12221137
2433.7717 -1825.5055 -223.8652 0.86638266 -0.45489568 0.20603636 0.14094292
2440.0293 -1809.637 -213.0694 0.84889269 -0.51206857 0.13102271 0.14756405
2431.2349 -1832.8292 -228.05562 0.85991013 -0.45513234 0.2311042 0.14122711
2431.9512 -1830.5875 -207.96091 0.98015696 -0.19733883 -0.018702175 0.11369556
2426.886 -1854.5382 -206.68973 0.96706867 -0.21126409 -0.1419355 0.10561407
2424.5933 -1877.6866 -207.17276 0.94739985 0.082621694 -0.30920401 0.092950419
2433.8784 -1915.6737 -206.36275 0.87422079 0.32468009 -0.36099982 0.037890289
2442.8813 -1922.4635 -191.65024 0.88753074 0.3677884 -0.27752626 0.03052301
2431.5635 -1853.6547 -244.27617 0.88813174 -0.16317005 0.42964819 0.17701317
2438.3665 -1832.1259 -244.04453 0.71236032 -0.50996315 0.48216215 0.12726858
2456.2327 -1954.2769 -192.1646 0.89750457 0.3653855 -0.24693914 0.081837736
2431.293 -1886.5873 -191.18307 0.93735701 0.20335299 -0.2828593 0.10092387
2428.8315 -1853.2408 -193.41481 0.96737313 -0.12723385 -0.21909074 0.097828627
2452.5642 -1947.3435 -193.17766 0.91351914 0.3315506 -0.23570518 0.062032584
2442.738 -1919.8444 -186.77318 0.89162755 0.37630945 -0.25177664 0.031173481
2436.8516 -1897.0442 -180.96098 0.92930275 0.2769089 -0.24437241 0.068248123
2431.7559 -1865.0022 -177.82541 0.96538186 -0.0003094681 -0.26084062 0.073864654
2435.4939 -1825.2631 -227.5136 0.85884082 -0.42025977 0.29287231 0.14429826
2441.5667 -1825.5538 -241.93106 0.7353695 -0.5265578 0.42657775 0.12090378
2437.2715 -1826.1411 -232.89395 0.83825773 -0.43595347 0.3275187 0.13960674
2440.0818 -1826.0432 -238.96165 0.81679904 -0.43165576 0.38276967 0.14393272
2440.1333 -1812.0854 -223.45102 0.87759358 -0.42996314 0.21204068 0.118408
2441.3115 -1828.4939 -244.61209 0.74992609 -0.48464149 0.45025933 0.13968407
2433.0261 -1826.3616 -217.7587 0.94542128 -0.22211745 0.23841645 0.14181817
2434.6218 -1823.9048 -204.69862 0.9478482 -0.30730021 -0.084559888 0.098735668
2440.1426 -1816.063 -228.94902 0.86929834 -0.38432062 0.31083441 0.1215742
2440.564 -1821.7809 -235.18546 0.83526993 -0.41973281 0.35517389 0.12651703
2433.9692 -1827.097 -223.36862 0.93207252 -0.29410839 0.21152098 0.13821742
2432.6184 -1824.6428 -210.72768 0.9614116 -0.24246402 0.1299959 0.12937449
2440.3171 -1825.4788 -238.78429 0.77091849 -0.49201661 0.40448037 0.13145646
2424.571 -1855.4944 -229.54285 0.98268259 -0.13605055 0.12579827 0.13617684
2434.3713 -1844.1183 -244.02112 0.76714939 -0.3717365 0.52277511 0.14881516
2423.4658 -1859.4708 -224.78909 0.99339336 -0.1047319 0.046913605 0.12878361
2427.1948 -1850.9454 -233.78677 0.93887365 -0.21161698 0.271541 0.14395267
2443.8745 -1834.2507 -254.88234 0.78512955 -0.36251211 0.50215197 0.11084079
2424.1726 -1874.0287 -213.85065 0.98352975 0.034031998 -0.17751369 0.11208401
2431.1943 -1848.6667 -240.97513 0.8735553 -0.26543304 0.40797845 0.15496001
2439.0452 -1838.8655 -249.07306 0.75893199 -0.34997401 0.54912698 0.13673411
2424.4402 -1874.8717 -208.65829 0.96424067 0.050719164 -0.26012966 0.099569418
2450.9468 -1830.464 -263.36926 0.77057397 -0.37770408 0.51337647 0.16499326
2424.1345 -1868.0128 -218.99936 0.99550331 -0.094608173 0.0047433339 0.13141759
2427.0947 -1893.379 -212.45758 0.93840247 0.27816862 -0.20499504 0.095782578
2431.8738 -1886.5533 -188.67775 0.91761178 0.21871366 -0.33189294 0.096645497
2432.2681 -1881.0452 -183.33073 0.93361443 0.20887561 -0.2910929 0.09514872
2425.1877 -1886.6293 -221.64845 0.91411728 0.37632543 0.15089312 0.10301555
2419.9348 -1869.283 -222.40398 0.9941619 -0.018837944 0.10624132 0.10777704
2425.8376 -1878.5386 -203.12682 0.95317245 0.11459963 -0.27987364 0.091113634
2437.1003 -1896.9694 -180.02643 0.92716461 0.28386834 -0.24450868 0.067794032
2435.7004 -1897.4171 -185.58905 0.91173112 0.2926113 -0.28831398 0.069655374
2431.0989 -1888.4136 -191.73283 0.91287297 0.25506967 -0.31875131 0.085985914
2431.4841 -1891.8835 -194.16687 0.92188418 0.22173101 -0.31774968 0.096767284
2424.1716 -1863.4978 -208.90248 0.97080779 -0.11585314 -0.21002442 0.098809019
2420.9233 -1867.9001 -219.42648 0.99652874 -0.075232811 -0.035644233 0.10828704
2430.0732 -1893.9803 -200.02808 0.90557772 0.24358623 -0.34726751 0.095202021
2427.679 -1882.269 -198.26028 0.92974782 0.18473472 -0.31849965 0.08327087
2422.6099 -1866.8298 -214.07967 0.9843635 -0.10734855 -0.13965973 0.10230107
2424.4399 -1886.7891 -217.73088 0.95434773 0.28360286 -0.093754269 0.096833952
2433.3225 -1879.4844 -176.49113 0.95606244 0.21228608 -0.20218611 0.095714092
2436.9094 -1892.8473 -174.97844 0.93267888 0.274993 -0.23342864 0.073605932
2428.5798 -1893.6019 -206.48555 0.9293052 0.23414052 -0.28560466 0.097292185
2433.6067 -1887.0508 -228.92969 0.65847737 0.58127326 0.47804704 0.13274133
2425.8313 -1858.46 -203.07309 0.95657349 -0.11482969 -0.2679204 0.08772324
2427.95 -1852.78 -196.86523 0.95915329 -0.18942171 -0.21010567 0.081716105
2424.3894 -1845.0276 -237.12299 0.93024051 -0.14086524 0.33883569 0.11879967
2437.1011 -1815.2345 -216.71992 0.89833498 -0.40679133 0.16587658 0.12431093
2424.8455 -1841.5764 -233.0759 0.84658396 -0.43528214 0.30630869 0.12048103
2430.145 -1828.6361 -224.9966 0.80619079 -0.58500606 0.088455111 0.10949355
2429.5322 -1836.225 -229.53329 0.88569939 -0.43858364 0.15225293 0.14751475
2434.3716 -1822.1462 -220.53951 0.81887823 -0.57168305 0.051155616 0.12370045
2429.8796 -1848.8307 -190.81389 0.97568887 -0.14750129 -0.16209427 0.086030722
2435.9824 -1913.3575 -201.08618 0.9058997 0.26637363 -0.32922757 0.053937968
2426.865 -1872.3267 -201.32597 0.96346122 0.051299017 -0.26288956 0.1049648
2464.7729 -1964.9071 -208.08224 0.93143278 0.24579109 0.26836491 0.15292872
2478.1848 -1975.9314 -165.1868 -0.68044686 -0.25275078 0.68782926 0.085631676
2428.5068 -1853.7441 -193.04828 0.96164364 -0.15877484 -0.22367841 0.085684165
2433.2415 -1917.1484 -208.97353 0.86613733 0.32906634 -0.3761934 0.03895276
2428.9453 -1894.2076 -203.17801 0.90081215 0.24234101 -0.36028922 0.09400031
2427.3379 -1873.7931 -197.77965 0.94531751 0.083674945 -0.31523541 0.099391297
2432.3113 -1835.3804 -189.16261 0.9614622 -0.21028978 -0.1771121 0.074162684
2475.5684 -1981.9135 -167.65724 -0.6509403 -0.099161461 0.75262457 0.084912196
2468.3706 -1952.0312 -165.21362 0.75593746 0.27711412 -0.59309894 0.068704873
2466.7405 -1961.0585 -203.48294 0.73453546 0.61735135 0.2816647 0.15884498
2481.218 -1969.5709 -160.34654 -0.65286416 -0.22998081 0.72171825 0.091771536
2424.0762 -1858.4408 -224.01094 0.98988265 -0.14184463 -0.0035216596 0.13019198
2430.8076 -1832.2078 -214.31171 0.95030701 -0.30143702 -0.077796586 0.12237267
2441.9929 -1923.6049 -195.29698 0.89518386 0.35630253 -0.26775807 0.030615926
2426.8438 -1845.1206 -219.38487 0.95562309 -0.27861917 -0.095686525 0.12693049
2436.1062 -1903.3557 -189.77103 0.90255338 0.27610272 -0.33040074 0.07477504
2433.5969 -1887.5994 -183.48285 0.93073422 0.23350471 -0.2814416 0.089926034
2431.657 -1873.0527 -177.95433 0.97991383 0.15080458 -0.13048699 0.085567795
2438.3083 -1886.6982 -230.7278 0.60437042 0.59157431 0.53364426 0.16283104
2435.3635 -1819.1681 -208.9046 0.8951146 -0.44563416 0.013419413 0.13682604
2427.333 -1848.5776 -206.44041 0.95479918 -0.23637511 -0.18023703 0.091222629
2424.468 -1872.7168 -206.36418 0.95466077 0.060505811 -0.29148209 0.088661224
2432.2551 -1828.8568 -208.19064 0.9855569 -0.16703744 0.027857807 0.1154795
2431.7683 -1908.7562 -207.31897 0.90113944 0.2974253 -0.31541377 0.069228195
2441.1248 -1813.1665 -228.6075 0.87620419 -0.38947037 0.28386447 0.13342044
2431.125 -1835.2733 -227.37553 0.91656578 -0.35525528 0.1835781 0.15642463
2424.2429 -1854.2186 -224.75349 0.98558509 -0.16582176 0.033542939 0.13329786
2424.3293 -1881.2131 -224.01486 0.9517644 0.26869914 0.14813943 0.11664323
2435.8345 -1834.9923 -239.06207 0.82843274 -0.38549924 0.40631214 0.15059446
2427.1006 -1856.1915 -236.64731 0.93949026 -0.16350155 0.30104029 0.16064003
2432.4202 -1886.7688 -186.59703 0.90979713 0.25341392 -0.32871053 0.093928866
2448.4729 -1932.4152 -186.43501 0.89626175 0.3558833 -0.26469219 0.038542122
2461.2332 -1964.8639 -187.86612 0.88866031 0.33849949 -0.30935571 0.10920262
2429.9143 -1856.3719 -186.27417 0.96540421 -0.073069565 -0.25031084 0.081402712
2443.9846 -1922.0062 -185.9955 0.89398688 0.3633962 -0.26216543 0.02947291
2451.3301 -1941.1155 -192.35817 0.92540431 0.35127279 -0.14224738 0.068600677
2433.217 -1878.1055 -174.97008 0.95436895 0.20244084 -0.21953946 0.077375405
2422.8762 -1876.8258 -224.91034 0.97993833 0.14608553 0.13557248 0.11974884
2438.5374 -1901.8521 -180.14496 0.93310159 0.2568841 -0.25165847 0.06963338
2422.4753 -1861.8003 -220.4127 0.99440396 -0.093894333 -0.04842164 0.11642417
2428.8586 -1836.6432 -211.62364 0.91114056 -0.3511394 -0.21569431 0.091734171
2433.866 -1824.236 -206.42346 0.90583026 -0.41624215 -0.078829147 0.11655384
2425.0894 -1848.8413 -216.34682 0.95192665 -0.24724707 -0.18084386 0.11013608
2469.6729 -1955.6709 -166.17638 0.76761746 0.22127675 -0.60149813 0.063341871
2426.958 -1875.4041 -201.60834 0.96109104 0.077024855 -0.26527563 0.1054915
2469.4778 -1970.8282 -173.32652 0.79149288 0.28452873 -0.54090893 0.071199782
2431.3628 -1835.6998 -193.88243 0.98116481 -0.17986386 -0.070460103 0.080760695
2427.7009 -1891.0674 -207.91391 0.93917733 0.21176365 -0.27037403 0.10472248
2460.5164 -1940.6942 -218.17847 0.7090354 0.54834735 0.44337788 0.094094977
2428.1487 -1852.8763 -197.82837 0.97048897 -0.14095221 -0.19566211 0.092101298
2434.5396 -1823.255 -220.38249 0.94543606 -0.25537589 0.20232101 0.13414492
2431.9177 -1829.0837 -214.41295 0.97100776 -0.21793509 0.098225228 0.1373069
2430.5054 -1836.5356 -207.9082 0.9824723 -0.18286873 -0.036154598 0.10392323
2428.7366 -1854.5323 -197.12199 0.98762131 -0.073738694 -0.1384439 0.13189931
2423.7375 -1882.7384 -213.70818 0.95374852 0.17858815 -0.24180588 0.10863671
2440.2383 -1910.9158 -184.05943 0.91781557 0.32434368 -0.2289449 0.041758303
2430.304 -1864.9794 -187.07104 0.97163004 0.066065751 -0.22709125 0.11131063
2432.2395 -1873.2953 -177.33229 0.96102726 0.12926103 -0.2443731 0.07463181
2429.2598 -1903.2411 -216.90749 0.90688539 0.37447581 -0.19320142 0.11029111
2436.833 -1910.0137 -194.83093 0.89848608 0.28760397 -0.33167255 0.068524398
2430.5408 -1865.0906 -183.24319 0.95842528 -0.011508531 -0.28511137 0.079517931
2429.4617 -1842.3572 -203.22685 0.96057081 -0.23469003 -0.14907829 0.090248503
2438.8875 -1911.4028 -189.68509 0.90862536 0.3290123 -0.25719804 0.047427285
2424.8462 -1885.2456 -208.39948 0.93514252 0.2091011 -0.28598118 0.088016488
2442.0427 -1911.6041 -178.27495 0.90771347 0.34462124 -0.23935834 0.037580814
2427.3772 -1877.9269 -229.85936 0.92193848 0.1786592 0.34367189 0.17020474
2446.3042 -1884.7487 -234.64337 0.37152395 0.641321 0.67132503 0.16903715
2434.3784 -1883.8879 -171.04982 0.95131242 0.28163132 -0.12525344 0.099637128
2429.6118 -1895.9144 -202.47298 0.89205313 0.26811829 -0.36380467 0.092408501
2440.4956 -1904.1008 -173.44592 0.91721904 0.31697091 -0.24132691 0.041189622
2423.7974 -1881.4047 -218.4819 0.98025697 0.15369149 -0.12439933 0.12594123
2422.7151 -1875.886 -222.79803 0.99917746 0.019942714 0.035309024 0.12551349
2428.9651 -1857.9529 -191.77736 0.9766643 -0.044519354 -0.21010692 0.10351694
2440.468 -1899.7841 -165.1543 0.94181406 0.3037366 -0.14398032 0.076612175
2442.9758 -1907.8914 -166.63245 0.9190349 0.34238467 -0.19531402 0.031668685
2424.2852 -1863.5311 -207.1806 0.97128642 -0.097608089 -0.21696869 0.096786603
2433.1892 -1884.6202 -181.64374 0.92409205 0.2457085 -0.29271343 0.087810874
2429.0942 -1898.6301 -205.49127 0.89635777 0.2999121 -0.32648969 0.073907241
2422.5845 -1868.5316 -212.5007 0.97867078 -0.068599068 -0.19364329 0.10433485
2426.4248 -1859.2804 -200.62459 0.96237427 -0.11129713 -0.24788842 0.090110928
2425.084 -1839.4746 -230.63423 0.81748867 -0.47752696 0.32199422 0.13000286
2433.8545 -1881.3058 -174.57059 0.95385188 0.23197527 -0.19066757 0.097824849
2432.0679 -1826.3063 -223.10977 0.83196682 -0.54717803 0.091800965 0.11389582
2432.4548 -1895.0009 -193.16386 0.91396654 0.2643269 -0.30789036 0.081930764
2435.4966 -1887.0508 -168.35469 0.94946486 0.29940063 -0.094211034 0.099911332
2428.4128 -1833.3242 -227.15575 0.81928617 -0.55045646 0.1605235 0.11418127
2429.7297 -1849.4768 -188.79901 0.99149615 -0.12148064 -0.046667054 0.092516102
2436.2451 -1818.7133 -218.8349 0.86202598 -0.49380779 0.11430273 0.11333396
2427.9419 -1897.295 -211.64111 0.90994608 0.35457289 -0.21511912 0.085403368
2428.4941 -1851.8771 -195.00998 0.95844567 -0.18705629 -0.21538755 0.084584512
2430.9788 -1897.7294 -199.3877 0.90401161 0.28870893 -0.31529385 0.074242651
2420.4209 -1868.7396 -217.50169 0.99104041 -0.059014428 -0.11981733 0.10067119
2430.7534 -1858.6836 -243.98297 0.94466615 -0.30196959 0.12814169 0.18498378
2431.5259 -1842.4963 -183.57216 0.9788174 -0.1969188 -0.05603062 0.1020913
2433.3777 -1891.1062 -187.08257 0.92342216 0.2443382 -0.2959567 0.083945282
2426.7676 -1885.5037 -223.38963 0.91902679 0.3649981 0.14888291 0.12487394
2439.2051 -1809.0399 -213.59213 0.89205724 -0.42072192 0.16500603 0.12374338
2427.7896 -1878.4187 -196.31213 0.93518513 0.14344355 -0.32380977 0.083888583
2426.2612 -1869.989 -201.07367 0.96171373 0.040259581 -0.27108282 0.098280162
2434.7063 -1898.6373 -190.2404 0.91789198 0.25507805 -0.30398923 0.077293195
2425.6091 -1859.0829 -206.13615 0.96743447 -0.13160031 -0.21622193 0.10219808
2429.1685 -1838.592 -216.09534 0.96382606 -0.26314229 -0.042373225 0.12320984
2427.4419 -1849.8669 -210.94907 0.96894944 -0.23091352 -0.088407762 0.10474346
2431.8474 -1831.3574 -221.32697 0.94822657 -0.28305465 0.1440364 0.13777234
2436.8799 -1821.4758 -226.37495 0.86679161 -0.40558767 0.29012221 0.15060115
2450.8325 -1931.0991 -176.62195 0.85848308 0.42203501 -0.29136443 0.031904005
2474.6738 -1967.0973 -165.67729 0.69542038 0.20745555 -0.68800634 0.073906869
2438.416 -1906.5437 -186.4227 0.91556031 0.29505044 -0.273303 0.056909148
2444.3616 -1919.4012 -181.35872 0.88988543 0.39132234 -0.23445833 0.032080244
2459.854 -1946.2876 -171.89772 0.85060668 0.32683995 -0.41187853 0.053763129
2484.4546 -1981.0574 -158.29074 -0.47429156 0.28929177 0.83147925 0.13835883
2448.9868 -1922.0056 -168.99609 0.88586605 0.38121623 -0.26441553 0.030274397
2453.8125 -1947.5051 -188.44511 0.87793368 0.34423289 -0.3327705 0.056472462
2456.0598 -1955.5188 -194.46915 0.90298283 0.36972362 -0.2189211 0.088039577
2457.8992 -1949.8198 -180.16943 0.87416244 0.34115696 -0.34561822 0.061370078
2451.7983 -1932.6384 -175.27159 0.87009668 0.39409408 -0.29600948 0.034286417
2425.9771 -1879.1445 -200.88533 0.94491917 0.13524248 -0.29805571 0.076401733
2446.0425 -1912.7971 -161.60379 0.91029716 0.37069017 -0.18424967 0.042654593
2427.2249 -1870.7479 -195.50645 0.94042814 0.056110993 -0.33533037 0.088832177
2427.7876 -1899.3142 -212.92262 0.89918441 0.3558017 -0.2547009 0.083529457
2424.8848 -1885.834 -207.79138 0.92922229 0.22653383 -0.2919389 0.086428098
2430.2671 -1871.0519 -236.99197 0.98289299 -0.18417673 -0.0005013296 0.21762899
2437.7812 -1813.3971 -213.87209 0.88208407 -0.44840264 0.14443955 0.14102401
2429.1455 -1860.1558 -189.34015 0.96730107 -0.029290916 -0.25193399 0.085029714
2426.8037 -1842.4221 -227.94 0.93925428 -0.32785437 0.10155247 0.15520301
2430.3113 -1833.532 -223.44214 0.92498761 -0.37109721 0.081760809 0.1529416
2430.8193 -1849.7308 -183.02222 0.96764809 -0.14673632 -0.20524523 0.07701768
2433.4866 -1824.0133 -218.90588 0.83001858 -0.55746394 0.017410619 0.11177675
2433.2227 -1900.6296 -196.42735 0.90760446 0.27495378 -0.31726095 0.082215615
2438.1194 -1920.3545 -201.6566 0.87237215 0.35110205 -0.34013852 0.032515876
2474.0754 -1973.9419 -168.23788 0.71128589 0.17072059 -0.68185544 0.085454307
2469.9773 -1954.7339 -165.79921 0.7574982 0.20627019 -0.61939406 0.063971147
2469.9158 -1979.8335 -175.64558 0.77713621 0.2100331 -0.59324986 0.079200603
2431.7256 -1887.8169 -190.23665 0.92448837 0.2332719 -0.30150527 0.10152403
2426.0681 -1873.1508 -233.9198 0.8604899 0.26223409 0.43679562 0.13130142
2432.314 -1826.9589 -215.06918 0.92345983 -0.3827002 -0.027612938 0.14745124
2432.3079 -1878.3854 -184.24745 0.95406085 0.13655521 -0.26668447 0.1009995
2425.3572 -1866.0104 -230.92882 0.98032326 -0.02831205 0.19535793 0.16097286
2428.8 -1837.9098 -220.26782 0.94891995 -0.31245968 -0.0438159 0.13358185
2425.8855 -1849.0194 -224.82346 0.97830385 -0.20413636 0.035353817 0.13778691
2443.0583 -1830.7621 -249.81451 0.97291815 -0.093061537 0.21158889 0.11339129
2440.2095 -1832.9065 -244.36134 0.94118935 -0.22414564 0.25282666 0.10881184
2436.9966 -1838.828 -239.42657 0.92054653 -0.26536295 0.28666469 0.13678887
2427.7344 -1874.3894 -234.56021 0.86804193 0.19384241 0.45708683 0.16774565
2428.429 -1869.2418 -195.58496 0.96836668 0.042034362 -0.24596563 0.11234254
2427.6448 -1868.0863 -200.80699 0.97356796 0.008983504 -0.22822075 0.1198421
2430.5137 -1867.4596 -242.60942 0.81371212 0.19243729 0.54848927 0.17520304
2426.0881 -1874.0142 -238.69804 0.90559298 0.14877173 0.39720058 0.14040852
2426.5188 -1884.8817 -218.72733 0.98612058 0.15861766 -0.049057554 0.15356359
2429.613 -1861.9894 -265.1994 0.95673436 -0.28545848 0.056327496 0.11747526
2430.8367 -1848.5912 -226.44299 0.9697901 -0.20926666 0.12535809 0.14051305
2427.5913 -1864.4877 -207.25169 0.98748863 -0.044344082 -0.15132688 0.15006039
2433.4893 -1842.2734 -233.85992 0.92346913 -0.2647453 0.27769536 0.14590509
2429.5378 -1871.8408 -238.98779 0.83598703 0.27391341 0.47549671 0.162045
2427.2273 -1877.7622 -229.54251 0.92193848 0.1786592 0.34367189 0.17020474
2427.6064 -1884.6632 -205.6819 0.9479683 0.14309444 -0.28439429 0.11428187
2430.4683 -1864.7478 -248.05922 0.88402849 0.029855587 0.46647862 0.16550198
2427.4939 -1858.4987 -213.64531 0.98939031 -0.14138956 -0.03340295 0.14359692
2429.1165 -1879.125 -194.68762 0.93452138 0.13224809 -0.33042428 0.093418121
2431.2078 -1862.2529 -255.34834 0.92626095 -0.16101307 0.34075719 0.15760268
2424.5222 -1879.0947 -224.02594 0.99779707 0.063986473 0.017512172 0.16032091
2432.1013 -1883.2084 -189.96875 0.97399461 0.16675949 -0.15338123 0.11587987
2425.9568 -1883.5369 -212.14697 0.9703058 0.12884896 -0.2047061 0.13609144
2430.4233 -1888.3016 -197.96144 0.93309277 0.14161189 -0.33058119 0.11743653
2424.1975 -1872.4014 -233.63663 0.90997106 0.14265412 0.38936162 0.12557144
2428.5332 -1854.0997 -220.16141 0.9864499 -0.16347425 0.01388537 0.1391093
2424.6423 -1867.9039 -214.78023 0.99486524 -0.040542424 -0.092733629 0.13972686
2426.021 -1863.7023 -208.41138 0.97635341 -0.097562499 -0.19291337 0.13223836
2427.4285 -1861.6411 -202.49019 0.9796347 -0.046438344 -0.19534427 0.12815404
2431.6345 -1881.7638 -187.72177 0.94645524 0.16559626 -0.27712885 0.099133186
2433.5562 -1833.0179 -229.60005 0.90574235 -0.32978404 0.26622042 0.13965307
2424.0095 -1872.2867 -230.36513 0.95866263 0.11378192 0.26080564 0.12446194
2430.844 -1850.9596 -241.66727 0.83607858 -0.20869878 0.50736326 0.15562029
2432.1296 -1839.3328 -233.5988 0.90175176 -0.32170591 0.28870234 0.15472868
2423.9626 -1869.9956 -221.00136 0.9926371 -0.11556555 0.036279414 0.13873293
2429.9067 -1854.774 -244.17546 0.80264306 -0.078570239 0.59126204 0.13371201
2431.1504 -1844.6342 -238.14836 0.89665204 -0.26441586 0.35510477 0.15884124
2424.3738 -1874.0275 -226.95497 0.99019241 -0.072646409 0.11933793 0.16211936
2429.5447 -1858.9325 -247.74879 0.8118183 -0.065570772 0.58021677 0.14715876
2459.7559 -1940.2435 -214.56662 0.78123319 0.36535281 0.50615418 0.097729184
2452.2288 -1929.4312 -169.2401 0.86325955 0.44581512 -0.23671035 0.031514663
2435.0378 -1875.3044 -199.26256 0.98733658 0.12667105 -0.095503353 0.16053326
2461.9773 -1956.8602 -204.24391 0.82241082 0.47406867 0.31448263 0.13675602
2452.7505 -1928.1449 -163.97629 0.87290156 0.43175364 -0.22722615 0.030513687
2432.1431 -1876.963 -237.38847 0.73684359 0.43511775 0.51743031 0.16316837
2428.8425 -1854.4595 -252.77422 0.8567282 -0.3312346 -0.39534846 0.166748
2435.9001 -1894.9484 -188.02205 0.96775514 0.17722265 -0.17900307 0.12730545
2459.9097 -1946.9459 -208.48192 0.76903808 0.40404049 0.49530974 0.098623767
2431.9016 -1871.3824 -244.46532 0.86872303 0.18490537 0.45948917 0.18201119
2463.842 -1963.6451 -199.8826 0.80451065 0.59172064 0.051276386 0.1319159
2433.6843 -1866.0209 -252.13388 0.9189319 0.060808044 0.38970062 0.18961845
2431.9558 -1882.8312 -230.72629 0.62779981 0.54483938 0.55589342 0.14672153
2432.5496 -1881.1207 -194.13744 0.99233049 0.063733496 -0.10591625 0.14843106
2462.6274 -1959.2568 -202.43402 0.74837554 0.5634895 0.34987652 0.11781083
2457.0493 -1951.8453 -186.75967 0.87147051 0.4070448 -0.27359393 0.083825633
2457.4731 -1953.7938 -194.05423 0.91175544 0.39721963 -0.10449205 0.10594252
2469.2627 -1971.5266 -173.12646 0.74001795 0.2922723 -0.60576427 0.061820559
2459.1646 -1950.2013 -178.97447 0.87170035 0.35615143 -0.33659276 0.073141038
2469.1309 -1975.6335 -173.27159 -0.68384337 -0.22724137 0.69333947 0.082985125
2459.5269 -1956.4409 -199.08817 0.85744679 0.48472306 0.17270947 0.1390181
2430.4585 -1880.4542 -192.28777 0.95171916 0.14505675 -0.27053505 0.10553709
2430.7917 -1890.3071 -197.82234 0.92244387 0.14688848 -0.35710099 0.12070306
2432.501 -1874.3932 -243.46468 0.82859498 0.33225664 0.45059505 0.16883819
2428.6113 -1867.016 -240.4277 0.94229275 -0.0093344999 0.33465984 0.19542165
2431.5574 -1850.4854 -233.89983 0.9386037 -0.22602624 0.26064393 0.13968438
2430.439 -1898.2452 -203.74442 0.90734822 0.20316835 -0.36802423 0.10898311
2434.1416 -1842.63 -229.72667 0.94011861 -0.22861508 0.25280845 0.13937686
2431.2627 -1907.245 -210.91901 0.91491371 0.30479532 -0.2646369 0.094190337
2429.4116 -1858.6877 -237.39507 0.94598824 -0.22212632 0.23614869 0.16544341
2455.5249 -1938.0164 -173.59666 0.85913974 0.40023598 -0.31888881 0.040481992
2467.1692 -1960.9545 -171.7309 0.83721054 0.28063449 -0.46938553 0.077819966
2431.626 -1846.8909 -240.14056 0.90294796 -0.26356477 0.33943871 0.16667317
2441.1697 -1827.6943 -243.68726 0.91474617 -0.24726236 0.3195321 0.12406963
2426.2913 -1868.3665 -236.5419 0.90161526 0.10795046 0.41885161 0.15006955
2439.6631 -1836.7347 -248.01976 0.92406255 -0.28530008 0.25438598 0.12527734
2444.5732 -1831.0096 -254.33989 0.95653635 -0.082900129 0.27958146 0.14635028
2431.3477 -1912.6848 -209.86563 0.89458078 0.23096471 -0.38259712 0.075904444
2453.7107 -1945.7559 -201.96426 0.94468522 0.32452011 0.047502644 0.096576221
2424.7957 -1873.8149 -225.26503 0.98942035 -0.083040826 0.11896027 0.16839439
2427.4424 -1893.233 -216.28754 0.94810444 0.29772505 -0.11161418 0.10958739
2428.4797 -1891.1344 -221.02599 0.96990687 0.24341251 0.0055748667 0.14171734
2426.6453 -1866.0437 -231.86156 0.98502767 -0.12808523 0.11538935 0.18467607
2433.7048 -1843.7786 -241.42006 0.86935598 -0.32225364 0.37466356 0.15374541
2429.9683 -1854.995 -237.58484 0.93984568 -0.26799119 0.21182726 0.14849479
2458.8528 -1956.5964 -197.07997 0.89699692 0.44132096 -0.025146708 0.12920335
2462.1956 -1964.7141 -192.01419 0.85897887 0.46801564 -0.2076456 0.13393503
2432.1484 -1834.4022 -223.30086 0.94319361 -0.24871582 0.22028679 0.14061511
2430.8779 -1876.2772 -188.24887 0.9356162 0.12223766 -0.33118021 0.098709427
2426.9697 -1871.6277 -236.19606 0.83677179 0.3145954 0.44815475 0.1487003
2436.0942 -1920.1055 -205.90723 0.88175726 0.33546254 -0.33161569 0.037556648
2465.1328 -1951.6715 -168.83247 0.81102121 0.29166409 -0.50712585 0.064779319
2467.0847 -1965.1686 -174.42604 0.82983452 0.33262897 -0.44803193 0.079226531
2434.9556 -1909.3115 -198.33281 0.89737874 0.19471779 -0.39597514 0.080144785
2432.134 -1892.9095 -193.70706 0.92560452 0.21777618 -0.30956391 0.097106248
2428.5103 -1871.0349 -237.57018 0.93371481 0.021914618 0.35734636 0.19989057
2458.5994 -1964.5057 -190.39961 0.91556996 0.23790094 -0.32424501 0.10515462
2463.8206 -1965.7539 -183.15359 0.85672981 0.37847158 -0.3503902 0.094286174
2426.741 -1857.0963 -231.9084 0.9575991 -0.20319244 0.20424683 0.16081056
2430.1694 -1847.7488 -227.05168 0.96950859 -0.22202523 0.10372049 0.12661032
2446.1763 -1911.1533 -156.4774 0.9130612 0.3552441 -0.20030198 0.04882025
2426.6182 -1846.5593 -206.21306 0.93083376 -0.27643028 -0.23902887 0.067359395
2433.1868 -1825.2955 -207.00035 0.90149027 -0.42151988 -0.098164603 0.12432192
2432.7007 -1907.707 -204.23639 0.90031594 0.314565 -0.3007991 0.062275805
2424.5398 -1872.5759 -205.67186 0.95479137 0.073090769 -0.28815132 0.086827867
2459.7153 -1945.5027 -171.39899 0.85375613 0.33403629 -0.39939985 0.054746959
2444.0266 -1909.8436 -165.59248 0.91889805 0.35109752 -0.17988041 0.038288761
2464.6956 -1963.9686 -178.28069 0.85368788 0.32665038 -0.40560633 0.08093027
2422.9924 -1879.7815 -213.07285 0.95760489 0.14599222 -0.24835286 0.10518625
2427.4172 -1852.3147 -202.27205 0.95951229 -0.2130951 -0.1841917 0.089577802
2430.5955 -1838.4645 -196.83241 0.98668587 -0.15521589 -0.048569642 0.085343242
2442.011 -1894.6149 -159.30959 0.90683484 0.28030208 -0.31477186 0.042911228
2424.4023 -1866.1954 -207.48178 0.96379423 -0.034877319 -0.2643562 0.098507695
2478.3589 -1968.5295 -162.36815 0.69126576 0.22303545 -0.68731856 0.086968876
2429.3035 -1865.2439 -192.65451 0.98458147 0.031198623 -0.17212187 0.1126597
2433.2979 -1907.3304 -201.56447 0.89916396 0.20978861 -0.3840481 0.091302566
2430.822 -1888.5546 -196.20053 0.93116415 0.1770056 -0.31875125 0.11598316
2425.5559 -1865.2205 -223.68207 0.98732615 -0.11944206 0.10450178 0.15611681
2444.3232 -1921.6603 -186.09171 0.897865 0.35774866 -0.25662103 0.040233772
2424.2542 -1874.0168 -226.52647 0.98956501 -0.0051346305 0.14399564 0.15185656
2430.9131 -1836.8715 -213.42474 0.98906642 -0.13801825 0.051947612 0.11811513
2457.551 -1954.1769 -199.99857 0.93040991 0.36650857 -0.0029775091 0.12651987
2432.2495 -1880.9987 -176.68985 0.97202551 0.22202301 0.076630183 0.10895152
2437.1738 -1897.1648 -180.0508 0.93079686 0.28336442 -0.23091507 0.068907022
2427.9968 -1849.6157 -217.93187 0.97436988 -0.22467975 -0.011059395 0.11369426
2452.8928 -1943.7316 -192.98575 0.92526191 0.35560563 -0.1320418 0.081789501
2427.3259 -1851.6805 -234.93816 0.93503231 -0.1913221 0.29851362 0.15037301
2448.4622 -1828.4611 -260.53613 0.88149035 -0.24496403 0.40369222 0.17555296
2442.3398 -1834.197 -253.79865 0.92008293 -0.27774456 0.27623433 0.13540174
2436.1946 -1839.6831 -244.70775 0.74691337 -0.39352626 0.53596407 0.14967509
2431.6199 -1844.4634 -238.47807 0.84566194 -0.26787063 0.46162891 0.1656232
2471.9639 -1966.6984 -167.78319 0.75420427 0.23601595 -0.61275804 0.070579082
2422.9819 -1878.0206 -216.23914 0.98097891 0.12036522 -0.1522913 0.11827005
2458.884 -1958.3127 -196.43109 0.84573644 0.52999091 -0.061963417 0.12950341
2424.0227 -1856.6523 -230.08469 0.98302835 -0.10647059 0.14939642 0.13076651
2452.3052 -1941.4857 -184.48053 0.8801716 0.34680662 -0.32407269 0.043594588
2481.9146 -1976.7086 -162.11595 -0.62129897 -0.1979592 0.75815547 0.10890648
2425.4917 -1888.5554 -211.4277 0.93791032 0.24671914 -0.24383162 0.095099941
2424.0161 -1867.1963 -225.67831 0.99228495 -0.064569011 0.10583647 0.13723135
2430.1597 -1902.5925 -205.49107 0.87613815 0.30781713 -0.37098595 0.074858256
2434.9082 -1912.396 -200.77715 0.88872153 0.28134516 -0.36196545 0.054512333
2464.9985 -1958.6643 -173.57687 0.83139467 0.27950329 -0.48027161 0.066390321
2445.2688 -1928.251 -190.36044 0.88755262 0.36365122 -0.28285703 0.030761559
2485.1062 -1978.0359 -159.58864 -0.56057018 0.0064825951 0.82808155 0.12363727
2423.2725 -1875.0142 -220.10612 0.99946535 -0.004314261 -0.032409482 0.12964466
2439.3398 -1918.3143 -195.50719 0.88684398 0.34445909 -0.30798653 0.027880108
2457.3308 -1948.0665 -178.95781 0.86734432 0.34737203 -0.35643589 0.053009853
2449.2905 -1938.6936 -197.45711 0.92177987 0.36595774 -0.12804994 0.06927301
2422.4695 -1877.9269 -211.14806 0.95306349 0.097691812 -0.28657693 0.097897634
2460.0864 -1960.9227 -191.07417 0.86792678 0.44119447 -0.22814588 0.11396092
2476.8738 -1971.686 -164.88594 0.69126576 0.22303545 -0.68731856 0.086968876
2457.8416 -1955.6854 -186.50739 0.89487159 0.30273357 -0.32795909 0.06946405
2425.4041 -1864.6028 -199.74606 0.9483422 -0.068018585 -0.30987188 0.087045446
2426.6479 -1893.2896 -219.65903 0.92182833 0.37278667 0.10612532 0.088127725
2421.936 -1881.8655 -215.54814 0.9653675 0.23391877 -0.11553168 0.096582472
2423.4971 -1870.6816 -206.31435 0.95319766 0.028912289 -0.30096233 0.084874369
2463.2192 -1961.8202 -179.53348 0.85711169 0.31412151 -0.40827352 0.07960102
2427.5801 -1855.4203 -193.81113 0.9499796 -0.14083369 -0.27875546 0.085658275
2442.9119 -1913.8584 -178.74539 0.90565151 0.35503963 -0.23182364 0.041782152
2443.4712 -1909.3146 -166.14372 0.93540114 0.33162341 -0.12268112 0.053009789
2474.51 -1960.1875 -162.05142 0.75107729 0.24310435 -0.61382669 0.075795241
2448.8608 -1937.574 -202.48775 0.91508633 0.39882451 0.059632495 0.065053441
2468.3489 -1965.8794 -172.2287 0.80335701 0.27768764 -0.52678943 0.06798391
2428.7976 -1865.9539 -241.46291 0.84372073 0.15224002 0.514741 0.16173165
2444.9893 -1928.7943 -192.03125 0.88330483 0.35625824 -0.30471724 0.03159155
2437.5371 -1895.317 -173.38426 0.92183948 0.28970578 -0.25745386 0.036311075
2494.4294 -1977.1224 -151.86824 -0.6341455 -0.030210102 0.77262336 0.08551202
2445.6365 -1924.7354 -185.18391 0.89213032 0.37097746 -0.25783569 0.027189257
2432.4707 -1826.7373 -221.40752 0.89013886 -0.44537544 0.096402742 0.11977044
2428.3765 -1834.7109 -225.93556 0.87256384 -0.48022965 0.089509025 0.12485784
2435.0808 -1820.3835 -219.48286 0.93768197 -0.25606725 0.23490877 0.13234501
2429.531 -1856.1589 -186.51906 0.99363822 0.035326317 -0.10693516 0.11110612
2423.4043 -1839.8771 -228.6745 0.9054423 -0.36942735 0.20903996 0.12450883
2422.6013 -1846.561 -232.96584 0.95039952 -0.16670223 0.26258552 0.11849712
2444.512 -1915.5656 -174.69127 0.91766053 0.3487798 -0.19039893 0.050308026
2424.0125 -1865.1923 -224.70412 0.99321055 -0.063378513 0.09754993 0.133059
2432.0349 -1871.4381 -175.12329 0.97026658 0.10827378 -0.21647073 0.06929256
2437.7544 -1821.5286 -228.20575 0.86272293 -0.39112777 0.32051241 0.13823004
2469.5576 -1969.7454 -173.43568 0.81990278 0.32212406 -0.47328168 0.079707742
2428.7366 -1842.2217 -225.91882 0.95227069 -0.28665218 0.10493341 0.14097704
2490.1299 -1981.3093 -157.05815 0.66657764 0.40744704 -0.62422848 0.09862756
2432.582 -1827.9113 -208.27316 0.93834245 -0.33114812 -0.099268906 0.098530971
2426.793 -1880.214 -205.29208 0.94818521 0.091935717 -0.30412608 0.11771142
2427.0154 -1849.0049 -207.76508 0.95392972 -0.23871349 -0.18175243 0.089434192
2434.9216 -1913.6425 -204.25436 0.90377939 0.27936873 -0.32424676 0.056636956
2430.9629 -1888.6746 -194.01338 0.9305383 0.20667782 -0.30229577 0.10773582
2430.2642 -1847.132 -185.79691 0.98813516 -0.14954874 -0.034987599 0.090694606
2433.2515 -1905.5973 -200.43701 0.90331358 0.2907232 -0.31544346 0.07296551
2428.8718 -1861.103 -190.79849 0.96287924 -0.034534775 -0.26771432 0.082809016
2449.8896 -1931.9083 -181.62 0.86767191 0.40284136 -0.29131475 0.032171663
2455.4573 -1948.6034 -188.61 0.90653086 0.35452178 -0.22916383 0.076908901
2438.8118 -1900.7595 -177.17993 0.93786108 0.27786401 -0.20786582 0.064096183
2430.459 -1835.5925 -208.17291 0.96991086 -0.23371206 -0.0682026 0.10440123
2427.175 -1853.8833 -212.80435 0.97348517 -0.22531843 -0.039474763 0.10829253
2421.7688 -1858.0731 -218.49414 0.98272699 -0.10795897 -0.15030809 0.10570296
2435.4131 -1821.674 -203.62413 0.89182711 -0.44053492 -0.10282689 0.12876324
2433.7168 -1877.1318 -172.09169 0.95895016 0.17651124 -0.2219422 0.079582408
2426.0369 -1864.8887 -205.45282 0.96185035 -0.054534499 -0.26808557 0.11534022
2430.7783 -1832.6423 -219.85426 0.93774581 -0.33871394 0.076848216 0.14328691
2435.2998 -1825.5704 -227.11932 0.89774448 -0.34685069 0.27156851 0.14105226
2425.9824 -1870.8499 -200.86227 0.9595356 0.048309803 -0.27741233 0.086173438
2428.1348 -1842.2994 -215.09337 0.96384567 -0.25438499 -0.079308085 0.12089862
2464.9341 -1954.7031 -171.58177 0.81949341 0.26049265 -0.51046461 0.057769999
2429.8203 -1886.0409 -195.94313 0.93173635 0.21181215 -0.29496261 0.095590688
2436.4478 -1904.9884 -190.77919 0.91456819 0.25449654 -0.31431913 0.073515788
2426.7585 -1852.1885 -211.08113 0.9653061 -0.2398383 -0.10325556 0.10984168
2475.7869 -1971.0657 -165.78146 -0.68238693 -0.21053486 0.70001656 0.082016572
2442.3506 -1917.0131 -185.30247 0.90703458 0.34679642 -0.23878975 0.040282406
2450.1694 -1932.2842 -181.02477 0.86888707 0.39422542 -0.29936856 0.032930195
2457.0378 -1943.3713 -175.56537 0.85973239 0.33176547 -0.38831937 0.046346352
2448.6265 -1920.7177 -168.18401 0.88061863 0.3969948 -0.25866181 0.03192655
2460.7583 -1954.3911 -179.63651 0.85716635 0.36781442 -0.36052519 0.067362711
2428.3494 -1872.7286 -194.20013 0.93866128 0.07604757 -0.33635074 0.098827854
2461.1406 -1963.9092 -194.40918 0.8783288 0.44760445 -0.16789511 0.12195175
2429.6292 -1862.9493 -188.38174 0.97318012 0.030258399 -0.22804579 0.10144704
2430.4893 -1833.7596 -223.41818 0.92432219 -0.3623215 0.11979849 0.15282059
2454.7158 -1949.5931 -188.40506 0.88170838 0.33383003 -0.33338836 0.061952233
2426.2754 -1880.1908 -200.74161 0.93967563 0.14412862 -0.31022033 0.079912327
2445.4844 -1911.6099 -161.70445 0.9129042 0.36731267 -0.17800939 0.041788924
2433.6616 -1824.0719 -218.87395 0.8699404 -0.49224669 0.029947704 0.11934388
2454.0959 -1936.4037 -174.65123 0.86119676 0.38462391 -0.3322719 0.037019212
2427.9514 -1843.1831 -228.18039 0.94807732 -0.29774836 0.11178244 0.15656844
2432.0242 -1841.7209 -176.76999 0.9836632 -0.13890035 -0.11451396 0.1249755
2430.8188 -1848.9121 -183.18599 0.96849799 -0.15180716 -0.1973986 0.081660897
2425.864 -1886.9683 -206.37392 0.92932844 0.24009621 -0.28053951 0.081523523
2437.7812 -1813.3971 -213.87209 0.88208407 -0.44840264 0.14443955 0.14102401
2452.5437 -1944.3921 -195.11824 0.92809141 0.36550301 -0.071091011 0.074132428
2437.5308 -1901.2454 -182.6944 0.92679018 0.27638453 -0.25430608 0.059964765
2427.8081 -1837.4078 -214.1133 0.91012061 -0.3521328 -0.21836437 0.094125398
2432.9114 -1826.5757 -208.35388 0.92431468 -0.37235618 -0.083625905 0.097768337
2433.1934 -1870.1499 -170.68069 0.98146766 0.081451386 -0.17345567 0.089317709
2423.2266 -1866.634 -222.74559 0.99156547 -0.12028526 0.04826393 0.12065595
2443.2085 -1921.4993 -188.34554 0.89321846 0.37006387 -0.25536931 0.028952764
2424.8347 -1852.8462 -217.54816 0.97894162 -0.1713316 -0.11099028 0.11904343
2433.8279 -1882.3721 -176.60446 0.95564234 0.21219015 -0.20426221 0.094940722
2435.2192 -1812.7462 -203.12125 0.94080961 -0.30583581 0.14608832 0.13770148
2442.3352 -1801.0836 -220.69475 0.91814786 -0.31575775 0.23937747 0.092213586
2433.8508 -1834.2091 -235.31537 0.81098562 -0.46522334 0.35478094 0.15416823
2452.0168 -1926.0531 -161.96848 0.87941241 0.42623737 -0.21202715 0.035642933
2432.5635 -1911.8376 -205.54236 0.87918395 0.28677073 -0.38052344 0.058062762
2464.7961 -1951.6885 -168.49199 0.80713862 0.31580281 -0.49879444 0.069271922
2432.2832 -1900.3167 -198.81972 0.90592372 0.27112779 -0.32525679 0.084757961
2429.2202 -1882.9371 -193.86548 0.92483246 0.18829472 -0.33049956 0.087103508
2465.4365 -1961.4993 -174.76283 0.84409088 0.29426515 -0.44823939 0.079042591
2463.8547 -1965.225 -182.35919 0.84910005 0.40244895 -0.3421461 0.097982593
2436.1218 -1817.5883 -213.06624 0.90331107 -0.42354187 0.068127766 0.12554763
2432.8904 -1847.6898 -177.07739 0.94995767 -0.16843791 -0.26307619 0.083832398
2430.9038 -1859.298 -182.48694 0.9553588 -0.058055647 -0.28968787 0.067860261
2430.239 -1871.5165 -187.49361 0.93775821 0.10696169 -0.33040696 0.094490536
2431.6736 -1828.4606 -217.06091 0.92914009 -0.36940676 -0.015404744 0.13909666
2428.064 -1838.6193 -221.96785 0.93761313 -0.34765419 0.0042665084 0.14507923
2425.1074 -1848.0468 -226.41983 0.973786 -0.21884419 0.062032368 0.13989753
2429.9609 -1852.0123 -183.44682 0.99074709 0.003027254 -0.13568707 0.088398278
2442.1726 -1915.9331 -184.0455 0.90532309 0.35126811 -0.23874843 0.03781971
2462.5205 -1962.7581 -185.17688 0.86665004 0.40274847 -0.29446802 0.1086292
2431.6914 -1875.4885 -184.24785 0.93927795 0.1301437 -0.31752086 0.087128684
