# .PCD v0.7 - Point Cloud Data file format
VERSION 0.7
FIELDS x y z normal_x normal_y normal_z curvature
SIZE 4 4 4 4 4 4 4
TYPE F F F F F F F
COUNT 1 1 1 1 1 1 1
WIDTH 567
HEIGHT 1
VIEWPOINT 0 0 0 1 0 0 0
POINTS 567
DATA ascii
2653.7744 -663.47034 -366.10162 0.98016882 0.17087425 0.100355 0.093365096
2663.9219 -562.04449 -323.86914 0.96665734 -0.23400199 0.10400337 0.1109044
2651.0869 -617.24554 -364.80981 0.98910469 -0.11638838 0.090142705 0.099783719
2650.6533 -633.91473 -365.80191 0.99159712 0.051150292 0.11882258 0.086892836
2683.8303 -521.27533 -324.16977 0.79607278 -0.58374488 -0.15971883 0.1189435
2673.8779 -535.44946 -323.08572 0.83234203 -0.53846318 -0.13139297 0.090904444
2661.4062 -577.84161 -322.94131 0.96181476 -0.25665653 -0.095077626 0.09678603
2654.3369 -602.39771 -366.03992 0.9400031 -0.3404192 0.022558641 0.14322154
2665.9382 -549.875 -320.4584 0.92106313 -0.38823324 -0.030292936 0.081509672
2680.4087 -593.55676 -359.78244 -0.27016929 -0.058048885 0.9610613 0.13412842
2658.2053 -679.22333 -366.75113 0.95826578 0.26072124 0.11726538 0.1249833
2651.0264 -646.69055 -363.63028 0.98260462 0.1283319 0.13423538 0.096024714
2652.2312 -640.23981 -378.20908 0.99346191 0.086053461 0.075021707 0.089868307
2663.0859 -566.74933 -360.50092 -0.053169489 -0.27622995 0.9596197 0.19903344
2654.1284 -591.60565 -377.37613 0.94821286 -0.26984018 -0.16756688 0.11316336
2668.4309 -550.2121 -329.94098 0.89050728 -0.43831417 0.12197324 0.088334776
2673.3542 -536.66376 -330.1564 0.89506447 -0.443979 -0.041740462 0.10637264
2651.1865 -623.00958 -376.8952 0.99608845 -0.0080479635 0.087994441 0.11241294
2682.4968 -520.58038 -331.93872 0.86965561 -0.49319974 -0.021286463 0.14690222
2651.9536 -607.78259 -376.98505 0.99437648 -0.10565266 -0.0072728512 0.12723905
2656.1003 -576.40826 -375.82443 0.91058969 -0.18582435 -0.36918253 0.16302265
2654.4548 -655.38434 -377.6586 0.979864 0.17461707 0.096826583 0.093930595
2662.0254 -675.51459 -381.1127 0.87973517 0.46445295 0.10173223 0.12393739
2676.3911 -532.71973 -344.71497 0.88937366 -0.45102742 0.07475803 0.12788364
2668.249 -548.42261 -342.84677 0.93782318 -0.31341556 0.14919253 0.087435216
2655.0759 -595.34198 -344.0018 0.94984031 -0.31273505 -0.00042078429 0.073804855
2664.5273 -563.82458 -343.19031 0.94054645 -0.31046757 0.13777609 0.087366402
2658.7705 -578.83618 -342.93088 0.97215956 -0.23425029 0.0057080504 0.058073904
2655.2908 -657.29187 -391.05316 0.98526567 0.16826211 0.030650429 0.11179367
2662.0122 -674.00812 -391.74136 0.89105266 0.43921307 0.11452967 0.13061744
2651.0156 -610.10706 -344.08795 0.97635365 -0.21550043 -0.017122138 0.081907108
2668.0891 -564.72601 -360.76019 0.86524969 -0.38735899 0.31827036 0.14291154
2658.6956 -676.02374 -368.1615 0.93573606 0.32468548 0.13775846 0.12257427
2653.3613 -656.53534 -366.61111 0.98413759 0.13604447 0.11386459 0.09273655
2649.7119 -635.40472 -364.26157 0.9864918 0.10280799 0.12753212 0.084503368
2653.217 -599.28906 -363.35095 0.9521817 -0.30200338 -0.04630274 0.094754636
2648.5034 -616.5849 -363.19431 0.98206872 -0.18799303 -0.014130195 0.098651662
2659.8701 -581.16339 -363.06381 0.9575426 -0.28785938 -0.015785517 0.12088299
2685.457 -517.30347 -327.09824 0.82003653 -0.54449463 -0.17625459 0.14143285
2651.0012 -599.83215 -384.56769 0.94058567 -0.33293432 -0.066733167 0.11211278
2650.9236 -616.43573 -383.89673 0.99128062 -0.048400674 0.12255657 0.10874796
2651.3328 -591.08087 -389.04678 0.96274197 -0.23408169 -0.13540183 0.11638528
2675.7249 -534.336 -340.93182 0.90400267 -0.418989 0.085014164 0.11972855
2679.5969 -518.23083 -340.75815 0.97306132 -0.21993022 -0.069154568 0.19825958
2667.6135 -550.47595 -339.11765 0.92929327 -0.34790999 0.12398642 0.085674614
2664.1582 -566.39294 -341.80121 0.93472427 -0.31710812 0.16041493 0.10174894
2651.082 -644.677 -393.38864 0.97395158 0.16828914 -0.15197742 0.11208451
2657.3269 -659.83722 -393.66385 0.94891667 0.20713721 0.23801547 0.10295098
2649.0811 -626.29126 -391.78967 0.9829185 0.14920928 -0.10773966 0.096973777
2666.967 -677.60352 -396.224 0.79169387 0.54137415 0.28308102 0.14447641
2649.6479 -607.5517 -390.20926 0.99203712 -0.11776099 -0.044662416 0.13308078
2674.9009 -539.95111 -345.53427 0.87358093 -0.43708712 0.21403556 0.11200536
2661.209 -573.84924 -344.80887 0.96512008 -0.25541887 0.057484329 0.073778912
2666.5178 -557.63904 -344.00739 0.92061687 -0.33399174 0.20227249 0.087820835
2679.4412 -523.3111 -345.26767 0.88581878 -0.46095026 -0.053384833 0.1626557
2671.4917 -682.58514 -394.91272 0.65740693 0.64294124 0.39299199 0.15480693
2651.3374 -609.35858 -345.02216 0.9690904 -0.24667315 -0.0040205712 0.084079079
2656.1277 -591.64142 -344.93481 0.95703441 -0.28848898 0.029313019 0.067021281
2657.3237 -665.45258 -395.06131 0.96483558 0.26047531 0.035283972 0.12952991
2652.178 -648.41724 -392.36835 0.94946301 0.260158 -0.17560686 0.097608134
2653.3806 -648.40765 -388.65195 0.99008924 0.056496944 0.12857465 0.097086549
2649.2598 -593.21045 -386.01755 0.91214341 -0.21088263 -0.35145831 0.12522034
2657.7954 -667.2674 -389.9194 0.93149942 0.28940272 0.22035165 0.096304446
2648.2915 -612.01129 -389.06085 0.97819096 -0.037877012 -0.20422481 0.12632509
2654.8293 -648.9325 -392.88638 0.9532944 0.0065483358 0.30197164 0.10650558
2672.2214 -543.89404 -346.15021 0.89736271 -0.40262422 0.18064846 0.10282751
2659.8257 -579.01208 -346.86755 0.96620321 -0.25560224 0.033448547 0.064229138
2666.0728 -562.09839 -345.8125 0.90316814 -0.37361136 0.21142808 0.10151283
2661.614 -669.16052 -396.43948 0.87191719 0.28568804 0.39767173 0.09901543
2679.7227 -525.96173 -345.73233 0.88289315 -0.46526286 0.063483797 0.15821262
2656.3054 -587.09393 -378.0528 0.94298649 -0.29014599 -0.16306999 0.15758653
2662.2483 -569.8797 -377.16467 0.94102675 -0.33704123 -0.029528426 0.10244004
2652.0474 -624.96973 -380.0932 0.99474949 -0.031641718 0.09732569 0.11135085
2652.0613 -605.46912 -377.98352 0.97503698 -0.22190568 0.0077973246 0.13853219
2672.0359 -695.23309 -384.0921 0.92068613 0.24879867 -0.30072621 0.21986166
2660.0852 -670.03528 -384.39154 0.94373804 0.3247391 0.062474608 0.15076238
2653.0742 -646.42554 -382.32336 0.99085915 0.10740705 0.081620052 0.097656839
2679.1157 -535.3941 -353.04327 0.85582 -0.40051705 0.32735029 0.16349146
2649.9216 -629.97681 -355.14978 0.99026608 -0.021323532 0.13754418 0.090846635
2665.8706 -566.12109 -354.45264 0.9171322 -0.35817254 0.17487401 0.11187419
2660.3213 -581.36475 -353.84793 0.95807624 -0.26444679 0.11026227 0.10272142
2652.0796 -662.32196 -355.51541 0.97976589 0.16283324 0.11637946 0.083570898
2649.926 -645.9007 -354.81961 0.97615904 0.10470156 0.19013458 0.076230749
2663.5322 -688.60925 -361.78595 0.86121345 0.34742516 0.37095439 0.17112137
2651.2065 -612.86029 -355.06403 0.98175567 -0.17284849 0.079241529 0.094234042
2654.7803 -596.94336 -353.88455 0.94624358 -0.32106 0.039287888 0.087622933
2672.0381 -550.51233 -353.8815 0.90647703 -0.33949324 0.25108507 0.12225318
2651.6582 -626.97382 -374.76114 0.98966205 0.015629245 0.14256492 0.10002004
2666.7458 -554.97559 -330.70508 0.90422058 -0.39322826 0.16660319 0.10648036
2651.4333 -611.64001 -373.79758 0.99245381 -0.11691118 0.036976427 0.10259048
2662.0935 -676.95215 -377.9859 0.882191 0.45165545 0.13321555 0.11676223
2678.2805 -527.89587 -329.00635 0.87038779 -0.49236462 0.0014872104 0.12047469
2652.2595 -597.69086 -374.6087 0.96117282 -0.25963423 -0.093471535 0.097666636
2655.7778 -660.65924 -377.28445 0.97606087 0.19969971 0.086169399 0.10251173
2671.0339 -543.32837 -328.28491 0.91267741 -0.39959228 -0.085708722 0.11148905
2652.5325 -644.27594 -376.24115 0.98915094 0.11061121 0.096672371 0.086223938
2675.5237 -695.66736 -380.90549 0.83447528 0.53006464 0.15060712 0.21969543
2679.304 -529.95996 -353.68808 0.9159441 -0.38166329 0.12401436 0.19436289
2651.332 -613.90332 -357.04742 0.98724663 -0.14294036 0.070086479 0.094113603
2660.8633 -580.23932 -354.88947 0.95640785 -0.26512527 0.12244426 0.11058825
2654.7876 -596.93365 -354.90088 0.94768757 -0.31741595 0.033694755 0.089962788
2666.7803 -564.03754 -353.28546 0.91085404 -0.33991614 0.23409814 0.11804051
2672.9944 -547.08881 -353.12955 0.9065702 -0.32965943 0.26354334 0.13304019
2674.6528 -534.34393 -325.01328 0.88460886 -0.46598613 -0.018001854 0.11804287
2655.9097 -666.6698 -369.41876 0.95896012 0.25981927 0.11353164 0.10483973
2656.6987 -588.78058 -367.09357 0.95437819 -0.29818898 -0.015670527 0.098593488
2652.0952 -603.98981 -367.10278 0.97172362 -0.23485856 -0.024385583 0.097924329
2667.1794 -687.89221 -371.93588 0.81962484 0.49238804 0.29286373 0.15773818
2661.0793 -574.58936 -366.93127 0.95225835 -0.30518577 0.0081019485 0.097386673
2650.5913 -618.3064 -366.60645 0.99415123 -0.066345505 0.085215099 0.093757428
2669.8955 -561.31134 -362.55103 0.84759229 -0.36928421 0.38107276 0.14677833
2652.6841 -651.6579 -368.71368 0.98646986 0.12572154 0.10522032 0.079328597
2650.5103 -633.5871 -367.28903 0.98905116 0.074109524 0.12761512 0.08800777
2651.5371 -634.95215 -380.96976 0.99449444 0.088566646 0.056006458 0.088848785
2660.2788 -674.5752 -383.48407 0.9077484 0.39445072 0.14283368 0.10597496
2653.6934 -653.19397 -380.22498 0.98633099 0.11877637 0.11420757 0.077485867
2677.3638 -529.73926 -317.48767 0.84379089 -0.52460498 0.11316618 0.088782459
2677.0103 -530.60748 -321.36438 0.83593541 -0.54354596 -0.075959124 0.094403446
2674.9878 -576.83124 -359.91995 -0.0010738514 -0.24756867 0.96886975 0.182025
2670.5496 -541.92102 -351.88235 0.15157643 -0.41145134 0.89873934 0.1447871
2670.1423 -545.073 -321.99551 0.88961548 -0.4558526 0.027976885 0.1006963
2661.6675 -680.88129 -374.84412 0.89484221 0.41855922 0.15513098 0.10887349
2650.5212 -607.27606 -368.95258 0.96186179 -0.27350724 0.0039595193 0.099612221
2653.4761 -659.12524 -371.95401 0.97964209 0.17531161 0.097812138 0.081979051
2656.2563 -589.25238 -369.29184 0.95434517 -0.29622957 -0.038383603 0.098242901
2650.9333 -641.10809 -371.05341 0.98956776 0.098795794 0.10485753 0.083121657
2650.0752 -623.31122 -369.48315 0.99722075 -0.038434312 0.06382481 0.095061511
2678.2046 -538.43829 -349.44186 0.8250035 0.28616464 -0.48731822 0.17018105
2655.9421 -677.77209 -355.08792 0.93228215 0.29038852 0.21569526 0.10712422
2649.9626 -633.02216 -355.29239 0.98980236 0.010774965 0.14203931 0.090340942
2650.979 -649.55536 -356.86124 0.96902519 0.13383876 0.20755082 0.071049973
2668.0137 -560.23584 -353.30649 0.90494633 -0.37109298 0.20823586 0.10837245
2662.77 -574.28107 -353.87997 0.92945355 -0.33930081 0.1448829 0.098066039
2656.7832 -589.12445 -352.93152 0.95424563 -0.2988686 0.0096349735 0.069251552
2653.3962 -602.12872 -353.98618 0.95051605 -0.3088972 0.033193018 0.086063571
2653.2131 -663.94861 -355.95761 0.95446968 0.23020145 0.18972342 0.10378891
2650.5623 -617.18372 -353.87381 0.98997867 -0.11640158 0.079955459 0.084476717
2663.0298 -694.43323 -356.95566 0.84933615 0.43922174 0.29276684 0.14974588
2667.2488 -556.23071 -327.71909 0.85720998 -0.39337051 0.33234116 0.13718072
2665.2126 -599.25702 -371.22992 0.78329569 -0.45962277 0.41856277 0.21457021
2670.3176 -544.64795 -319.97958 0.89729214 -0.44121793 0.013911452 0.11590609
2651.6133 -647.81592 -363.79742 0.98591197 0.1124963 0.1237827 0.090170257
2677.8613 -529.30127 -320.94345 0.85158354 -0.52251083 -0.042284284 0.082501985
2665.6494 -686.87366 -369.67065 0.86615205 0.37302804 0.33261198 0.15634471
2654.3323 -617.26935 -368.23996 0.94551802 -0.15339246 0.28716972 0.11729471
2656.5564 -667.22101 -366.70551 0.95315194 0.26191279 0.15133762 0.1295854
2673.7949 -536.58496 -323.11826 0.86927211 -0.49296376 -0.036779284 0.10553581
2658.3735 -584.08679 -324.2778 0.97889853 -0.19798183 -0.050605498 0.056633029
2667.3179 -551.99347 -323.11249 0.93618941 -0.35093766 -0.019801702 0.094851442
2655.1523 -600.01129 -325.48868 0.96531028 -0.23509683 -0.11360238 0.070667826
2662.7021 -567.3609 -323.513 0.9826349 -0.17362386 -0.065448098 0.07847672
2677.26 -593.5965 -370.16 0.52945596 -0.27119136 0.80382317 0.173692
2653.7925 -608.00586 -364.6543 0.9473204 -0.30432475 0.099852495 0.15219438
2653.0474 -649.82446 -367.8479 0.97265249 0.16191936 0.16652098 0.09071321
2667.5427 -681.76733 -373.78769 0.83366847 0.51980114 0.18655738 0.17106652
2684.0466 -543.65344 -351.59796 -0.63725245 -0.2707316 0.72153568 0.16991912
2660.0459 -581.29547 -351.92285 0.95992291 -0.27117109 0.070811622 0.096836723
2656.9971 -677.3363 -357.43823 0.91685969 0.30471361 0.25791067 0.11055571
2649.1184 -635.68884 -353.38977 0.9864493 0.074523591 0.14616448 0.079268016
2652.2188 -658.28644 -357.39069 0.96494997 0.1551692 0.21164602 0.086607322
2654.6094 -599.22662 -352.95456 0.93500078 -0.34772417 0.069724284 0.097008936
2650.134 -616.71936 -352.64706 0.99157548 -0.11628962 0.057051126 0.08527109
2665.7166 -563.62408 -349.13736 0.90183908 -0.35233286 0.25009573 0.10704291
2673.8975 -528.81335 -350.23611 0.9082076 -0.40936783 -0.087045535 0.12265124
2680.3613 -558.6947 -362.87009 0.64178437 -0.31747821 0.69808334 0.15919742
2675.77 -530.65112 -310.87222 0.75753212 -0.64058095 0.12570277 0.086076118
2664.4375 -574.58124 -357.51547 0.88488287 -0.35779154 0.29827425 0.14031492
2657.5698 -590.84442 -356.86017 0.94875395 -0.31176955 0.05163024 0.10601696
2651.9124 -606.77856 -356.89697 0.96551323 -0.25810421 0.034152642 0.092693448
2648.9602 -622.02307 -355.06421 0.99209315 -0.09260574 0.084707625 0.091823258
2656.1895 -675.29401 -358.71024 0.94516832 0.26051357 0.19695064 0.10251889
2651.6965 -657.10443 -358.18707 0.97819293 0.15379007 0.13959654 0.078382477
2649.2285 -639.42609 -357.16016 0.98159546 0.10774764 0.15767317 0.073055647
2664.3225 -568.12811 -350.8696 0.91098863 -0.36423683 0.19347148 0.10671572
2675.365 -550.78326 -357.24557 0.87537569 -0.38310343 0.29487145 0.16807552
2659.9114 -582.97595 -352.00937 0.96000403 -0.26084003 0.10175814 0.096398704
2654.0234 -599.67181 -351.92145 0.94841927 -0.31487358 0.036817268 0.084076785
2662.114 -695.57526 -352.36057 0.84419078 0.46035883 0.27461189 0.15060827
2650.6726 -615.2384 -351.94931 0.98955142 -0.14102902 0.029979292 0.082229055
2649.2754 -631.01221 -351.64426 0.99414593 -0.0037130215 0.10798185 0.084847882
2656.4614 -681.27802 -352.89655 0.93648785 0.29527548 0.18921658 0.11162303
2650.1638 -649.38171 -353.56808 0.97209466 0.13083175 0.19471796 0.072528541
2653.7068 -667.55621 -354.51013 0.94988489 0.23037267 0.21129861 0.094590805
2656.3132 -670.63568 -362.83667 0.95675617 0.26544207 0.11898772 0.11331549
2665.0645 -575.23254 -359.6665 0.88533676 -0.35104874 0.30486652 0.13271238
2650.4543 -630.99829 -360.11111 0.97987741 -0.0030717338 0.19957665 0.086562552
2651.0969 -649.73718 -360.66827 0.98023278 0.1228645 0.15507442 0.079685554
2680.3613 -558.6947 -362.87009 0.64178437 -0.31747821 0.69808334 0.15919742
2657.2571 -592.86053 -357.79706 0.93111241 -0.35499498 0.083715223 0.1147652
2650.7998 -611.0542 -357.81583 0.98339891 -0.17874926 0.03123031 0.094390363
2666.4587 -553.91516 -323.17462 0.94317704 -0.33091795 -0.030173017 0.10231443
2656.6082 -590.01794 -325.13132 0.97548383 -0.2181298 0.029166041 0.068645686
2662.4204 -572.69373 -324.39713 0.97376168 -0.19750042 -0.11305674 0.10121317
2673.4209 -537.41797 -323.40842 0.87448031 -0.47828609 -0.080787674 0.10888478
2653.2983 -646.7005 -375.66141 0.98577487 0.15664034 0.060923327 0.10668081
2657.5925 -666.67242 -376.53607 0.95109683 0.29415083 0.094287045 0.12304196
2672.5105 -693.19916 -379.30017 0.96041262 0.2460112 -0.13071388 0.21603982
2686.366 -520.1004 -310.85724 0.74707234 -0.6632123 0.045081504 0.13032705
2662.9697 -693.42993 -358.28693 0.84933615 0.43922174 0.29276684 0.14974588
2658.865 -583.44098 -354.85001 0.95840526 -0.28387707 0.029548641 0.081999972
2672.6936 -533.76898 -310.06546 0.78707361 -0.59348643 0.16819309 0.082507104
2648.6038 -634.54846 -353.78854 0.98136985 0.067103729 0.18002874 0.073853314
2650.7031 -654.37695 -355.146 0.97565717 0.12925695 0.17716034 0.070332155
2664.0005 -566.90961 -352.53799 0.92622042 -0.33684802 0.16926052 0.094720922
2653.0901 -601.67365 -354.86191 0.94965404 -0.31223932 0.02576351 0.095683709
2675.6467 -532.78375 -353.24921 0.92851502 -0.36419421 0.072266594 0.15666203
2649.8228 -617.34882 -353.39749 0.98887956 -0.13578655 0.060657077 0.091093093
2656.0562 -674.23853 -357.23224 0.94272935 0.23489411 0.23682509 0.10610663
2660.5642 -677.48395 -366.25925 0.88658875 0.3421883 0.31123558 0.14874867
2659.3972 -585.43878 -355.8226 0.94714421 -0.29741639 0.12025522 0.11594427
2669.8496 -553.64178 -353.86511 0.92474681 -0.31306827 0.21640614 0.12095639
2652.4856 -654.43542 -361.55267 0.96300519 0.1667715 0.2116797 0.090917356
2663.5989 -570.50903 -353.74698 0.92033225 -0.34992746 0.17475514 0.10921078
2694.1135 -541.16644 -356.71014 0.32176939 -0.47141218 0.82111818 0.18505459
2650.896 -618.61792 -358.22879 0.98986375 -0.12184973 0.072954826 0.091579415
2654.0466 -601.62604 -357.03372 0.93045902 -0.36491501 0.032909982 0.112512
2650.8235 -637.15918 -361.09363 0.97796118 0.030072182 0.20660974 0.094671629
2672.3381 -539.17981 -329.17581 0.8929581 -0.44868255 -0.036190998 0.10125655
2681.4709 -523.02173 -330.18622 0.81689072 -0.56744468 -0.10342187 0.12064847
2664.0176 -555.23566 -327.49448 0.95049781 -0.30700681 0.047965974 0.058775108
2653.8508 -604.62933 -331.06741 0.94690347 -0.25274575 -0.19872953 0.068252675
2649.4111 -622.09265 -330.91586 0.9869678 -0.16023028 -0.014859303 0.0809009
2656.97 -587.80792 -330.03079 0.96488714 -0.26247424 -0.010006115 0.05942288
2661.7854 -570.50012 -329.24051 0.97583753 -0.21574263 -0.034587234 0.080960035
2650.6882 -610.422 -352.77103 0.96940589 -0.24234144 0.039022956 0.083992973
2666.2161 -564.15735 -351.62283 0.89775151 -0.3712965 0.2370255 0.11242041
2655.6687 -677.03473 -355.22754 0.94764334 0.2493245 0.19952282 0.10262466
2665.5059 -699.24133 -358.19189 0.84840226 0.41432247 0.32947001 0.14411572
2679.0549 -547.60992 -358.87262 0.79782581 -0.38559771 0.4634527 0.14845382
2655.1272 -594.75647 -352.88193 0.94580036 -0.32401752 0.02177855 0.077615462
2648.8572 -641.37701 -352.9841 0.97992307 0.10422558 0.16996408 0.074440241
2659.9612 -578.73755 -352.78082 0.95945358 -0.27965051 0.035275649 0.073954746
2672.8931 -531.62878 -352.18256 0.95636564 -0.29180348 -0.014679862 0.12290448
2649.7793 -626.15997 -353.6073 0.99376428 -0.042065684 0.10326204 0.088511094
2651.6616 -660.55609 -354.57938 0.97460645 0.16253683 0.15402615 0.079693958
2678.959 -527.26373 -324.29065 0.83387405 -0.53791291 -0.12370829 0.10419929
2664.2183 -557.21503 -321.83228 0.95576721 -0.29328471 0.022206834 0.087464377
2656.864 -588.56482 -324.3064 0.97256935 -0.22748668 0.048566606 0.081898354
2661.8228 -572.90405 -323.33173 0.98064065 -0.18383256 -0.067450337 0.091782488
2655.4712 -605.5976 -323.53769 0.95094782 -0.2299715 -0.20690903 0.083708763
2670.7021 -542.63062 -322.73807 0.87168592 -0.48765367 0.048554175 0.091402248
2669.6873 -547.07306 -341.64328 0.92172235 -0.36804426 0.12235748 0.09357024
2677.5322 -529.87219 -341.96548 0.86888558 -0.49462581 0.019573726 0.1277433
2671.2017 -513.46558 -338.43826 0.88612992 0.32137394 -0.33390498 0.17970188
2654.2778 -599.388 -344.03925 0.95645368 -0.29040256 -0.029372538 0.07999865
2649.7664 -616.38055 -344.33536 0.98367709 -0.17485774 -0.042475574 0.07849811
2659.6882 -581.35559 -344.12097 0.96205038 -0.2681886 0.050338075 0.081970178
2665.2915 -564.51422 -342.79419 0.91905189 -0.36591837 0.14644922 0.11061778
2679.9856 -524.60571 -328.72992 0.82733589 -0.54088742 -0.15151273 0.10115989
2664.1643 -684.29498 -375.14484 0.78796679 0.55061209 0.27556235 0.13710633
2656.968 -589.01605 -329.2016 0.97053546 -0.23972408 0.024358135 0.071384624
2661.313 -572.23755 -327.44031 0.9842484 -0.16656239 -0.059262984 0.077364184
2655.1213 -597.7027 -373.70883 0.91210955 -0.38172328 -0.14947735 0.16347198
2652.1155 -649.08344 -372.76404 0.9905535 0.081681535 0.11014472 0.08966019
2655.042 -666.03876 -374.55182 0.95821249 0.25697351 0.12567183 0.088692911
2665.5291 -555.78656 -327.08984 0.95144224 -0.30743876 -0.015462681 0.091584988
2671.5029 -540.77112 -327.46115 0.89065379 -0.44851413 -0.074638292 0.10225289
2651.9746 -636.31531 -376.32574 0.99595559 0.062490396 0.064555958 0.08919099
2664.6228 -677.16486 -389.53662 0.85864496 0.50535786 0.085686788 0.15902184
2649.7236 -611.88409 -383.04852 0.97578925 -0.026442984 -0.21710861 0.13852821
2654.51 -652.56927 -386.15198 0.98604745 0.160831 0.042939749 0.090661526
2651.0735 -631.06903 -383.98898 0.99716699 0.074280731 -0.011849804 0.10218018
2679.5994 -695.42493 -390.83841 0.70835567 0.67953938 0.19094104 0.18625
2665.7776 -570.63867 -347.92505 0.9062916 -0.38666195 0.17066933 0.14354251
2675.6604 -509.29114 -342.48865 0.92382473 -0.073474184 -0.3756986 0.17751841
2672.6997 -553.89008 -348.87021 0.85848671 -0.46417129 0.21804953 0.1591159
2650.002 -647.82648 -350.31943 0.97613543 0.1152778 0.18403974 0.087324239
2656.0078 -590.94147 -344.88821 0.95139951 -0.30745015 0.017701734 0.061988581
2651.4319 -607.96545 -345.00424 0.96676457 -0.25566775 -0.00055011205 0.080998823
2667.3252 -556.61267 -345.07968 0.91890019 -0.34262425 0.19552773 0.087983727
2661.3213 -572.59387 -344.66022 0.96833861 -0.24415386 0.05204992 0.067441389
2677.1553 -523.64124 -346.81891 0.88308579 -0.44657204 -0.14398919 0.13899061
2652.7759 -667.10498 -351.28909 0.92785096 0.2427194 0.2831606 0.10496604
2674.7595 -538.70294 -345.25394 0.89637995 -0.40603006 0.17788349 0.11717548
2654.9546 -598.17749 -328.84937 0.96431291 -0.26043424 -0.047693107 0.070601061
2649.6733 -628.24451 -329.92917 0.99731112 -0.072963856 -0.0068399445 0.077378191
2652.5 -612.60571 -329.47327 0.95583367 -0.23159397 -0.18095921 0.069916271
2660.9868 -575.26263 -343.93954 0.96467417 -0.25673208 0.05909621 0.073928915
2656.2817 -591.40643 -344.95041 0.95257157 -0.30207497 0.036852021 0.070005454
2654.801 -676.10291 -350.3316 0.9286713 0.29742071 0.22160886 0.09726581
2652.0625 -607.86737 -345.0509 0.96203071 -0.27247217 -0.015993334 0.083396636
2649.6055 -640.95898 -347.94885 0.99419266 0.067322358 0.083956324 0.080035515
2649.5237 -624.15564 -345.87274 0.99140793 -0.10126475 0.082799427 0.087469429
2679.7002 -527.01782 -344.40851 0.90478432 -0.41710389 0.0859631 0.15945478
2672.5579 -543.24725 -342.91599 0.90570241 -0.40137309 0.13639204 0.1077895
2665.9971 -559.43182 -342.30316 0.92898709 -0.33279413 0.16196001 0.085522048
2649.4424 -655.64655 -346.64233 0.96839088 0.17610438 0.17665321 0.07398349
2650.7017 -611.81653 -347.02866 0.97649843 -0.21539186 -0.007560764 0.085857488
2655.7732 -594.91821 -348.01245 0.93946153 -0.33875424 0.05155186 0.085013554
2648.4744 -629.15509 -346.79791 0.99891895 -0.028300643 0.036878511 0.088516451
2661.0537 -577.0163 -346.99619 0.95451301 -0.29030478 0.068030149 0.081774898
2652.051 -667.2514 -349.23773 0.96694028 0.17867425 0.18193957 0.082196519
2676.9287 -541.56683 -350.74265 0.90257394 -0.38390931 0.19486894 0.15238892
2649.3652 -648.68842 -348.60751 0.97828388 0.12887301 0.16233426 0.078552812
2667.8494 -559.93964 -348.03473 0.90779996 -0.36352751 0.20915774 0.10912664
2657.6052 -686.14227 -349.83493 0.93127054 0.3086524 0.19356878 0.12598161
2681.137 -525.22064 -324.75104 0.81733537 -0.56917775 0.089440569 0.086707026
2670.8875 -543.46503 -321.96054 0.8850888 -0.46375671 0.039338153 0.11296105
2671.0337 -555.34149 -331.89526 0.8396399 -0.35016224 0.41520029 0.17861268
2651.6006 -645.92322 -365.92041 0.98347068 0.1257076 0.13031872 0.082459494
2652.0022 -631.98212 -368.23849 0.98821896 -0.0022121477 0.15303071 0.091485135
2656.2903 -665.01373 -368.41537 0.95905107 0.26208651 0.1073859 0.12020789
2659.2874 -677.28113 -367.30124 0.91774172 0.36793685 0.14957473 0.12175716
2669.1233 -700.13934 -374.92929 0.82520217 -0.1208523 0.55175728 0.19720936
2655.8923 -597.77057 -366.20139 0.91589975 -0.39977962 0.036109846 0.13664018
2652.2837 -613.61957 -366.95032 0.9772166 -0.17482288 0.12035247 0.12323184
2670.8496 -559.74902 -360.06689 0.827999 -0.37620363 0.41579857 0.14048773
2666.9263 -575.92963 -361.68817 0.76771975 -0.37049249 0.52282089 0.14159769
2675.5923 -533.29889 -318.40347 0.88973355 -0.44415829 0.10534519 0.13903102
2655.1011 -660.88531 -368.53418 0.96658552 0.21948549 0.13243301 0.10571438
2651.5654 -642.26221 -366.29431 0.98714507 0.10631928 0.11933482 0.085871294
2657.9417 -590.6933 -361.879 0.94015175 -0.33568284 0.058581207 0.12839223
2653.0237 -606.13531 -364.06073 0.96011174 -0.27892926 0.019594617 0.12461523
2662.0781 -679.93243 -370.37997 0.88579774 0.42975751 0.17513086 0.12579395
2668.7981 -694.70532 -370.18872 0.79243702 0.47877425 0.37791365 0.16213363
2650.8342 -623.02203 -363.88632 0.99050444 -0.026183765 0.13496412 0.091849521
2676.1472 -689.35175 -390.99872 -0.59670711 -0.65480351 -0.46386746 0.14852527
2659.0376 -669.27338 -390.96848 0.92871165 0.31832173 0.19017334 0.10477673
2654.4104 -651.72833 -389.92285 0.98053885 0.18885793 0.053630915 0.097360484
2671.3474 -554.80328 -332.76071 0.87594819 -0.32595572 0.35562286 0.17571409
2671.0305 -543.01617 -322.99716 0.87976444 -0.46821296 0.082408711 0.11311328
2677.283 -529.58398 -324.00516 0.86495107 -0.50181764 0.0062225489 0.11274493
2670.0825 -543.28552 -322.86911 0.88340455 -0.46839276 0.014304778 0.093180642
2668.9026 -553.13403 -332.03711 0.85595936 -0.41688621 0.30584219 0.12459273
2679.5325 -526.33685 -324.02753 0.84431338 -0.53406894 -0.043649543 0.10936438
2652.1982 -632.30328 -377.35742 0.99858493 0.034408182 0.040549707 0.096581243
2658.9456 -676.33893 -377.19977 0.92518568 0.34056878 0.16746458 0.089423046
2656.0583 -663.23358 -377.6629 0.96450913 0.24170159 0.10631292 0.10044125
2671.2495 -692.44165 -378.64679 -0.6592412 -0.6873278 -0.30492875 0.11868222
2651.8586 -644.25586 -375.38742 0.9902699 0.10743911 0.088444442 0.085459426
2655.2437 -597.42096 -373.58386 0.91709155 -0.38551426 -0.10159659 0.154843
2659.9487 -586.85486 -355.15692 0.94513589 -0.28752565 0.15507156 0.12256382
2650.5122 -623.80115 -354.29419 0.99485713 -0.056725044 0.083913818 0.086953327
2681.3579 -535.21143 -355.31879 0.85364896 -0.41921082 0.30910471 0.17851895
2658.863 -683.40338 -357.36353 0.90234917 0.32018128 0.28853056 0.1312142
2652.7881 -662.27808 -356.22781 0.95870793 0.2199991 0.18022075 0.10186139
2669.6697 -552.57947 -350.87515 0.92354172 -0.31237927 0.2224631 0.10582964
2664.6108 -569.46045 -353.25504 0.91880012 -0.3568671 0.16867778 0.10911149
2650.2197 -643.23383 -355.46011 0.98320293 0.08269351 0.16270755 0.079217315
2653.9839 -604.57971 -354.42166 0.94381201 -0.32557887 0.056721471 0.12487268
2662.5903 -567.9057 -332.92096 0.96940136 -0.24455184 0.021339169 0.082715571
2658.2336 -584.22278 -334.08661 0.96228802 -0.27035916 0.030128466 0.067374758
2668.3262 -550.57104 -332.83301 0.91239554 -0.392856 0.11488502 0.10025653
2675.374 -533.19952 -333.99124 0.88209683 -0.47061616 0.020630347 0.11473686
2650.0471 -619.10956 -333.72079 0.97688925 -0.1792472 -0.11643784 0.076423384
2647.7673 -654.08472 -333.41272 0.9749549 0.18718582 0.12010151 0.053175814
2648.8528 -636.94281 -333.33069 0.99836016 0.0097552408 -0.056407798 0.0765922
2650.8438 -674.52289 -334.67065 0.95395726 0.24683964 0.1703987 0.067362882
2653.3975 -696.45532 -338.79346 0.92782485 0.091794811 0.36154491 0.14452943
2654.1479 -602.341 -333.10843 0.95469886 -0.28358501 -0.090164557 0.067731887
2677.3901 -530.23083 -316.9115 0.80530626 -0.59263676 0.016233016 0.075808018
2668.9675 -545.09875 -316.65369 0.88630229 -0.46024191 0.051435646 0.11388282
2657.9404 -673.35059 -365.21011 0.93299919 0.30867824 0.18501417 0.13803449
2654.3599 -603.01013 -362.20206 0.93395895 -0.35015959 0.071476549 0.14332768
2653.436 -655.57886 -364.71146 0.96844393 0.15729666 0.19332376 0.091256052
2663.7205 -689.28345 -365.38181 0.87618899 0.36492857 0.31483334 0.15855822
2651.395 -638.22095 -363.80289 0.98404068 0.047217917 0.17156449 0.097567715
2651.1101 -619.81641 -362.23999 0.98745519 -0.095944539 0.12540671 0.10111464
2669.3569 -542.34473 -314.63593 0.86085719 -0.49116427 0.13297592 0.11905895
2680.4722 -526.35431 -317.50668 0.77594978 -0.62478942 0.086833976 0.073594198
2668.3953 -549.72083 -326.03259 0.90681666 -0.41867933 0.04889968 0.092817374
2659.8699 -579.19861 -326.04565 0.97364032 -0.2222897 -0.051105402 0.068969958
2675.4089 -535.04126 -328.37277 0.91723275 -0.39132825 0.074473664 0.1315939
2655.9585 -592.99023 -325.99689 0.97088552 -0.22823271 -0.072740182 0.055751383
2683.1807 -519.81482 -327.92517 0.87714243 -0.48009789 -0.01127691 0.11342874
2663.7266 -564.57031 -326.07156 0.97849429 -0.20466927 -0.025678603 0.090401113
2654.2134 -607.80817 -325.88022 0.96104932 -0.2344373 -0.14636724 0.080826811
2678.1541 -528.24805 -333.42896 0.92627662 -0.37234783 0.058040269 0.1320577
2663.6672 -565.46259 -333.09778 0.97366339 -0.22430804 0.040810574 0.091429874
2658.6765 -583.8833 -335.35681 0.95962799 -0.27735913 0.046754874 0.069287546
2674.6772 -691.62622 -384.54642 -0.59337246 -0.74412495 -0.30689928 0.12249678
2654.1531 -602.15607 -334.84476 0.95745176 -0.28383073 -0.052213885 0.073975101
2675.7622 -689.59485 -382.18802 0.8435896 0.27224582 -0.46285936 0.17345908
2669.0115 -548.30835 -331.99014 0.91717517 -0.39847293 0.0030033709 0.092767246
2675.2378 -539.20422 -351.08334 0.13720399 -0.38040039 0.91458768 0.14697573
2672.0991 -570.31226 -361.59476 0.63587159 -0.35869861 0.6833759 0.18369542
2680.8689 -554.5321 -362.2518 0.58376181 -0.38205129 0.71642089 0.1528188
2681.6619 -520.26453 -342.10086 0.92824292 -0.37134778 0.021583948 0.19433729
2651.5 -592.48236 -383.39749 0.97013825 -0.18718696 -0.15424904 0.092426851
2666.5239 -552.36279 -339.13211 0.93296599 -0.33789149 0.12411189 0.084762685
2675.9802 -536.14014 -342.34933 0.90865946 -0.38683277 0.15715739 0.12507224
2663.3862 -567.69958 -340.75031 0.95480829 -0.27992377 0.099919043 0.093349025
2651.9939 -642.63184 -384.8952 0.99192464 0.12198373 0.034719992 0.10254423
2650.5742 -608.41528 -384.22369 0.9964388 -0.074233398 -0.039988536 0.13196251
2663.0596 -676.68811 -387.19156 0.85624737 0.48761332 0.17051007 0.12309133
2650.397 -625.6853 -383.85074 0.99687749 0.071345955 0.033837784 0.11394033
2655.7859 -660.32904 -385.7731 0.96916938 0.23340976 0.078934036 0.11074387
2670.7507 -556.12787 -357.05457 0.88174266 -0.36151466 0.30304632 0.13073397
2654.3547 -607.42163 -361.72174 0.92669928 -0.31253013 0.20869446 0.14840171
2658.5461 -590.4986 -359.2211 0.93574947 -0.32268694 0.1422888 0.12434764
2678.1885 -541.43811 -354.22989 0.71299338 -0.47246554 0.51808953 0.1650873
2665.9302 -572.97089 -359.02618 0.8725307 -0.36318719 0.32678011 0.14741728
2664.0061 -569.6452 -347.21121 0.92346585 -0.32968903 0.19625494 0.10329414
2676.8894 -534.42212 -345.83884 0.89156741 -0.42309365 0.16155297 0.12827411
2658.123 -587.75031 -348.12265 0.95318931 -0.27139565 0.13332118 0.08917281
2670.0486 -552.40106 -346.75101 0.91184705 -0.34877247 0.21654725 0.10532203
2652.478 -605.84161 -348.00687 0.95682377 -0.29039523 0.012607574 0.087855235
2670.603 -552.45215 -347.28619 0.9144842 -0.35863 0.18735833 0.1208099
2675.3381 -526.11224 -346.79672 0.87622392 -0.46722594 -0.11803206 0.11932655
2664.4453 -567.7973 -346.10406 0.92496109 -0.33811033 0.17357546 0.10125016
2678.3838 -537.5293 -349.26172 0.93352979 -0.33692661 0.12248519 0.15219098
2655.6179 -597.79694 -346.38528 0.93678826 -0.33322698 0.10671222 0.10187942
2659.6694 -583.02539 -347.45349 0.95166308 -0.27847254 0.12957773 0.092860468
2651.3542 -612.72144 -347.57111 0.97059119 -0.2198039 0.098178133 0.10343342
2656.8914 -584.49225 -374.50681 0.94801134 -0.22827625 -0.22173066 0.17330165
2678.4751 -527.49463 -331.0036 0.87485105 -0.48439151 0.00069655292 0.11890608
2665.6953 -559.15491 -333.83011 0.92611426 -0.31727287 0.20408402 0.10246202
2670.5645 -544.69904 -330.03104 0.91285771 -0.4078764 -0.018101437 0.10915587
2658.8813 -672.89191 -380.31464 0.93574369 0.33539981 0.10904449 0.10584123
2651.8806 -637.91681 -377.9231 0.99182898 0.093665682 0.086614102 0.087288864
2652.1929 -602.04791 -376.00876 0.96959674 -0.24071164 -0.044046618 0.12361032
2651.0544 -617.46088 -375.24286 0.99524248 -0.050658181 0.083223604 0.1121237
2676.8435 -694.52637 -385.0477 0.72968203 0.65945357 0.1807902 0.16848314
2654.9868 -656.8338 -379.91541 0.98260862 0.16548295 0.084235735 0.09615095
2670.9827 -574.99048 -365.01468 0.70430255 -0.38614818 0.59569079 0.1663238
2674.7205 -557.47571 -360.97537 0.73559105 -0.39901376 0.54744303 0.13635701
2653.2048 -609.03394 -366.53671 0.96748209 -0.24401075 0.066612042 0.14832798
2663.1899 -678.31049 -373.32452 0.89470994 0.39312702 0.21200299 0.14432524
2653.9773 -652.68811 -369.50934 0.96239662 0.20250967 0.18105963 0.10149463
2652.6111 -631.39215 -368.60541 0.98662221 -0.057724334 0.15246154 0.1043491
2658.7065 -591.06519 -365.12503 0.93899685 -0.3432098 0.022180798 0.14785732
2672.2551 -557.94464 -356.93661 0.85931516 -0.37224141 0.35073319 0.1370694
2660.3877 -699.85852 -352.10931 0.86672598 0.4623448 0.18714526 0.13218713
2668.2681 -573.01428 -359.85107 0.86303169 -0.26477832 0.43019623 0.17642698
2656.042 -667.3703 -360.1546 0.90140313 0.21456321 0.37607855 0.12232082
2662.3223 -586.1037 -358.32812 0.90155745 -0.32898146 0.28100786 0.15155868
2665.2463 -686.40344 -364.59256 0.79591054 0.2777217 0.53795642 0.15899703
2659.2605 -581.51227 -361.14929 0.96071762 -0.27618554 -0.027262647 0.098454289
2651.0767 -618.00964 -363.99118 0.98570585 -0.12436894 0.11364996 0.097018629
2660.0544 -678.12305 -368.68814 0.9108879 0.38880002 0.13826713 0.10845006
2676.1204 -531.18195 -316.44821 0.83833724 -0.52930373 0.13049233 0.097258851
2654.2117 -659.32373 -367.2066 0.97770774 0.17699884 0.11295576 0.098275609
2651.3179 -639.27277 -365.49316 0.98848933 0.073219836 0.13239218 0.090685785
2666.5576 -564.88617 -357.37253 0.87689054 -0.39821464 0.26923606 0.13568792
2653.9224 -599.68036 -362.07614 0.94203538 -0.3334319 -0.037316516 0.10689111
2657.189 -606.28021 -366.72534 0.88115901 -0.33408421 0.33458421 0.16327251
2679.3511 -592.2558 -368.71313 0.46629575 -0.30702326 0.82964146 0.13567898
2653.2163 -649.24066 -366.67725 0.96590739 0.15395883 0.20813344 0.10117646
2674.2197 -682.3252 -374.86133 0.80428404 0.4858999 0.3420943 0.13614348
2672.5906 -534.50708 -306.44113 0.80286819 -0.58703601 0.10388172 0.096886374
2666.2886 -567.2326 -353.05234 0.91646653 -0.34378436 0.20469843 0.13689123
2654.2686 -601.6051 -351.23291 0.93509024 -0.34956974 0.058371831 0.10794743
2650.3977 -640.20709 -352.4733 0.98987269 0.056904085 0.13005388 0.088171564
2661.2256 -585.12799 -354.2988 0.93591058 -0.27499634 0.22011 0.12877285
2650.322 -620.02722 -350.98837 0.99579179 -0.084291004 0.035968438 0.086536184
2653.9719 -663.27771 -357.53799 0.90638828 0.22867274 0.35520288 0.10183471
2678.3372 -528.62335 -339.02048 0.86913592 -0.49384478 0.026835376 0.12709709
2663.9795 -563.87366 -337.79782 0.95756865 -0.28078568 0.064974897 0.089899786
2654.6653 -598.58673 -338.99496 0.95524853 -0.29578236 -0.0036099576 0.080466136
2659.3931 -580.83636 -339.02631 0.96467084 -0.26012218 0.041792028 0.066269964
2670.6494 -546.26996 -338.92096 0.91761559 -0.3814607 0.11166631 0.10957377
2652.918 -676.38678 -343.66046 0.94217217 0.21482635 0.25721824 0.080063663
2650.1704 -615.61816 -338.88071 0.98041153 -0.17299657 -0.094156399 0.074277028
2665.7312 -672.49347 -395.61386 0.80017549 0.44136453 0.40609917 0.1238756
2650.1096 -631.98523 -393.00296 0.99068671 0.1335084 -0.026746443 0.093144491
2654.634 -653.07318 -394.00922 0.98030782 0.19592695 0.024682237 0.106937
2679.1177 -528.19397 -335.02292 0.91406399 -0.39167032 0.10526836 0.11976811
2671.5425 -543.7973 -332.22015 0.89531201 -0.43815902 0.080206349 0.1017739
2650.3315 -619.85742 -332.54092 0.98337638 -0.16848783 -0.067696325 0.08403717
2664.8789 -558.5575 -330.88177 0.95694977 -0.28393996 0.060209543 0.093110822
2653.9033 -604.67676 -331.87933 0.95389783 -0.28118369 -0.10495053 0.07198301
2656.6111 -589.36151 -332.06638 0.96574062 -0.2581189 0.026827309 0.062343549
2661.9534 -573.72595 -332.03793 0.96679485 -0.25314003 0.035040114 0.099614367
2657.1257 -676.65643 -358.70578 0.92788553 0.28321031 0.24252903 0.10810028
2649.9065 -642.9104 -356.81253 0.97471648 0.09636829 0.20159581 0.077820145
2650.2664 -610.91608 -354.5834 0.97299922 -0.22553891 0.049037822 0.086069167
2667.2256 -693.96112 -370.55518 0.7015447 -0.36165655 0.61403549 0.14562269
2652.0754 -659.79901 -356.79877 0.9667697 0.18065695 0.18088496 0.085370503
2655.5813 -596.84308 -356.04099 0.93246686 -0.34952709 0.091303639 0.11023776
2681.9436 -570.42877 -363.77451 0.53643179 -0.10025946 0.83796716 0.15370843
2668.4387 -540.03088 -314.67804 0.80905008 -0.44733965 0.38121545 0.15945806
2681.2664 -525.69788 -314.14767 0.76424044 -0.64360863 0.041285556 0.082257904
2650.3354 -626.99768 -355.96121 0.99335629 0.0068482151 0.11487529 0.092783801
2665.3176 -581.16504 -361.73404 0.85360235 -0.31499898 0.41489601 0.14647542
2649.8071 -614.6015 -358.43161 0.98188907 -0.1785443 0.063370019 0.093889892
2655.1777 -597.46375 -358.92972 0.92902756 -0.36583146 0.055453859 0.12331111
2668.3674 -563.12769 -357.8869 0.9070282 -0.31522357 0.27916646 0.14107962
2649.8252 -632.83246 -360.33856 0.98446089 0.043120917 0.17022735 0.088917471
2670.9358 -534.36633 -318.76071 0.63609791 -0.32718855 0.69880402 0.14967155
2660.8174 -579.82513 -357.79846 0.95743787 -0.28039569 0.068490632 0.10687658
2656.8408 -672.11975 -364.52829 0.94340181 0.29232597 0.15664768 0.11717407
2652.27 -652.95996 -362.95505 0.97604549 0.14477231 0.16240759 0.094621785
2684.7705 -520.54138 -319.07928 0.81536508 -0.57283723 -0.083888561 0.10646982
2672.2649 -538.7027 -317.8233 0.84416646 -0.53493905 0.034974549 0.090206005
2663.6719 -574.43335 -320.28571 0.95502949 -0.2475564 -0.1632008 0.13286936
2656.1323 -591.74133 -321.18857 0.97727609 -0.20963064 0.031407218 0.062631667
2666.4917 -555.49042 -319.08215 0.94867969 -0.31189108 -0.052257143 0.10624661
2667.1079 -696.11432 -366.94073 0.77781934 0.2227014 0.58770841 0.16477682
2662.3403 -578.78015 -357.12903 0.93278098 -0.310853 0.18245567 0.12238558
2650.3811 -649.2627 -357.03177 0.97536707 0.13363898 0.17549835 0.074317373
2649.8879 -613.66565 -355.59689 0.98191458 -0.18401237 0.044532932 0.086948566
2655.0278 -669.82184 -359.151 0.96072972 0.22512691 0.16222285 0.10367393
2655.3743 -596.26202 -356.74268 0.93425077 -0.34942725 0.071246251 0.10742555
2648.4592 -629.66382 -355.52448 0.98744285 0.035094272 0.15402928 0.082866766
2685.468 -564.66986 -361.36591 0.35398576 -0.21971014 0.90907729 0.14398441
2653.5205 -650.73175 -367.81473 0.96672642 0.17660744 0.18506713 0.098623224
2680.0066 -526.70428 -318.04263 0.81883955 -0.57297361 -0.034684621 0.088519201
2668.1416 -545.25946 -316.82574 0.85865134 -0.51213163 0.020953164 0.099185765
2663.9692 -675.59985 -373.22244 0.87025028 0.36289784 0.33312091 0.15941428
2661.4233 -577.71686 -318.4281 0.97151887 -0.20344636 -0.12149367 0.089965463
2665.5479 -559.29706 -317.78317 0.95782924 -0.27457094 -0.084699102 0.12135416
2656.5693 -595.11761 -319.96237 0.984097 -0.17759657 -0.0035495465 0.078279503
2666.3884 -573.12402 -359.73697 0.87458843 -0.3557817 0.32941538 0.1522155
2657.5698 -590.84442 -356.86017 0.94875395 -0.31176955 0.05163024 0.10601696
2649.1855 -639.4165 -356.15305 0.98089403 0.1103702 0.16020389 0.072474256
2652.4163 -606.84387 -357.04144 0.96376842 -0.25780919 0.068445869 0.09408962
2649.7563 -622.47589 -355.45776 0.9943471 -0.07003966 0.079801261 0.082583711
2677.0542 -529.45782 -311.27777 0.77884227 -0.61728781 0.11117738 0.083950557
2651.823 -658.41565 -357.48233 0.97978204 0.14975248 0.1326699 0.077002138
2657.7559 -677.39081 -359.52707 0.91556656 0.31767511 0.2466179 0.11020273
2656.2129 -663.24298 -390.89218 0.96767288 0.25126481 -0.02179786 0.130891
2659.3804 -582.97443 -345.40057 0.95671821 -0.27107468 0.1058718 0.093846142
2665.7446 -678.28998 -391.3757 0.83334315 0.51923674 0.18955837 0.15108614
2664.6162 -566.86688 -345.07138 0.93051738 -0.32276759 0.17308535 0.099244624
2670.7922 -550.91699 -345.03915 0.91470355 -0.36551633 0.1723811 0.12171856
2676.4263 -535.76288 -345.09421 0.91374773 -0.37758285 0.14998776 0.12511693
2654.762 -598.63751 -345.02283 0.95955527 -0.28096399 0.017689878 0.088475034
2650.6919 -614.48926 -345.18497 0.98678672 -0.15234149 0.055173177 0.085185125
2665.7156 -542.82758 -311.11148 0.81090897 -0.49140149 0.31772822 0.14477994
2678.2275 -528.6001 -313.2002 0.78168648 -0.61739016 0.088292547 0.079362646
2676.6665 -586.55524 -367.10687 0.55012876 -0.31036139 0.77526397 0.13476814
2654.7349 -598.89301 -358.01016 0.92678666 -0.37391028 0.035462998 0.11126509
2650.3528 -642.96497 -358.92621 0.97423005 0.096669674 0.20379101 0.07662271
2652.8792 -660.18781 -360.23343 0.96608388 0.16188379 0.20118541 0.085247606
2658.4607 -676.5321 -361.49582 0.9041422 0.3125678 0.29125294 0.13441856
2650.6611 -629.005 -359.36655 0.99402684 0.0014819902 0.10912609 0.093995184
2651.1375 -612.39716 -357.88638 0.98183393 -0.18242472 0.052185215 0.098654538
2667.646 -695.55157 -371.01419 0.72292984 -0.044078439 0.68951398 0.17932713
2669.5623 -546.71869 -325.87961 0.90023321 -0.43434376 0.030425169 0.093594216
2678.4944 -527.68573 -326.9743 0.84853023 -0.52738816 -0.043107029 0.11404018
2663.7478 -564.16272 -326.99963 0.97713894 -0.21260135 0.00046791736 0.093775213
2650.0859 -619.80719 -331.22739 0.98330772 -0.18097986 0.018767398 0.08222422
2659.0874 -582.48267 -327.98199 0.96526903 -0.26109993 -0.0090841735 0.07292068
2655.0369 -601.00842 -329.00443 0.96849495 -0.22052006 -0.11570849 0.06339705
2681.3779 -523.245 -328.02621 0.83765584 -0.5431 -0.058095247 0.1198927
2648.8115 -653.57129 -332.82349 0.98667485 0.15045179 0.061943289 0.06415502
2650.5647 -618.21283 -331.04892 0.9714402 -0.17947434 -0.15521882 0.078182541
2648.8987 -636.03082 -332.02792 0.99893022 -0.034291741 -0.031024337 0.071399525
2662.4209 -569.77686 -328.17004 0.97402596 -0.22119842 -0.048421573 0.086893752
2673.6704 -537.85175 -327.97522 0.9098478 -0.40925825 -0.068445042 0.12653863
2653.9917 -694.9173 -339.17896 0.93055266 0.14207113 0.33747229 0.14400509
2666.5464 -554.2063 -327.96008 0.93335974 -0.35240117 0.068212941 0.092434295
2654.2773 -602.78015 -329.86749 0.95366997 -0.27045029 -0.13179615 0.06613823
2650.8782 -674.29028 -335.20038 0.95395726 0.24683964 0.1703987 0.067362882
2657.8232 -585.81824 -329.06934 0.96020794 -0.27828866 -0.023581596 0.060184136
2649.0259 -645.03107 -332.23367 0.99890184 -0.0061749695 -0.046443224 0.075441457
2655.8193 -591.6684 -331.03494 0.96236032 -0.27028051 0.028479736 0.063173026
2672.8826 -539.95026 -331.00082 0.92072058 -0.3901706 0.0063665994 0.12803113
2652.5432 -610.69574 -331.44635 0.95102566 -0.26017427 -0.1669119 0.066185832
2682.0564 -521.08337 -332.23267 0.89718127 -0.44026393 0.035119768 0.13529304
2649.6831 -627.18842 -331.38712 0.9932375 -0.050803799 -0.10439478 0.072422467
2665.8838 -556.63574 -331.11392 0.94621694 -0.30878142 0.096579112 0.097487397
2661.2292 -575.05725 -330.99878 0.97018403 -0.24231431 0.0051739146 0.085103847
2648.7424 -665.03497 -333.04175 0.97836334 0.13285486 0.15860251 0.057385836
2654.1509 -686.52887 -335.39651 0.94164765 0.26931065 0.20191941 0.099758878
2672.1187 -541.50464 -327.04089 0.91102618 -0.41100186 -0.033297714 0.12093378
2666.0449 -555.67975 -327.03293 0.94762784 -0.31770101 0.032672875 0.093778491
2658.0569 -585.47394 -329.01819 0.96521372 -0.26130593 0.009041016 0.065870322
2654.7002 -599.67914 -329.25891 0.96562916 -0.2428745 -0.09258645 0.06014752
2679.8677 -525.52325 -327.0965 0.85755968 -0.51399463 0.020024193 0.11352137
2661.9998 -570.84265 -327.15906 0.97778076 -0.20599194 -0.038886089 0.074527889
2649.9148 -630.08289 -330.401 0.99027687 -0.028163288 -0.13622956 0.075205967
2652.1121 -614.74841 -329.58401 0.95649129 -0.23001505 -0.17949238 0.073913023
2651.4424 -677.8985 -333.91672 0.95864934 0.22001855 0.18050849 0.076820947
2655.1228 -693.42664 -335.80963 0.98179835 0.18025112 0.059846245 0.067730412
2648.3923 -662.23822 -333.29486 0.97331315 0.14421245 0.1785057 0.067392446
2648.5938 -645.20264 -331.11893 0.99786943 -0.056267645 -0.03302256 0.076256908
