# .PCD v0.7 - Point Cloud Data file format
VERSION 0.7
FIELDS x y z normal_x normal_y normal_z curvature
SIZE 4 4 4 4 4 4 4
TYPE F F F F F F F
COUNT 1 1 1 1 1 1 1
WIDTH 536
HEIGHT 1
VIEWPOINT 0 0 0 1 0 0 0
POINTS 536
DATA ascii
2617.8535 -1036.7411 -134.27356 0.97997171 0.13688657 -0.14462887 0.13822713
2621.2954 -981.19733 -183.31734 0.97680444 0.11308172 0.18183942 0.12218036
2618.2029 -1013.1343 -180.05548 0.96585047 -0.24808082 0.074757911 0.11686241
2615.7307 -1044.9735 -136.64366 0.93827665 0.25646517 -0.23208293 0.14717093
2617.3892 -1029.5018 -181.20482 0.9920333 0.06688039 0.10675631 0.14079374
2613.6426 -1012.1048 -133.14342 0.99329114 0.083553188 0.079947263 0.099503502
2622.176 -996.41626 -181.45647 0.96545213 -0.25422803 0.057186887 0.16673493
2634.342 -1068.788 -90.523911 0.92161065 0.14557502 -0.35978013 0.094574444
2637.3511 -1085.7345 -92.090889 0.90961635 0.21511066 -0.35542291 0.099707924
2627.9905 -1049.6584 -90.594864 0.93331516 0.30581126 -0.18815506 0.094583504
2644.7559 -980.96362 -239.4446 0.7261951 0.0070285127 0.68745273 0.097685501
2644.2808 -966.39832 -237.19649 0.72483933 -0.16137195 0.66975147 0.12155315
2623.7412 -994.15173 -196.37112 0.98157579 -0.1677033 0.091567248 0.11057601
2615.595 -994.95013 -151.6046 0.97016919 0.030323114 0.24052498 0.10727285
2624.2815 -976.00195 -195.74042 0.98863053 -0.00023515892 0.15036511 0.10513098
2647.834 -1100.2915 -101.59225 0.71903932 0.68722576 0.10345647 0.14616752
2615.7756 -1012.3669 -150.6449 0.99433285 -0.076389275 0.073937915 0.10813969
2614.2095 -1041.9755 -149.29463 0.99675924 0.077309549 -0.022233071 0.15608616
2628.4697 -1060.8829 -103.09026 0.95386505 0.23776242 -0.18333162 0.084141999
2633.3699 -1081.1396 -102.89713 0.96416819 0.213568 -0.15737988 0.1111842
2615.8989 -1028.9862 -150.96361 0.99997824 0.0023370702 0.0061697238 0.12738439
2619.855 -1010.6926 -194.01308 0.96239454 -0.21858567 0.16129822 0.13407911
2621.9802 -1036.4482 -104.69115 0.9610405 0.1868757 -0.20366317 0.099823423
2641.7568 -965.32159 -233.59116 0.77230161 -0.14136842 0.61932641 0.11473324
2616.855 -1026.2261 -182.964 0.78955573 -0.52719748 -0.31410924 0.15617388
2623.0627 -995.14331 -186.8365 0.97971416 -0.13207939 0.15071554 0.13535677
2636.3572 -978.87769 -228.79004 0.81225926 -0.096900843 0.57519144 0.095999546
2619.4963 -1010.1978 -185.01022 0.96926475 -0.22432145 0.10102318 0.1203515
2617.8564 -1046.0425 -148.84351 0.99009323 0.036829486 -0.1354955 0.15867293
2624.4192 -992.20984 -195.71248 0.98934662 -0.085827067 0.11758798 0.12277056
2617.144 -1013.5954 -151.5386 0.95151186 0.221422 0.21353573 0.13213472
2621.7559 -1009.4849 -195.83742 0.96010929 -0.26511958 0.088892087 0.1227648
2619.3508 -1022.4406 -191.93208 0.96468425 -0.037441723 0.26073444 0.16975626
2644.5625 -975.57538 -239.02364 0.68394506 -0.059962731 0.72706509 0.093511656
2617.8274 -1029.592 -149.86461 0.99758416 -0.065932721 -0.021880729 0.13945816
2626.1313 -1002.3838 -211.41377 0.96812207 -0.20794559 0.1396364 0.1220056
2629.5281 -987.21313 -213.67642 0.95547175 0.037215114 0.29272637 0.096241921
2630.7793 -985.18799 -219.95583 0.91195536 -0.025289539 0.40950936 0.088071398
2624.1248 -1051.5559 -128.58127 0.97361892 0.22034098 -0.059296247 0.11479525
2617.262 -1022.7779 -173.7081 0.99131244 -0.12314327 0.046210077 0.12225246
2615.5947 -1022.4704 -129.68179 0.98668623 -0.043810274 -0.15662354 0.11646735
2617.1267 -1040.6071 -173.33719 0.98889196 0.075806789 0.12785168 0.11969818
2624.0432 -1060.7627 -127.62057 0.93347722 0.34558892 -0.09585683 0.095461816
2620.7161 -992.92511 -177.65906 0.95722181 0.14092277 0.25271952 0.13560389
2619.9675 -1007.7704 -174.82655 0.96636879 -0.25088069 0.056482058 0.11152155
2627.1335 -999.37488 -216.37312 0.90620732 0.046687756 0.42024815 0.10475165
2635.0186 -977.90814 -225.61046 0.84648073 -0.079246625 0.52648872 0.089615576
2639.5862 -1087.0143 -88.577675 0.89973074 0.16857341 -0.40257627 0.10431747
2618.8708 -1017.7446 -181.0636 0.97388518 -0.2203135 0.054859884 0.12382343
2633.3174 -994.69543 -223.55606 0.86861372 0.061278537 0.49168602 0.098662913
2622.6218 -1054.1934 -135.10649 0.97375464 0.18219084 -0.13641243 0.16935907
2622.0481 -998.59296 -181.24295 0.98735011 -0.13614927 0.08125966 0.14029859
2619.0642 -1036.1213 -181.06248 0.96928614 0.16818099 0.17944221 0.12426468
2617.6658 -1028.6761 -133.82133 0.98723114 0.15400799 -0.040696096 0.15039667
2633.5693 -1085.9681 -105.84424 0.95997244 0.21678461 -0.17736229 0.13049856
2629.4722 -1066.4767 -104.5756 0.95389056 0.20191079 -0.22209182 0.085859708
2625.115 -1047.8208 -103.45059 0.94609207 0.2691609 -0.18017277 0.088075288
2642.5771 -993.74652 -238.13174 0.81523192 -0.046723057 0.57724679 0.10193136
2633.645 -1082.8593 -102.12202 0.96076131 0.2095596 -0.18172091 0.11190982
2631.1057 -1067.0173 -100.63916 0.96087486 0.16584709 -0.22184281 0.087525636
2626.3521 -1049.4215 -99.679413 0.93474174 0.33149305 -0.12794629 0.10204444
2641.9727 -1086.2817 -81.918289 0.83193672 0.10005222 -0.54577541 0.099570006
2638.2249 -1063.9108 -80.749634 0.87974554 0.1326232 -0.45657298 0.092839159
2649.2954 -1097.2676 -77.511589 0.73902768 0.29805356 -0.60415411 0.14047578
2647.7253 -1080.9187 -73.598381 0.76850575 0.086157791 -0.63401562 0.11752978
2630.4072 -987.07275 -218.68565 0.91926104 -0.012373342 0.39345396 0.093253948
2631.5542 -1006.001 -220.7404 0.89687431 -0.00037203959 0.44228536 0.11700598
2624.8284 -987.96198 -194.40714 0.99179113 -0.011896295 0.12731409 0.11602423
2617.7581 -1012.8297 -152.63013 0.83719653 0.39479035 0.37847406 0.11668994
2623.5408 -1004.2775 -194.46172 0.97063029 -0.2027159 0.12954977 0.12245174
2618.4856 -1019.8961 -193.47145 0.92230803 -0.38097179 -0.064872533 0.17014301
2654.0332 -976.00177 -244.94435 0.51315856 -0.027013296 0.85786861 0.11451668
2618.1895 -1042.2615 -146.0069 0.98882169 0.037958913 -0.14419004 0.14834014
2621.0796 -1029.4229 -148.20166 0.99471343 0.10167374 0.014409608 0.1434864
2652.8955 -959.14478 -241.87302 0.38726225 -0.062610194 0.91984123 0.19189048
2644.2839 -1069.5192 -74.854965 0.8285349 0.093002059 -0.55215985 0.11164238
2618.5854 -1034.6677 -119.29824 0.96256471 0.20170292 -0.18106659 0.10075689
2631.0859 -1079.9761 -119.00969 0.9578585 0.26620874 -0.10788874 0.11480195
2651.5295 -1093.4962 -73.526314 0.68935525 0.22703969 -0.68792605 0.12791534
2623.3286 -1053.5446 -120.08615 0.94653744 0.25854084 -0.19293413 0.098968022
2650.2065 -969.01904 -243.76956 0.66625321 -0.061367463 0.74319631 0.12617227
2646.261 -985.9447 -240.83295 0.71491283 0.0092774266 0.69915205 0.1017094
2623.5488 -997.7395 -190.33595 0.98529083 -0.10470707 0.13504963 0.13349465
2639.1846 -982.15094 -233.05655 0.79572046 -0.023162976 0.60522097 0.094657436
2620.541 -1014.4255 -189.23605 0.96955335 -0.2265041 0.093071178 0.1402407
2618.9045 -1029.8657 -187.32761 0.98492813 0.033881962 0.16961312 0.16988868
2621.6873 -1052.0687 -131.95383 0.96671605 0.21231556 -0.1427663 0.12895611
2622.7974 -992.34247 -180.83669 0.97843444 -0.18644521 0.088905692 0.15531723
2616.9421 -1025.9197 -179.89255 0.97350943 -0.22710195 0.026535491 0.13954206
2634.0608 -976.90924 -223.91685 0.84411442 -0.15166003 0.51426655 0.10017673
2640.7737 -1082.891 -84.040276 0.89105916 0.18785504 -0.41318765 0.10179503
2630.6912 -989.14819 -221.3409 0.90116948 -0.013779477 0.43324783 0.083435856
2613.167 -1014.9843 -133.68352 0.92100316 0.31996828 0.22220136 0.12351658
2619.02 -1036.9816 -132.36838 0.98947024 0.12171619 -0.078318439 0.13522185
2645.8655 -1101.3793 -84.492317 0.87301689 0.29190418 -0.39068329 0.14617181
2620.3831 -1009.863 -181.03893 0.97438705 -0.21630931 0.061483327 0.1208504
2617.7278 -1035.9524 -129.44807 0.97216463 0.21542281 -0.092135653 0.11996622
2623.5417 -1056.2434 -130.33186 0.93050802 0.35990497 -0.067994393 0.11503878
2638.342 -1069.8079 -83.657921 0.89059496 0.12747367 -0.4365674 0.092956752
2641.0244 -1087.4248 -84.986702 0.87232274 0.22808459 -0.43247014 0.10435788
2614.6768 -1015.2418 -128.99077 0.99361324 0.11283117 0.0013748114 0.11899461
2632.2349 -1065.359 -94.461472 0.93887848 0.19093587 -0.28644493 0.084549777
2633.7993 -1079.4751 -96.816277 0.95674735 0.18706167 -0.22280595 0.11046541
2625.1692 -1042.261 -94.806931 0.93144202 0.29251805 -0.21644607 0.10302443
2631.6047 -987.97205 -220.26024 0.90802634 0.015813943 0.41861445 0.093450598
2622.9934 -1050.105 -125.45573 0.95585054 0.26360977 -0.12984475 0.11541989
2617.2468 -1028.3845 -125.96321 0.97657663 0.21419173 -0.020494144 0.12208549
2632.6882 -971.97852 -221.17778 0.86709076 -0.059811316 0.4945465 0.10460413
2621.1064 -994.86261 -174.47873 0.97728032 0.10679989 0.18307646 0.12862757
2620.1548 -1007.8009 -173.05016 0.97174442 -0.228883 0.057666305 0.11565538
2627.5378 -1067.4236 -124.86521 0.95676136 0.27717876 -0.088202305 0.10018611
2617.375 -1024.1819 -171.92552 0.98994166 -0.13092053 0.053622499 0.11408591
2616.4661 -1021.0049 -150.96706 0.99745768 -0.010536774 0.070477672 0.13369228
2615.1812 -1000.0441 -149.48367 0.97292107 -0.019645009 0.23030129 0.10658259
2616.363 -1028.8135 -103.9927 0.89552623 0.44499084 -0.0039932965 0.11361411
2616.3301 -1038.327 -152.4742 0.99375224 0.091233015 -0.064288639 0.14382373
2624.4434 -1047.709 -105.97432 0.93968308 0.27301681 -0.20605236 0.090665139
2644.4302 -1100.408 -107.00439 0.81309783 0.58209348 0.0062558134 0.17804129
2628.9204 -1069.8828 -107.45506 0.95519769 0.18024208 -0.23475564 0.091885641
2621.7505 -1037.0685 -106.61681 0.9583838 0.23803164 -0.15761155 0.10452585
2632.5398 -1081.2379 -107.51333 0.96791852 0.20840205 -0.14036515 0.11887819
2626.7356 -1058.8318 -106.94278 0.95324773 0.2351636 -0.189781 0.079045452
2616.9866 -1025.141 -183.86514 0.96080244 -0.2738795 -0.042996768 0.15680881
2621.3132 -1009.1546 -185.62585 0.96006525 -0.26495373 0.089856505 0.14325257
2636.1506 -992.83362 -229.17627 0.82635933 0.033124283 0.56216812 0.093661971
2623.0264 -992.87402 -185.90384 0.98853147 -0.020850291 0.14956851 0.14590113
2640.0002 -978.94617 -233.71024 0.81445581 -0.043875273 0.57856435 0.093985111
2646.2534 -967.6283 -241.05988 0.77772123 -0.033052128 0.62773979 0.15658018
2628.6865 -997.95508 -213.33284 0.96883059 -0.033112578 0.24550119 0.10506766
2629.3125 -978.95026 -213.74301 0.9560768 -0.0083570443 0.29299706 0.095985003
2617.9482 -1032.3091 -118.66939 0.9506709 0.2227962 -0.21583951 0.1054472
2649.1875 -1090.5409 -73.867615 0.75103128 0.15762471 -0.64117587 0.11791597
2644.6157 -1068.6211 -73.685921 0.83436543 0.12087321 -0.53779548 0.11890941
2622.3347 -1050.8644 -120.43041 0.94372636 0.27478626 -0.18404645 0.097876757
2636.6243 -978.63214 -228.99284 0.8110407 -0.091154546 0.57784414 0.09162727
2620.1848 -981.39716 -186.56075 0.91698813 0.26607138 0.29721838 0.12897782
2639.2212 -965.19867 -227.21284 0.78189802 -0.3463437 0.51834494 0.09463764
2632.5835 -1077.2966 -100.68729 0.96434844 0.18926984 -0.18495665 0.097590655
2612.4182 -1001.8441 -141.08969 0.96538174 0.044042837 0.25709599 0.11525739
2627.491 -1055.3722 -99.610466 0.94340146 0.23778108 -0.23120099 0.087986365
2621.8518 -1034.0404 -98.974403 0.95150322 0.25997561 -0.16448192 0.11193791
2618.4036 -1015.8776 -184.6001 0.97955519 -0.16128081 0.12025051 0.13541396
2615.9768 -1040.4014 -143.84087 0.9867295 0.14370684 -0.075586259 0.13515258
2622.606 -998.93195 -186.05042 0.97766405 -0.16888206 0.12510742 0.13583796
2616.041 -1023.606 -143.49338 0.99389786 -0.085538797 -0.069643505 0.13076831
2641.9338 -1077.198 -79.759544 0.80655146 0.081530459 -0.58551472 0.10103039
2652.8545 -1103.8245 -76.636559 0.70313168 0.28955162 -0.64943492 0.16860478
2622.0596 -1046.9896 -117.7979 0.95321828 0.23722537 -0.18734735 0.097401619
2617.9048 -1031.443 -116.61289 0.93944263 0.33100158 -0.088800453 0.096704125
2625.8918 -975.21216 -203.25714 0.97613454 -0.026241345 0.21557531 0.11305271
2651.5889 -1090.5682 -71.745079 0.71979231 0.1696284 -0.67314577 0.1271714
2615.5056 -1034.5458 -159.36559 0.99664807 0.047622822 0.066518106 0.11689885
2617.7124 -1019.0059 -159.98524 0.99975187 -0.0082299151 0.020698849 0.13063398
2645.8823 -1069.7115 -69.431488 0.83961171 0.23491128 -0.48976406 0.13640082
2619.4834 -998.62848 -158.55312 0.97635955 -0.17616218 0.1252556 0.12127005
2625.0049 -993.49255 -204.09145 0.9656564 -0.1600583 0.20466825 0.11850308
2632.9893 -974.75293 -221.7549 0.86177862 -0.070726022 0.50233001 0.099728689
2629.6165 -988.06671 -216.97247 0.94052869 -0.011172585 0.33953044 0.095637687
2622.3049 -993.22034 -172.41292 0.95396227 -0.28996214 0.076668061 0.15298927
2618.3652 -1012.1857 -172.22592 0.96366644 -0.25178388 0.089173183 0.10978725
2611.9348 -1010.3347 -126.26588 0.98264867 0.18315729 -0.029240899 0.089859836
2620.188 -1052.4875 -128.87538 0.94211519 0.2957702 -0.15792073 0.12421518
2643.6448 -1097.114 -86.177902 0.87352467 0.29259762 -0.38902614 0.12789369
2634.4897 -1057.5503 -82.406364 0.92735976 0.26090199 -0.26820523 0.084578715
2615.7495 -1029.4395 -173.00616 0.99237621 -0.049836539 0.11271972 0.1059922
2619.4907 -1040.1063 -126.94675 0.97383481 0.20317043 -0.10182101 0.11266711
2640.3152 -1078.2643 -83.651703 0.8902086 0.087620348 -0.44704735 0.093425862
2626.4932 -982.23822 -204.11836 0.95598948 0.17108287 0.23835842 0.099364743
2627.0623 -1000.0185 -202.67445 0.99412471 -0.089209318 0.06130027 0.092767902
2630.554 -985.12463 -218.95648 0.91207188 -0.024962392 0.40926978 0.088231258
2628.3088 -1000.034 -216.61467 0.93977702 -0.0034346229 0.34177095 0.11552037
2617.0564 -1020.0225 -154.91788 0.99676824 -0.021190694 0.077485412 0.13120033
2629.6086 -1068.0085 -107.59956 0.952398 0.1781503 -0.24738739 0.086224243
2616.9714 -1002.9804 -155.23004 0.97572398 -0.018567003 0.21821532 0.11845871
2616.5173 -1037.1478 -154.18774 0.99552613 -0.058440216 -0.074245781 0.14296648
2626.4866 -985.11694 -201.84628 0.98820651 0.020958979 0.15168586 0.091292612
2634.1765 -1088.0477 -108.07821 0.97246766 0.17496327 -0.15393029 0.13000268
2624.4639 -999.66998 -200.1577 0.97280383 -0.20899288 0.099873379 0.11647354
2624.4585 -1048.6024 -109.14838 0.95034105 0.27481118 -0.14605053 0.090331703
2620.6575 -1015.7939 -198.54178 0.97000408 -0.21053472 0.12152065 0.14309847
2622.3943 -1053.2826 -122.4403 0.93896365 0.30396011 -0.16110717 0.098980106
2617.51 -1034.3339 -122.53824 0.95731306 0.21237868 -0.19607905 0.10379364
2644.2947 -1090.6564 -80.456375 0.81908566 0.20785947 -0.53468978 0.11147478
2616.6602 -1014.1306 -167.72325 0.97614795 -0.21529761 0.027965505 0.08974161
2616.9492 -1029.0746 -123.3478 0.8376075 0.52796763 0.14022763 0.095689282
2642.2195 -1073.7047 -78.289505 0.85898703 0.11426664 -0.49908361 0.097745858
2620.7288 -998.66534 -168.28618 0.96560419 -0.23898838 0.10243572 0.12195284
2616.1472 -1032.2053 -167.79643 0.99842578 -0.039834376 0.039485712 0.103181
2613.1736 -1000.9766 -142.71326 0.97123802 0.019335378 0.23732445 0.11138347
2616.8611 -1039.1523 -144.35812 0.99112648 0.12244167 -0.051733803 0.13456844
2626.0735 -1048.3951 -98.971031 0.92247486 0.24375632 -0.29937094 0.087097332
2635.4614 -1089.9058 -100.32667 0.93784279 0.27739063 -0.20857933 0.1409421
2630.3806 -1069.1709 -100.54178 0.94854355 0.18495519 -0.25701505 0.089442395
2616.2974 -1022.0899 -144.11284 0.99803352 -0.039063632 -0.049021587 0.12145324
2623.5068 -999.04462 -195.30511 0.97501558 -0.18495144 0.12303478 0.12376766
2616.1196 -1002.9894 -151.1945 0.97638083 -0.01173156 0.21573803 0.10587525
2642.8728 -962.41498 -234.19357 0.6971944 -0.20245744 0.68769979 0.1338165
2619.6755 -1016.3584 -193.25105 0.96114069 -0.122298 0.2474909 0.14037901
2620.6643 -1033.0814 -105.54726 0.95996356 0.24065611 -0.14336875 0.1089646
2616.6194 -1023.0451 -151.89499 0.9975186 -0.027784223 0.064689398 0.1231361
2615.7117 -1040.1713 -152.78217 0.99612957 0.085009553 0.022344217 0.14024052
2640.8645 -976.36304 -235.0004 0.76014626 -0.047057159 0.64804572 0.097110882
2624.106 -976.76392 -194.28566 0.99249452 0.038372148 0.11611277 0.10710619
2628.9697 -1063.3534 -105.81902 0.95838755 0.21509102 -0.18769431 0.08208508
2631.9285 -1078.8826 -107.51833 0.97015852 0.21995892 -0.10203214 0.11567223
2630.3896 -1071.5654 -104.62246 0.95306104 0.17331569 -0.24826652 0.087773263
2616.2717 -1018.3405 -147.26822 0.99489141 -0.079303481 -0.062466513 0.12603769
2617.5251 -1041.0166 -147.96928 0.99730778 0.034848526 -0.064519294 0.14398298
2626.1194 -1051.5863 -103.62015 0.93740994 0.29224837 -0.18935005 0.081959687
2635.7302 -1090.3009 -105.6666 0.94099271 0.3285552 -0.081143014 0.14565168
2641.824 -992.96899 -236.78642 0.78701252 0.0086476719 0.61687642 0.093986511
2622.3386 -1024.8387 -182.5313 -0.050127316 0.69446939 0.71777397 0.16962203
2643.1919 -977.00458 -237.84384 0.77570039 -0.018385109 0.63083351 0.10079857
2621.0608 -1013.9705 -191.99306 0.95979297 -0.28070712 -0.000959725 0.14474416
2624.0845 -993.58429 -190.75911 0.97643292 -0.10366311 0.18929544 0.13723384
2631.3557 -1074.1732 -101.21251 0.96444625 0.14889383 -0.21834381 0.093404233
2620.6777 -1030.7356 -99.691536 0.95567197 0.25832322 -0.14128041 0.12473235
2627.2686 -1054.6642 -100.30085 0.94224584 0.24946916 -0.22346796 0.085940622
2645.5535 -966.76843 -239.89592 0.76459736 -0.051366676 0.64245808 0.13022868
2646.3918 -985.73767 -242.18672 0.78624618 -0.031211076 0.61712462 0.10991927
2619.6665 -1004.4749 -165.54015 0.97062224 -0.17284246 0.16738577 0.10969938
2620.3306 -1035.6744 -119.45906 0.93386328 0.35487133 0.044336248 0.11715923
2647.8472 -1084.2328 -73.164001 0.79895329 0.1613131 -0.57935458 0.12338638
2625.4465 -1062.2279 -118.201 0.94904262 0.26087883 -0.17680584 0.09810207
2617.7781 -1021.1522 -164.89821 0.99783504 -0.054667067 0.03656112 0.1155687
2620.6279 -1043.9469 -119.01238 0.95362449 0.2169873 -0.20860681 0.097102113
2616.2578 -1037.5171 -164.58488 0.9948616 0.076779671 0.06599468 0.12455231
2616.0588 -1013.856 -142.94569 0.99928153 0.035463914 0.013369886 0.13464279
2620.7437 -1012.4891 -190.79869 0.95694512 -0.26842168 0.11047976 0.14268339
2623.6873 -995.33447 -190.75945 0.97145939 -0.19257095 0.13850296 0.12468729
2617.666 -1036.0111 -142.31096 0.99175727 0.0020587919 -0.12811416 0.1452826
2618.5784 -1026.4929 -187.97629 0.97709173 0.05172269 0.20643778 0.16220655
2650.5059 -1101.1433 -97.709122 -0.60929143 -0.79197019 -0.039333634 0.14327583
2635.0288 -1083.9943 -98.008698 0.94012517 0.18890207 -0.28369126 0.10970338
2625.6018 -1045.7502 -98.380463 0.92663389 0.28990045 -0.23938948 0.092482455
2631.3149 -1066.6936 -98.018028 0.95068151 0.17895415 -0.25333777 0.082566082
2616.2053 -1044.2509 -142.88823 0.97310966 0.2191861 -0.070817135 0.1349887
2623.6809 -999.98608 -189.30974 0.98074985 -0.11953465 0.15440586 0.14515911
2619.605 -1017.5809 -189.1705 0.95021093 -0.31083617 0.021909432 0.14896986
2642.6758 -996.05865 -237.03781 0.78659737 0.034832064 0.61648303 0.095180646
2621.575 -1032.3787 -142.08374 0.97520119 0.21360487 -0.057927407 0.1204036
2643.9612 -976.85876 -238.86977 0.79290044 -0.022227062 0.60894567 0.10510905
2617.9792 -1046.2637 -142.80403 0.98512346 0.03700579 -0.16781658 0.1540567
2634.5054 -1081.0005 -92.17955 0.91397035 0.14614016 -0.37855154 0.098412476
2635.4099 -1067.9276 -88.171745 0.91031164 0.16084126 -0.38139585 0.092451304
2627.3457 -1043.5243 -87.370125 0.91262716 0.32265136 -0.25101352 0.086770296
2627.5046 -1065.9867 -107.57188 0.9549073 0.18301202 -0.23379199 0.085490845
2624.1206 -1047.2307 -106.21936 0.94354296 0.27274913 -0.18797494 0.094431102
2624.4399 -1043.8723 -101.08646 0.94374841 0.27376121 -0.18545556 0.10009024
2629.3562 -1063.7206 -102.34031 0.95112902 0.19594082 -0.23866448 0.082970098
2632.9189 -1081.6786 -103.35442 0.96457714 0.1842234 -0.18881911 0.1214278
2625.4392 -995.83514 -197.24712 0.98643982 -0.021506371 0.16270827 0.11143274
2621.6401 -1010.4623 -195.18623 0.94511044 -0.32587475 0.0239149 0.14768761
2617.3843 -1018.1407 -147.84081 0.97781867 0.16860187 0.12427403 0.1259812
2646.1072 -997.99725 -241.91466 0.78237468 0.020037789 0.62248564 0.11075059
2615.5242 -1025.281 -193.30487 0.92385262 -0.35483578 -0.14348499 0.18838659
2623.6665 -1041.7045 -100.01247 0.93083483 0.34327042 -0.12534712 0.096587226
2619.177 -1036.4774 -144.34218 0.97007942 -0.046841368 -0.23822626 0.13539934
2630.5627 -1061.4744 -98.114174 0.93729144 0.21467471 -0.27458966 0.078243196
2633.8318 -1078.9852 -98.439041 0.94173622 0.17952108 -0.2844381 0.095516101
2616.884 -1048.4061 -141.31126 0.77752119 -0.44010374 -0.44918758 0.17652076
2638.9001 -1097.3868 -98.621758 0.89730704 0.31560278 -0.30860171 0.12355532
2618.0532 -1046.7231 -151.81171 0.96203512 0.27199709 0.022494162 0.15315278
2626.0339 -979.03705 -200.43512 0.99029607 -0.0090900594 0.13867599 0.10518866
2621.0356 -1011.4003 -197.70807 0.95763224 -0.20828894 0.19888739 0.12683704
2624.8621 -996.27399 -200.73123 0.97940797 -0.14413066 0.14137337 0.1173774
2617.0371 -1033.9775 -152.93909 0.99773568 -0.023243155 -0.063113406 0.13392797
2623.3977 -1044.7557 -108.64209 0.95205486 0.27648777 -0.13094279 0.089862987
2616.3025 -1014.9497 -152.87643 0.99479669 0.038388845 0.094370864 0.13494924
2616.9573 -1003.4967 -157.85098 0.89172524 0.24620152 0.37975106 0.12183083
2633.3452 -1085.8322 -107.05724 0.96539134 0.17259273 -0.19552816 0.13449623
2627.8066 -1061.8013 -109.15753 0.95395714 0.2350543 -0.18632017 0.084878631
2619.9207 -1004.7083 -165.40282 0.97256768 -0.13642912 0.18841241 0.11335783
2627.7515 -985.25006 -210.18079 0.97491115 -0.064986311 0.21289667 0.097688034
2618.4175 -1020.9852 -164.02548 0.99871957 -0.025479781 0.043703366 0.1253428
2616.2759 -1036.9984 -162.89117 0.99944848 0.00050048792 0.033203434 0.13171478
2625.6719 -1002.9413 -211.03975 0.97747254 -0.17469887 0.11843863 0.12680808
2629.3408 -1071.3575 -114.91669 0.96763253 0.19725284 -0.15741222 0.09408132
2655.668 -1098.921 -70.908333 -0.59102243 -0.069927163 0.80361849 0.1528897
2623.7493 -1049.6409 -116.69927 0.95393378 0.27159834 -0.1274548 0.091954179
2651.332 -1080.3944 -68.598839 0.75346345 0.17812677 -0.63290101 0.10857832
2635.7937 -1085.6539 -115.60412 0.93790704 0.33279324 0.097872421 0.1341507
2622.823 -1046.5179 -160.73776 -0.66531003 -0.7213518 -0.19239055 0.18638985
2618.1252 -1021.9643 -191.10599 0.94023693 -0.33875176 0.034666993 0.15584302
2623.4956 -1004.1438 -191.10849 0.96917224 -0.21153499 0.12632556 0.14151861
2640.6167 -983.0332 -234.78546 0.79940403 -0.016433341 0.60056901 0.09100806
2613.6072 -1043.5555 -150.74962 0.9992981 0.032637134 0.01838753 0.15374526
2616.4556 -1028.9419 -151.95009 0.99951333 0.023672776 0.020315394 0.12320675
2620.6035 -1032.2952 -106.27651 0.94946611 0.1881455 -0.25122765 0.11301488
2632.6792 -1080.9993 -106.62595 0.96962637 0.20736642 -0.12970708 0.1215117
2626.865 -1058.0244 -105.85721 0.94791728 0.23927815 -0.21023521 0.077370144
2615.6436 -1008.2687 -150.40306 0.99020833 -0.057311017 0.12729084 0.10018359
2617.5747 -1023.384 -185.90131 0.96846765 -0.24600258 -0.039409794 0.15922448
2641.2991 -976.9953 -235.53479 0.7950477 -0.0053134984 0.60652357 0.10216442
2625.3052 -996.98749 -190.38876 0.966465 0.16424416 0.19740644 0.11261656
2622.4253 -1008.0716 -187.65051 0.96203989 -0.266415 0.059180766 0.15026318
2637.7224 -991.9436 -231.32669 0.81217849 0.012310613 0.58327919 0.090674229
2624.5051 -1009.8901 -208.66699 0.9496274 -0.31235754 -0.025309378 0.10066222
2628.5728 -1008.9127 -217.40274 0.9607498 -0.058770567 0.27111962 0.12081973
2623.1729 -1013.8862 -173.19263 0.97563314 -0.20489377 0.078476161 0.10187235
2632.2454 -991.07678 -220.09596 0.92867857 0.0091969026 0.37077156 0.10588293
2642.8018 -1097.1464 -104.64456 0.7975319 0.59865069 0.074566506 0.1655591
2622.1624 -1037.9142 -101.64098 0.94499236 0.30445784 -0.11956134 0.11210224
2632.6846 -1079.447 -103.58654 0.96711397 0.1867273 -0.17269492 0.11728726
2628.7361 -1060.1185 -102.15866 0.95012659 0.24922574 -0.18747255 0.084443726
2620.5869 -1041.2826 -128.40977 0.98234099 0.16996762 -0.078212455 0.12076274
2619.3706 -1009.9073 -171.80566 0.96413499 -0.2595259 0.055587906 0.11079878
2629.6499 -985.97845 -215.75873 0.93701273 0.031034557 0.34791374 0.087333106
2617.0312 -1030.2678 -172.91344 0.99053878 -0.13057965 0.042212624 0.12552223
2626.5222 -1064.2991 -129.60788 0.95702124 0.27764538 -0.083805531 0.10649264
2626.6694 -1003.7463 -216.09619 0.95258629 -0.19372767 0.23462519 0.1131732
2641.4956 -1078.3979 -81.218903 0.88693976 0.10070477 -0.45077309 0.10170587
2642.9995 -1095.2655 -86.331604 0.86455899 0.29994297 -0.40320218 0.11742558
2620.2327 -992.59198 -172.9063 0.97517657 0.12109531 0.18538238 0.1383948
2621.9045 -1037.2941 -106.38805 0.96362227 0.234217 -0.12874223 0.10248386
2632.252 -1080.5472 -107.39257 0.96637625 0.19426651 -0.16845606 0.11852577
2626.2766 -1056.8717 -106.92207 0.9465667 0.24971974 -0.20408708 0.077278659
2636.2463 -1092.488 -101.54908 0.92613637 0.32105109 -0.19798374 0.15367679
2632.8933 -1076.8416 -99.210403 0.95918053 0.17010783 -0.22591162 0.092186905
2628.8586 -1057.2842 -97.682388 0.93680477 0.23329335 -0.26071262 0.085077718
2621.2642 -1033.3239 -97.277657 0.95164627 0.28416753 -0.11669678 0.1125541
2642.946 -1065.4135 -75.465836 0.84138393 0.12506986 -0.52576667 0.11082855
2643.197 -1081.623 -78.956299 0.80161422 0.1346572 -0.58247924 0.10113268
2650.8303 -1103.864 -78.919495 0.7344237 0.32477209 -0.59594035 0.16830312
2634.3252 -995.04944 -225.0471 0.84121335 0.12641986 0.52571678 0.098763011
2636.769 -980.26404 -228.87915 0.83808929 -0.12509114 0.53099769 0.098728195
2620.3921 -1035.9424 -142.28937 0.96207339 -0.074777827 -0.26234144 0.14383492
2618.1189 -1019.1315 -148.14819 0.93343657 0.29582712 0.2029347 0.12646049
2618.637 -1050.3175 -144.33876 0.97702932 0.092238024 -0.19210881 0.17066233
2621.0347 -1012.212 -192.08325 0.95781118 -0.2870872 0.013366978 0.15189786
2649.8464 -981.85406 -245.0677 0.72048998 -0.048831541 0.69174391 0.1330125
2647.7043 -999.08691 -243.07361 0.76894915 0.051575381 0.63722616 0.12308352
2624.3274 -996.58301 -193.62909 0.97952914 -0.11122339 0.16778566 0.12687889
2615.6836 -1023.4661 -185.55426 0.59376305 -0.61140501 -0.52309597 0.18789665
2626.8723 -1058.9072 -133.882 0.8623805 0.50333482 0.054350261 0.14552678
2616.7913 -1025.8385 -175.61638 0.98756027 -0.14298616 0.06541957 0.12898859
2617.8103 -1035.6831 -132.15451 0.98155659 0.17183702 -0.083777525 0.13301179
2635.9282 -1071.0098 -88.968864 0.91038799 0.12364794 -0.39484793 0.088859163
2612.5042 -1015.5535 -131.41731 0.90731734 0.33571607 0.25312054 0.12985153
2632.0637 -968.77612 -218.68401 0.90069103 -0.13804455 0.41194579 0.10503221
2637.4722 -1086.9735 -92.057419 0.89767247 0.24345657 -0.36730507 0.10110043
2620.2373 -991.25323 -176.4678 0.96160382 0.178203 0.20871466 0.13298215
2630.1523 -983.42389 -218.83617 0.91317862 -0.054120652 0.40395018 0.082836054
2620.0454 -1008.3156 -175.18637 0.97236651 -0.22525828 0.061335687 0.11300299
2635.1709 -1071.8362 -90.494347 0.91368514 0.12784435 -0.38579181 0.092958122
2638.4111 -1090.0729 -92.468529 0.89115173 0.24219897 -0.38365123 0.10290705
2627.2017 -1044.2545 -91.552284 0.89872772 0.26815996 -0.34695634 0.09570834
2633.0266 -1069.5674 -94.995712 0.93230742 0.17788693 -0.31489548 0.082602724
2638.0161 -1091.0233 -93.961021 0.90926635 0.1867009 -0.37199128 0.1100869
2627.6887 -1051.6356 -94.17955 0.93553948 0.33725989 -0.104984 0.091392979
2623.8474 -1006.2212 -207.35208 0.96515781 -0.23843601 0.10779012 0.11362312
2613.5771 -1009.2907 -139.44928 0.96990538 0.1923193 0.14932145 0.10580638
2621.4438 -1008.8615 -188.05283 0.96627772 -0.24059379 0.091771342 0.14045811
2623.7952 -989.79773 -187.33038 0.98491377 -0.090347208 0.1475881 0.14354321
2636.6877 -1093.5118 -99.333717 0.93987501 0.20805065 -0.27083188 0.11952736
2615.6538 -1027.8989 -188.96582 0.95567697 -0.27888921 -0.094352178 0.18888783
2617.6619 -1035.0448 -140.62979 0.99381816 0.013339008 -0.11021557 0.14054324
2618.0437 -1047.3268 -143.06218 0.93456215 0.34179679 -0.098836213 0.15898134
2634.4187 -1075.8094 -95.703438 0.93086863 0.17579806 -0.32027906 0.091365404
2634.3977 -1087.0962 -101.88364 0.96998125 0.15499543 -0.18738401 0.12658429
2631.5229 -1068.7847 -99.934326 0.9589802 0.16807534 -0.22827108 0.081281953
2623.8501 -1040.8262 -101.49276 0.95114446 0.19084188 -0.24270067 0.099962212
2622.3149 -1006.7962 -178.0219 0.96877122 -0.18270966 0.16762903 0.13341025
2619.3503 -1032.6731 -131.0051 0.98180252 0.18990394 0.00057813001 0.11213799
2622.1936 -1049.0359 -130.67775 0.97545969 0.21024027 -0.065401785 0.13024539
2631.9082 -1001.322 -219.96005 0.88460422 0.10151865 0.45515859 0.10602292
2616.7671 -1039.1279 -175.19774 0.98986405 -0.13850294 0.031402849 0.13186277
2633.3774 -986.99866 -223.80324 0.88679773 0.003224873 0.46214655 0.094287254
2619.3337 -1022.0861 -174.72998 0.96436375 -0.26345128 -0.024412991 0.13104796
2640.5632 -1077.4663 -82.870201 0.897488 0.094333552 -0.43083224 0.099063441
2643.2605 -1093.6577 -84.637962 0.86712927 0.23549347 -0.43889597 0.11391597
2628.374 -1071.9692 -128.55974 0.96225435 0.21966758 -0.16066343 0.10659637
2621.8293 -1039.8408 -113.02613 0.95034015 0.2943953 -0.10092079 0.097941272
2617.9351 -1004.0591 -158.4017 0.9796356 -0.17481865 0.098755077 0.10708123
2623.8362 -1051.5662 -114.87344 0.94469672 0.2800692 -0.1706146 0.093884081
2615.2368 -1040.2054 -159.15656 0.99472499 0.070336491 0.074665539 0.13441767
2616.7927 -1024.0978 -159.95045 0.99958247 -0.025776558 0.013056907 0.12980093
2628.2832 -1070.8385 -115.22265 0.9660331 0.22492725 -0.12723117 0.10585591
2626.2004 -1005.7502 -213.78671 0.96907681 -0.2088287 0.13145605 0.1219072
2616.6021 -1041.3138 -164.91205 0.9779551 -0.17546189 -0.11321171 0.15475014
2623.7219 -1044.3612 -161.50623 -0.31797901 -0.91844231 -0.23527236 0.13898581
2620.6816 -1024.332 -166.45605 0.97643125 -0.21147826 -0.04311594 0.11619195
2629.5537 -989.07507 -214.43211 0.95696235 0.049693227 0.28592592 0.09262789
2621.4893 -1008.5801 -169.62474 0.97816569 -0.032831535 0.20521678 0.11900516
2635.8828 -1079.2716 -91.593971 0.90918326 0.1125682 -0.40089169 0.093977049
2615.1851 -1025.9271 -136.1398 0.98975503 -0.090090953 -0.11076346 0.12101127
2631.6299 -1058.1287 -90.76741 0.9201293 0.17315903 -0.35125208 0.078485414
2618.4778 -1045.6283 -136.40149 0.95710516 0.20266078 -0.20707066 0.13163128
2639.187 -1093.4044 -92.049637 0.85891205 0.46483859 -0.2149307 0.11421647
2629.8533 -974.552 -215.18733 0.92555618 -0.18291457 0.33149362 0.10060678
2632.9746 -999.85614 -222.77385 0.91459918 -0.032684904 0.40303856 0.1117886
2635.9885 -1081.8064 -94.451393 0.91691232 0.18432716 -0.3539708 0.096853949
2639.7061 -1097.3153 -97.556335 0.88826907 0.35647503 -0.28966126 0.12170295
2618.0496 -1010.0571 -156.60196 0.98848736 0.014289228 0.150627 0.13692416
2643.1292 -1097.276 -110.84684 0.83640695 0.53624046 0.11344421 0.18085882
2623.2439 -1005.6924 -203.22441 0.97127926 -0.15846349 0.17749915 0.11232989
2617.085 -1026.0034 -155.99557 0.99786276 -0.039504979 0.052050527 0.12521854
2625.8545 -1056.5858 -111.64037 0.95231175 0.26004121 -0.15962751 0.080011852
2631.3628 -1078.0265 -110.13711 0.96063942 0.21264303 -0.17875937 0.10719729
2621.9282 -1019.1703 -198.52139 0.92303652 0.070076548 0.37827614 0.15277548
2616.4277 -1045.6588 -155.18111 0.98169249 -0.073249064 -0.17582501 0.1597438
2642.8135 -1090.6393 -83.570892 0.88398159 0.20164204 -0.42180219 0.11123314
2617.9282 -1018.9508 -174.6817 0.97992468 -0.18905525 0.063290842 0.11316998
2615.7649 -1023.5646 -127.95943 0.98772258 0.15554468 0.014491978 0.12391814
2638.2827 -1067.0323 -83.490326 0.90339661 0.16312583 -0.39656597 0.091596752
2616.8594 -982.23804 -175.25609 0.92001492 0.27509087 0.27910134 0.10958686
2620.7781 -999.6897 -173.94514 0.96873778 -0.21044567 0.13137648 0.12146895
2619.0525 -1043.7502 -129.67209 0.96275073 0.23813707 -0.12806943 0.10754629
2633.6448 -1084.9052 -108.47527 0.96853185 0.22830717 -0.099105366 0.13374309
2627.6248 -1062.5487 -108.13066 0.96353525 0.21108671 -0.16444525 0.083573319
2622.6631 -1042.0173 -108.1548 0.96597332 0.16761179 -0.19698185 0.099021785
2630.3589 -1063.2426 -103.42837 0.95962822 0.1848608 -0.21199091 0.086907811
2634.1318 -1083.8771 -104.35812 0.96467996 0.15257587 -0.21473975 0.1194379
2632.6255 -1077.9376 -102.66178 0.95676148 0.16690208 -0.23822494 0.11119645
2622.1753 -1038.9111 -102.39049 0.93474841 0.34776968 -0.072812259 0.10919769
2629.0674 -1060.2537 -102.20939 0.95180494 0.24013388 -0.19079581 0.08694154
2618.9668 -1010.6417 -166.61919 0.96980089 -0.20973895 0.12448192 0.10679711
2623.0942 -1046.6034 -120.56244 0.94711781 0.3095665 -0.084477201 0.10048828
2647.4629 -1083.4501 -72.909882 0.83314192 0.18480144 -0.52127051 0.11391325
2627.5183 -1067.692 -121.64757 0.95436621 0.2661126 -0.13553315 0.099665016
2628.0027 -988.00006 -210.9994 0.97435874 -0.012522505 0.22465143 0.097358786
2616.2805 -1029.3945 -166.8952 0.99702442 -0.074504189 0.019786038 0.11049032
2650.5256 -1101.7877 -78.355698 0.78536248 0.31727931 -0.53154457 0.15506586
2620.8884 -989.71539 -165.27612 0.97900796 -0.14327469 0.144968 0.13266362
2627.0811 -967.27875 -208.27663 0.96117467 -0.044061571 0.27240005 0.12890486
2616.959 -1028.0092 -119.9934 0.96464509 0.21333304 -0.15475434 0.10650462
2628.8718 -1073.7029 -120.51485 0.96469569 0.21674368 -0.14961404 0.10902265
2649.4438 -1087.4747 -72.111336 0.79545301 0.14774165 -0.58773035 0.12038878
2623.8811 -1051.6371 -119.67099 0.94722462 0.28483588 -0.14708515 0.092377461
2639.0071 -1092.2119 -88.835754 0.86523843 0.27297509 -0.4205319 0.10167763
2634.2754 -1056.1846 -84.757004 0.91087949 0.17372151 -0.37432522 0.089765258
2637.855 -1076.1173 -86.2761 0.89623058 0.11539574 -0.42831597 0.09008576
2618.176 -1013.3217 -154.17946 0.95127332 0.22481309 0.21104051 0.1403178
2622.9355 -1008.1201 -198.24507 0.95833665 -0.27516726 0.076641038 0.12785156
2618.7671 -1028.7822 -152.37863 0.99909019 -0.021264387 0.036968421 0.1386261
2620.4009 -1022.6974 -195.80054 0.96854979 -0.12506227 0.21510632 0.14135316
2625.2302 -990.01337 -197.96873 0.98925042 -0.057531565 0.1344386 0.11318054
2650.9583 -976.15948 -243.33618 0.53540552 -0.028862704 0.84410179 0.10547655
2649.2488 -991.79742 -243.07121 0.65260631 0.031111483 0.7570582 0.11372928
2617.6489 -1046.3998 -149.01892 0.97062624 -0.069768094 -0.23025449 0.16691834
2618.251 -1021.2654 -176.03665 0.98129267 -0.19228289 0.0095944768 0.12640807
2622.6453 -993.40851 -180.78583 0.95122343 0.20176497 0.2333771 0.12634255
2636.6714 -974.65479 -227.59601 0.85559356 -0.068239927 0.51313055 0.098648593
2632.1455 -987.06012 -221.98108 0.89897209 -0.013042193 0.43781173 0.092726097
2622.6025 -1006.7109 -180.19812 0.96876252 -0.17887379 0.17176524 0.13850629
2616.9075 -1038.84 -176.08986 0.996176 -0.076181822 0.042774897 0.12952758
2626.9949 -981.26178 -206.87947 0.98207194 -0.042883717 0.18356378 0.10282972
2624.9646 -1058.4672 -119.62698 0.95946217 0.2202512 -0.175846 0.085553229
2644.5366 -1073.4451 -74.537689 0.84971666 0.15353364 -0.5043897 0.10355473
2651.2053 -1100.4807 -72.535004 0.88178235 0.1484645 -0.44768089 0.13543236
2617.5679 -1032.3038 -119.46242 0.95090359 0.25780246 -0.17123172 0.10508168
2616.9905 -1024.3793 -162.85617 0.99487269 -0.094565421 0.035857406 0.12489945
2626.8936 -968.19336 -209.60858 0.95317233 0.036098503 0.30026564 0.12048019
2613.5945 -1045.58 -163.62717 0.96503925 -0.25351289 -0.066561416 0.1741145
2619.1379 -1005.791 -162.25368 0.98477364 -0.11055946 0.13415492 0.12832199
2630.5637 -1072.6879 -105.38353 0.9534716 0.19028191 -0.23384756 0.086892083
2618.3889 -1028.5333 -104.15655 0.94256341 0.31668416 -0.10623234 0.11801988
2626.0017 -1051.6982 -104.22356 0.93635494 0.28208473 -0.20896798 0.083089724
2627.0564 -983.98627 -206.14703 0.98797727 -0.014362683 0.1539305 0.095376052
2624.5493 -999.69641 -204.05873 0.96843982 -0.14824647 0.200368 0.12851278
2619.0098 -1001.2946 -159.65598 0.97553605 -0.1429787 0.16699263 0.11325182
2625.7627 -966.98059 -205.77318 0.95822388 0.024374653 0.28497881 0.11060936
2617.5625 -1017.998 -158.9706 0.99863124 0.0035403583 0.052183539 0.13085054
2616.2363 -1035.1274 -158.0401 0.99822164 -0.056860998 -0.0179007 0.14526154
2633.6179 -1085.0919 -110.95975 0.9672215 0.23259987 -0.10188159 0.12305605
2624.3542 -1049.6926 -111.24808 0.95017827 0.28486285 -0.12654813 0.091707319
2629.5452 -1069.1758 -109.61281 0.96253425 0.17532359 -0.20685604 0.084888987
2660.0774 -1080.9851 -66.113312 -0.56036496 -0.10792517 0.8211841 0.14644252
2616.106 -1020.7774 -133.87723 0.9980886 0.054115497 0.029844502 0.15463749
2638.4543 -1090.2072 -91.623276 0.89380562 0.32426998 -0.30977491 0.11208424
2616.9746 -1038.1301 -135.38237 0.96803248 0.20169359 -0.14910674 0.13751838
2635.5789 -1074.3198 -90.558228 0.90346014 0.11014263 -0.4142805 0.095321186
2630.5862 -1053.2878 -88.819771 0.92202413 0.25387964 -0.29226115 0.087177262
2631.9392 -1080.3741 -106.12311 0.9764272 0.17759518 -0.12267773 0.1232603
2623.894 -1043.7463 -104.18633 0.94324744 0.26764414 -0.19659829 0.095790222
2629.521 -1065.1006 -103.89664 0.95756114 0.20100944 -0.20657185 0.083037987
2636.7915 -1085.6224 -93.232574 0.91090989 0.21665868 -0.35114408 0.098334029
2630.5208 -1051.7332 -88.232758 0.91932249 0.27186012 -0.28449643 0.084177464
2635.0408 -1069.9933 -90.017067 0.9118191 0.1510057 -0.3818157 0.09062735
2628.8142 -1061.8146 -103.15008 0.95965296 0.21858133 -0.17688511 0.085081354
2631.4055 -1078.892 -105.52395 0.95935726 0.16595475 -0.22823808 0.11412723
2623.3745 -1040.8807 -102.07232 0.93713427 0.29838029 -0.1809658 0.10208909
2623.9407 -984.12286 -188.67241 0.98413485 -0.062299699 0.16612454 0.13365911
2626.5615 -1049.4308 -98.652878 0.9333542 0.27949634 -0.22523716 0.092296816
2644.6868 -989.80273 -240.80116 0.7872591 -0.06713447 0.61295682 0.10216974
2645.6978 -975.94067 -240.86685 0.77658546 -0.020007966 0.6296941 0.10659235
2622.7078 -1000.337 -188.7657 0.97231132 -0.19187245 0.13340047 0.13122562
2648.2507 -962.66937 -240.71146 0.70836413 -0.13387236 0.69303566 0.14394547
2618.4998 -1015.2688 -186.03633 0.97778946 -0.19290921 0.08193779 0.14151448
2634.9106 -1085.2533 -98.071869 0.94848084 0.18111448 -0.25996459 0.11145765
2616.5715 -1022.9705 -143.92714 0.99848843 -0.020667493 -0.050928146 0.12510589
2630.8596 -1067.6392 -98.542168 0.94378734 0.18314905 -0.27517614 0.078554042
2617.4094 -1040.981 -143.05818 0.98900473 0.045890234 -0.14058344 0.1319131
2613.4775 -1003.9125 -143.73141 0.98220789 0.058189027 0.17855445 0.1113883
2617.9756 -1034.3251 -120.54009 0.96029353 0.21783926 -0.17430551 0.097955227
2643.2629 -1068.4325 -76.310272 0.84297395 0.090893321 -0.53022003 0.10517026
2622.4351 -1052.151 -121.36378 0.94177395 0.27060419 -0.19958769 0.10119607
2648.4509 -1090.3717 -75.092369 0.74648666 0.19135758 -0.63729107 0.11632355
2628.9951 -991.2851 -212.55624 0.96699941 0.045909967 0.25060803 0.090965018
2624.2803 -1005.8146 -210.07291 0.96376878 -0.24822347 0.097646713 0.11880134
2621.4883 -1004.8318 -178.57115 0.98534536 -0.15323696 0.074919634 0.13123401
2625.5786 -1059.764 -130.03889 0.9241823 0.37686294 -0.062140282 0.11781667
2616.5051 -1024.7455 -131.5851 0.94819778 0.30120942 0.10096442 0.11599811
2616.7102 -1038.3311 -176.21094 0.9913218 -0.12537274 0.039531503 0.12639722
2635.1646 -1001.6596 -224.70361 0.85019821 0.1337104 0.50919986 0.10270934
2618.7432 -1020.505 -177.16995 0.97917426 -0.20172234 0.022932597 0.12991741
2630.9675 -966.8902 -216.56895 0.87204587 -0.092751645 0.48055506 0.12124579
2631.2256 -989.06958 -218.79848 0.91134411 0.035744242 0.41009051 0.090719566
2627.4951 -1050.1581 -94.871208 0.92722732 0.29030409 -0.23658611 0.095745273
2636.001 -1089.3214 -97.89135 0.93685466 0.21184295 -0.27825505 0.11713759
2632.3875 -1070.9318 -96.102608 0.95296556 0.16778572 -0.25239781 0.083122008
2647.9934 -1098.4707 -80.535873 0.68548924 0.34593859 -0.6406489 0.13720505
2619.4985 -1042.132 -121.55447 0.9614616 0.21133859 -0.17586233 0.10180117
2643.3298 -1079.1912 -78.410988 0.81597173 0.10426925 -0.56861061 0.10174968
2627.543 -1069.6357 -121.24245 0.96206844 0.22709465 -0.15116979 0.11098172
2617.9639 -1031.5394 -120.20052 0.92132181 0.38759446 0.03060559 0.10198212
2617.1028 -1045.7109 -146.54439 0.98541504 0.15676138 -0.06620504 0.14019674
2649.593 -968.0434 -243.35223 0.67439848 -0.049386099 0.73671412 0.13909838
2616.1924 -1012.9182 -146.95879 0.99706399 0.068379514 0.034462817 0.12068709
2618.9116 -1025.713 -189.18369 0.96201605 0.11346342 0.24829665 0.17371328
2622.7415 -994.22388 -191.34789 0.96696341 -0.22686119 0.11625742 0.15027791
2616.3542 -1031.0291 -147.09248 0.99744791 -0.021375636 -0.068123482 0.13542302
2643.27 -979.14264 -237.95816 0.72243094 -0.019557217 0.6911664 0.094775438
2619.551 -1011.4004 -190.7186 0.96127534 -0.19975965 0.18985718 0.12883601
2624.28 -1047.8848 -118.62663 0.94861472 0.31381586 -0.040617332 0.092859171
2627.6741 -1067.36 -117.50685 0.96403682 0.17895766 -0.19648716 0.10393868
2650.7661 -1094.7054 -74.792595 -0.68481445 -0.23541272 0.68964487 0.13103963
2612.5659 -1022.5803 -118.36362 0.86214048 0.50171232 0.070700347 0.095407747
2647.8333 -1077.2201 -71.200813 0.81518406 0.1537762 -0.55841547 0.10621389
2619.3232 -1048.2054 -173.05954 0.99196452 0.12151315 0.035227705 0.13454026
2630.3362 -999.02521 -218.14044 0.9384408 -0.010115102 0.34529203 0.10701191
2617.3906 -1025.0564 -171.97827 0.98825002 -0.14261684 0.054975718 0.11868432
2633.1125 -982.88501 -222.11717 0.88641971 -0.012925056 0.46270192 0.095774017
2623.6978 -1055.6776 -127.72018 0.9528532 0.28046274 -0.11580782 0.1057855
2617.8389 -1031.489 -125.88845 0.97410482 0.22043468 -0.050282869 0.1169335
2620.8496 -1006.2054 -171.54831 0.97399849 -0.18646757 0.12867311 0.11318239
