# .PCD v0.7 - Point Cloud Data file format
VERSION 0.7
FIELDS x y z normal_x normal_y normal_z curvature
SIZE 4 4 4 4 4 4 4
TYPE F F F F F F F
COUNT 1 1 1 1 1 1 1
WIDTH 533
HEIGHT 1
VIEWPOINT 0 0 0 1 0 0 0
POINTS 533
DATA ascii
2807.6936 106.17375 -112.27154 -0.25764072 -0.92152786 0.29052988 0.18000263
2806.3027 63.322475 -197.89989 0.7271176 0.29096985 0.62180108 0.16096352
2798.4124 103.77478 -113.69848 0.86302781 -0.2583952 -0.4340679 0.19324374
2814.0229 74.650688 -208.44528 0.79918706 0.14121071 0.58425981 0.17285694
2789.1384 81.984001 -158.77783 0.98521084 -0.10953534 0.13176361 0.14192072
2787.8645 70.612839 -159.39192 0.98179054 0.18502238 0.043059286 0.13082741
2820.2124 45.505497 -205.72188 0.6614871 0.27581692 0.69739503 0.061050691
2794.0566 92.350616 -113.92713 0.7984913 -0.58449644 -0.14413728 0.17072655
2838.3599 112.63196 -65.946709 -0.66329366 -0.19555871 0.72235608 0.20270824
2786.9487 96.088791 -160.14313 0.88830131 0.41906941 -0.18788719 0.1436834
2801.1934 74.637016 -196.68208 0.7827239 0.6207242 0.045219187 0.19886458
2803.9656 67.203751 -194.30972 0.80175143 0.16919601 0.57320791 0.15162036
2806.8093 53.890858 -191.18425 0.78074902 0.44611672 0.43750522 0.17587429
2796.1199 104.257 -115.87212 0.82582265 -0.48238111 -0.29210517 0.18867925
2838.188 103.48135 -69.60144 -0.57914132 -0.23466636 0.78072208 0.2009813
2783.2412 77.747635 -114.12569 0.92276645 -0.36416417 -0.12604187 0.17860276
2793.2798 94.507904 -114.05917 0.87328637 -0.39728776 -0.28201663 0.17687054
2810.4426 94.809319 -92.14901 0.71720833 -0.19222495 -0.66982216 0.10427724
2782.6934 73.051071 -130.83368 0.96481884 -0.17584327 0.19545783 0.12885207
2788.8833 99.311226 -130.90433 0.94982523 -0.27195665 0.15450424 0.12861179
2814.3665 110.3852 -90.875 0.75320184 -0.13755403 -0.64324635 0.10419998
2787.407 86.504227 -131.90584 0.92022067 -0.35846433 0.15715353 0.14722762
2790.4043 92.792747 -156.23888 0.71483517 0.62115866 -0.32120493 0.15231445
2793.4468 68.77935 -160.53786 0.97504294 0.084265187 0.20540355 0.14531364
2806.7939 75.310997 -198.93083 0.74532813 0.034118511 0.66582423 0.18572265
2811.2676 60.87735 -202.05948 0.69909763 0.30753529 0.64551109 0.13169372
2793.8425 82.931763 -160.00197 0.97989327 0.19952238 0.00018986918 0.13460279
2805.2275 87.901062 -88.475166 0.71618772 -0.4713873 -0.5146544 0.13557696
2815.2307 105.23592 -88.553345 0.75853491 -0.13699105 -0.63707 0.10001756
2814.7324 120.49043 -88.217934 0.75366414 0.099027015 -0.64975691 0.11032066
2826.4314 63.914249 -216.89644 0.60075212 0.22590107 0.76685435 0.064034715
2789.0784 94.758644 -117.58463 0.91217637 -0.38388026 -0.14342318 0.14841861
2786.1169 83.404953 -116.74171 0.93502349 -0.34093314 -0.097445481 0.17889246
2773.3223 67.607498 -113.87979 0.85024786 -0.51005697 0.13007876 0.14362608
2827.3501 122.15662 -76.25042 0.77054262 0.01900572 -0.63710505 0.15440582
2829.1462 107.89777 -75.376022 -0.68769932 0.016956085 0.72579759 0.14971668
2792.252 106.21824 -117.8848 0.89661092 -0.42664832 -0.11857531 0.16179565
2838.4004 93.920464 -68.872726 -0.60074884 -0.029868096 0.79887968 0.22428215
2810.2151 107.32457 -95.586197 0.7292164 -0.19658118 -0.65543824 0.11169437
2814.5981 120.86931 -87.262367 0.7822206 0.30853876 -0.54123449 0.10249714
2810.3125 94.536179 -92.122894 0.73384154 -0.25934514 -0.62786674 0.11529485
2804.8997 55.768875 -189.95468 0.82573688 0.33421546 0.45437714 0.15314108
2805.6194 69.913734 -195.83556 0.87986284 0.12949592 0.45724413 0.1615041
2800.9885 81.952415 -196.43198 0.84552598 0.4643693 0.2635279 0.14551328
2790.7251 92.505371 -145.29362 0.96074766 -0.25082278 0.11854041 0.14529823
2809.3604 111.47472 -101.2976 0.69689143 -0.26910344 -0.66477489 0.15209021
2803.0571 61.218536 -190.37556 0.8477028 0.17522898 0.50069433 0.15426503
2789.5708 80.878471 -145.93306 0.97169679 -0.2069215 0.11396863 0.15612002
2787.645 65.830673 -145.26329 0.9791643 -0.045487788 0.19790952 0.14433424
2798.3853 75.65641 -189.18074 0.86828405 0.16836368 0.46662247 0.15557055
2796.8691 84.757889 -99.195465 0.71513748 -0.47928569 -0.50878638 0.16289271
2810.8113 101.21329 -95.764885 0.79151428 -0.28306621 -0.54164445 0.13310635
2806.8069 49.777828 -188.27757 0.83084494 0.3974511 0.38952443 0.16899507
2781.4397 75.802086 -116.76833 0.9183445 -0.3947475 0.02859672 0.18126443
2798.2568 76.411575 -196.5041 -0.59911031 -0.79407793 0.1025039 0.16880779
2807.1924 71.740196 -199.18449 0.83042556 0.11936292 0.54419285 0.16183409
2792.1099 93.66362 -150.90572 0.98164445 0.14756089 -0.12083013 0.16135296
2810.3386 56.820824 -198.44107 0.81164563 0.21985134 0.54119933 0.14975141
2792.2478 79.760056 -152.9429 0.98429257 -0.11079616 0.13744967 0.14917614
2787.1448 81.80851 -112.4032 0.72599989 -0.22268257 -0.65064323 0.18060856
2832.1445 110.21204 -71.990944 0.74873459 0.13870202 -0.64819616 0.15995206
2832.8643 96.730148 -74.505135 -0.62469465 -0.15924345 0.76445937 0.1624544
2829.217 123.47886 -75.965919 0.7224378 -0.072164945 -0.68765968 0.17748436
2789.9478 91.890953 -116.28098 0.87435955 -0.39127079 -0.28705853 0.18242699
2791.6169 103.44695 -117.74575 0.88324475 -0.38874018 -0.26222077 0.15711878
2832.7122 117.22737 -70.677513 0.71112603 0.094430983 -0.69669402 0.17177367
2827.9102 102.67271 -76.161812 -0.63608658 0.035226304 0.77081317 0.14694555
2783.9319 78.762367 -114.35072 0.90874994 -0.41230726 -0.06462425 0.18825778
2793.4182 85.304352 -158.10587 0.99665534 0.080789581 0.012294962 0.13830806
2808.8604 61.507618 -199.1582 0.76226491 0.23644879 0.60253149 0.15193526
2793.3618 70.161247 -159.10144 0.98106122 -0.028057877 0.19165492 0.14957875
2809.7283 76.123772 -203.42659 0.77873421 0.13236219 0.61323184 0.16653815
2812.8625 47.124889 -197.28404 0.69757468 0.41929048 0.58102071 0.12255183
2800.0837 102.5085 -108.80292 0.7549175 -0.34239674 -0.5593425 0.1765181
2791.6265 87.542183 -110.08767 0.72807258 -0.29267171 -0.61988193 0.17692254
2800.8074 113.90668 -112.81476 0.71226704 -0.37939957 -0.59053499 0.20877172
2822.5781 106.33744 -83.282181 0.78073698 -0.076991148 -0.62009847 0.10800668
2798.7031 63.404503 -178.20993 0.96399343 0.069189474 0.2567673 0.15185359
2792.0042 77.810425 -172.6127 0.97712815 -0.016833909 0.21198395 0.16008689
2791.6692 83.782982 -170.58464 0.68076378 -0.64524847 0.34672049 0.14799432
2798.0508 102.63153 -127.16325 0.31155995 -0.87438023 0.37200749 0.17932235
2794.5728 101.05331 -131.95311 0.95579553 -0.29374114 -0.013077777 0.17479886
2789.4722 86.730865 -131.16254 0.89797002 -0.42956257 0.095529236 0.14990354
2819.8662 72.01416 -210.07487 0.68340641 0.011169885 0.72995263 0.11368021
2820.925 55.310093 -209.98059 0.65558738 0.21975793 0.72243452 0.070926502
2800.165 82.54567 -195.86664 0.86465168 0.21793109 0.45264059 0.19949825
2805.9031 66.178535 -196.33714 0.79608947 0.15739222 0.58435369 0.14646325
2812.1831 114.81335 -96.099724 0.77681649 0.030100757 -0.62900722 0.14399168
2791.8796 74.982727 -184.34253 -0.010468574 -0.87068111 0.49173656 0.18709804
2800.573 70.121368 -189.72173 0.88366163 0.18714757 0.42908961 0.16339281
2789.0579 75.176659 -143.19594 0.96296787 -0.18054336 0.20024215 0.14956342
2811.8088 102.82605 -95.115623 0.7867012 -0.3091633 -0.53434002 0.12214734
2792.04 90.372765 -144.08969 0.98139787 -0.18665868 0.04490874 0.14683838
2798.0334 86.440079 -97.193024 0.69884992 -0.57481402 -0.42567313 0.15758388
2794.9495 101.43253 -142.73421 0.90112114 -0.38887522 0.19172062 0.17550099
2804.8088 55.721737 -189.10464 0.84388167 0.33671612 0.41771522 0.15708473
2792.0559 99.123383 -126.65426 0.91874236 -0.39329657 0.03507632 0.16737154
2826.386 111.19154 -78.666695 0.73451716 -0.038929872 -0.67747253 0.12473509
2825.3828 97.294083 -78.716385 0.73907542 -0.060089413 -0.67093724 0.13059969
2781.0342 73.032219 -124.98468 0.87662685 -0.42760533 0.22063333 0.155588
2788.1628 87.446014 -126.7889 0.8959204 -0.44017178 0.059794929 0.16041464
2843.6006 110.72829 -66.175926 -0.41823798 -0.2844291 0.86265695 0.18508725
2789.095 87.210648 -113.19276 0.88534039 -0.38687107 -0.25788203 0.19244288
2796.6089 107.88556 -115.8047 0.7312898 -0.61755258 -0.28955844 0.20680985
2794.6113 99.496964 -114.55076 0.8434633 -0.37624475 -0.3834182 0.17029393
2775.5364 73.623489 -110.7031 0.73720521 -0.66048026 0.14245805 0.16944505
2799.8928 62.434677 -182.69916 0.91976666 0.24676378 0.30518335 0.15636557
2795.6831 78.265587 -181.44969 0.93996614 0.14832813 0.30734745 0.15411457
2797.2773 104.2494 -138.04532 0.90876436 -0.41703543 0.015125906 0.17546809
2786.53 73.864136 -138.07874 0.84964693 -0.45643708 0.26413122 0.13176993
2794.3391 90.121132 -138.27544 0.97083241 -0.23776299 0.030874528 0.1232848
2800.5635 104.07848 -124.30507 0.19618471 -0.91236496 0.35930738 0.1883079
2787.908 86.504944 -128.7251 0.88622391 -0.45561925 0.083775327 0.15415902
2793.9497 100.38576 -128.86198 0.9251864 -0.3781333 0.032331415 0.17342465
2823.6318 96.894821 -78.494278 0.73941195 -0.26098838 -0.62060857 0.12490292
2822.7932 109.03775 -82.81823 0.744012 -0.13586633 -0.65420675 0.11545827
2778.7532 69.958038 -126.40707 0.85868746 -0.45401743 0.23774774 0.1342783
2802.0222 69.004471 -191.98688 0.84726501 0.17122236 0.50281692 0.15381846
2807.4604 53.138474 -192.74585 0.84661144 0.25463414 0.46734416 0.15165591
2795.1619 97.946495 -113.80463 0.85249043 -0.41543365 -0.3172932 0.17695963
2798.6187 107.86945 -115.78322 0.79381484 -0.53456771 -0.28999195 0.2072472
2787.6428 84.171318 -113.33333 0.87855309 -0.44313884 -0.17824812 0.19063161
2800.7974 53.378006 -179.67032 0.94602168 0.11310218 0.30372822 0.14170711
2837.481 46.403511 -224.70717 0.7379446 0.20106685 0.6442126 0.034449358
2794.3362 84.660782 -178.81503 0.94788086 0.27218184 0.16564687 0.18071915
2797.6716 68.873795 -179.40051 0.94755703 0.20027265 0.24905138 0.14666267
2790.8838 64.45034 -154.25407 0.97574604 0.11314005 0.18740077 0.18544394
2786.3804 84.083847 -112.13725 0.78192556 -0.62202418 0.040968146 0.17762171
2791.8535 91.452599 -154.83255 0.98046678 -0.1880812 0.057535607 0.16365236
2790.6379 78.022118 -155.04181 0.9915722 -0.060592063 0.11451264 0.1550331
2843.3735 104.62857 -67.792664 -0.44429547 -0.26342767 0.85627532 0.1878287
2807.1343 61.825954 -197.73851 0.76678449 0.30373061 0.56549919 0.15987
2796.1416 97.414238 -111.64631 0.84437364 -0.40743944 -0.34788832 0.17484069
2798.1123 71.984688 -191.25108 0.74648201 -0.062573954 0.66245687 0.16241194
2800.2112 109.43796 -113.79057 0.80385828 -0.39102459 -0.44823167 0.19347697
2796.9761 77.807343 -184.36206 0.91916615 0.33457297 0.2078329 0.15408275
2800.6055 101.77936 -124.93536 -0.17287473 -0.8822757 0.43784001 0.17670864
2793.0159 78.994095 -174.41196 0.96819973 -0.00057082513 0.25017786 0.17197035
2818.9739 105.66912 -86.49334 0.75919336 -0.16786326 -0.62884605 0.10823549
2780.4961 71.376511 -130.18135 0.76971495 -0.57514715 0.27702832 0.13133249
2787.8484 84.554749 -130.90874 0.88147408 -0.46261406 0.094824649 0.14813228
2793.1311 98.201942 -130.89644 0.9355188 -0.35033977 0.045459691 0.1643362
2794.9424 84.749939 -171.78943 0.54728246 -0.72921365 0.41076687 0.16621412
2793.1245 68.731087 -173.82123 0.91510743 0.30692297 0.26148933 0.13571475
2822.0181 105.41492 -82.632164 0.745718 -0.14456861 -0.650388 0.11826962
2815.0515 91.426559 -86.40741 0.73492175 -0.052342411 -0.67612892 0.12068439
2821.2354 118.96025 -84.591637 0.79806292 -0.13307972 -0.587695 0.12242676
2805.7 112.47465 -108.02652 0.57067704 -0.64097017 -0.51330787 0.19429281
2800.6128 103.69668 -106.76263 -0.67077446 0.27526805 0.68868655 0.15310125
2786.0432 72.480843 -145.6568 0.99553287 0.031821411 0.088891342 0.13287605
2800.3682 91.596222 -103.44675 -0.67337853 0.1987399 0.71208411 0.14913289
2789.7324 65.298225 -153.10274 0.75270307 -0.51154113 0.41444394 0.15120728
2788.5676 96.022736 -146.56828 0.96429789 -0.26327333 0.028577836 0.14785498
2805.126 106.46528 -117.71336 0.0095142797 -0.94615698 0.32356822 0.18255338
2793.4475 99.946693 -120.85876 0.90148318 -0.43255156 0.015072773 0.17959252
2788.0789 87.871033 -121.1194 0.92203379 -0.386502 -0.021676553 0.17257966
2781.4019 75.75927 -120.95033 0.85304636 -0.51106882 0.10545415 0.16482857
2795.9082 74.514366 -168.19603 0.97259957 0.13026941 0.19256167 0.14426628
2790.9048 86.827827 -164.65138 0.83450145 0.53317887 -0.13902394 0.15418391
2797.3987 59.480732 -165.73402 0.93077147 0.31990278 0.17699343 0.16016965
2823.1309 67.820847 -214.05206 0.63146871 0.13016923 0.76439732 0.092532948
2827.3279 51.801723 -214.72137 0.66830587 0.19715394 0.71728486 0.043492965
2790.5864 89.174416 -163.487 0.99309319 0.037766796 0.11108383 0.17129235
2839.22 104.39214 -66.393806 0.71377921 -0.03187912 -0.69964486 0.21578428
2798.9551 103.46172 -114.99726 -0.59017915 -0.63151169 0.5028733 0.23118284
2791.7759 88.4617 -120.06216 0.79766846 -0.60305715 0.0068642814 0.14901885
2792.5725 75.227791 -163.73915 0.97659439 0.14147574 0.16201223 0.14352782
2794.8081 63.766281 -163.05887 0.91893959 0.37338081 0.12703088 0.15510865
2799.0042 101.38884 -117.26606 0.88574642 -0.35353285 -0.30077872 0.16335624
2815.0991 70.203537 -207.04938 0.73068595 0.070852093 0.67902726 0.16496328
2784.7493 79.437866 -125.33117 0.83631456 -0.5342626 0.12305064 0.1548811
2795.7192 104.84521 -125.29007 0.90824461 -0.41469896 -0.055825785 0.1914048
2789.8386 83.807503 -168.68668 0.97053945 -0.16574349 0.17487803 0.14803222
2825.0212 99.339973 -79.352654 0.73569179 -0.062860608 -0.67439318 0.12395196
2789.2729 73.731537 -168.55128 0.97540998 0.12724844 0.17995338 0.12826832
2790.4617 91.931725 -125.05197 0.91717339 -0.39801762 -0.019362547 0.16346842
2798.907 105.77081 -114.72647 0.89129418 -0.17357272 -0.41888803 0.19875412
2834.7791 108.19305 -69.391815 0.75222194 0.14380771 -0.64302528 0.18483388
2791.4829 83.809479 -161.84315 0.99509662 -0.07636039 0.062862881 0.1478083
2791.9421 91.454361 -117.43619 0.89079738 -0.42367804 -0.16424657 0.18337312
2791.9951 70.397583 -161.2545 0.97836071 0.09736345 0.18256678 0.1484161
2819.0168 65.708618 -209.84738 0.72752833 0.1068915 0.67769963 0.10586647
2795.1558 64.798347 -163.14403 -0.63717961 -0.76551515 0.089379579 0.16622058
2787.761 83.374146 -119.50271 0.69325137 -0.70618236 0.14390643 0.14851134
2775.3459 71.81443 -113.91341 0.79062641 -0.57951385 0.19767052 0.14900942
2804.52 106.31735 -113.26841 -0.11980672 -0.94572496 0.3020772 0.19148125
2791.4307 98.771614 -117.51009 0.90289372 -0.40482229 -0.14457464 0.15621299
2831.1824 98.96273 -75.217003 -0.61911386 -0.14251126 0.77226198 0.14818828
2830.2261 111.17628 -74.280121 -0.70229077 -0.029295277 0.7112872 0.15674356
2787.6763 86.579376 -116.53387 0.91642964 -0.39080393 -0.086191669 0.17843314
2791.3428 70.596321 -165.44772 0.94522673 0.29968938 0.12935512 0.14971022
2778.5723 74.377731 -120.13297 0.7299583 -0.64471167 0.22695309 0.13836777
2792.7061 63.849483 -166.91141 -0.70237768 -0.71178073 -0.0058124415 0.12037415
2791.2502 80.308838 -165.88531 0.98759842 -0.082735464 0.13343255 0.15801723
2795.7305 103.68071 -121.41105 0.92955959 -0.27880362 -0.24122086 0.19606239
2790.312 89.656372 -163.91286 0.90725023 -0.36418357 0.21039794 0.15803781
2794.3035 93.770775 -120.24377 0.8633098 -0.47360384 -0.17434335 0.15994868
2801.2275 108.34479 -115.80744 0.75030708 0.50844383 -0.4225212 0.18089867
2791.082 94.176025 -148.62379 0.98448503 -0.15961882 0.072876856 0.15633017
2804.0662 102.36277 -104.00447 0.76700413 -0.26570183 -0.58404386 0.15864152
2806.9172 115.59795 -105.15826 0.73236609 -0.21026435 -0.64763325 0.16764185
2790.0012 80.999832 -148.99982 0.97955 -0.13860519 0.14584377 0.15741676
2793.7891 86.118187 -105.84575 0.73558325 -0.41201195 -0.53773922 0.1694622
2788.8022 68.657799 -150.68222 0.91041595 -0.29037842 0.29465768 0.16974251
2801.2473 64.004517 -191.87938 0.84938329 0.36782405 0.37848845 0.15993075
2796.322 74.642982 -187.22264 0.8233636 0.046758916 0.56558466 0.15246548
2807.916 52.196823 -191.65251 0.79619026 0.46407044 0.3882263 0.17594425
2802.3828 95.452049 -102.71432 0.8105939 -0.36734986 -0.45606092 0.16610473
2789.9243 98.38559 -151.40736 0.96219689 0.25567216 -0.093855917 0.16879602
2806.3445 108.0062 -103.50996 0.78843552 -0.17040204 -0.59104365 0.16467986
2788.0303 70.825485 -150.48465 0.99532634 0.081915334 0.051140033 0.1402645
2808.2141 67.047935 -199.85042 0.80643129 0.18045917 0.56311899 0.14922422
2790.9219 85.012024 -152.00764 0.98375392 -0.15149298 0.096322723 0.15441495
2816.437 51.025337 -203.81516 0.76716781 0.20985985 0.6061455 0.10577821
2795.448 89.265175 -106.62407 0.76819021 -0.3690252 -0.52316749 0.17971712
2799.8762 112.41998 -112.55482 0.72100049 -0.37538239 -0.58244854 0.20167625
2779.2737 78.049004 -107.35931 0.6640172 -0.74257904 0.087507643 0.18333215
2800.7239 102.69514 -107.58287 0.74009597 -0.31167743 -0.59591538 0.16950393
2847.2561 112.85117 -66.874504 -0.24602513 -0.16672592 0.95481628 0.15293607
2828.8936 122.27413 -73.66642 0.74631327 0.10804151 -0.65676749 0.1726056
2831.592 94.047798 -73.741135 -0.67467374 -0.020255607 0.73783815 0.16260476
2828.8257 107.73418 -75.746696 0.71355522 -0.049580507 -0.69884247 0.14265992
2790.532 95.962807 -117.85886 0.91766119 -0.388666 -0.082684174 0.16071182
2794.3481 105.64554 -118.26086 0.80516642 -0.59276009 -0.018508853 0.17876269
2773.877 69.244179 -115.92948 0.79517937 -0.56522608 0.219566 0.13681358
2787.3523 85.308945 -118.0294 0.89031005 -0.45494351 -0.019349758 0.18124592
2802.1155 64.342529 -195.90004 0.74066859 0.28936014 0.60636687 0.14029022
2796.2766 65.550781 -163.28822 0.12553939 -0.91424817 0.38521439 0.14922988
2798.1919 107.587 -110.13829 -0.52360833 -0.66827852 0.52842987 0.22508965
2790.4404 91.025879 -157.18796 0.86586547 0.45519242 -0.20754951 0.14218362
2797.873 102.18291 -114.03471 0.87405527 -0.25053614 -0.416244 0.19178253
2791.8005 66.99044 -158.03725 0.98194003 0.047033384 0.18325306 0.15502116
2837.6482 108.86709 -67.304253 -0.67767817 -0.14345592 0.72122997 0.20765422
2793.7249 91.789505 -115.29162 0.7917372 -0.6042881 -0.089376114 0.166807
2791.8813 81.020317 -159.159 0.99868172 -0.0065053338 0.050916046 0.14209056
2824.646 31.905262 -207.41054 0.64327896 0.17215922 0.74602503 0.05033021
2799.8242 110.69657 -113.3876 0.76224875 -0.36395946 -0.53526658 0.1945952
2788.157 84.322807 -110.24258 0.84923011 -0.4970918 -0.17806716 0.18152848
2797.5498 98.741142 -110.29968 0.81141478 -0.38205329 -0.44231361 0.18118225
2799.3621 109.57639 -127.88756 0.93212527 -0.36179167 -0.015789824 0.19222166
2825.554 102.45387 -78.984016 0.7399646 -0.075539701 -0.66839069 0.11697492
2825.1162 116.04351 -78.795708 0.74964952 0.14681754 -0.64534503 0.12051938
2787.7021 81.427147 -128.21153 0.80814147 -0.56809974 0.1554672 0.13951823
2792.6292 93.717018 -126.86538 0.93037355 -0.36549133 -0.028655257 0.15603514
2832.4124 49.099583 -219.63895 0.7403208 0.17874014 0.64805639 0.030434329
2797.9441 60.738594 -171.62427 0.8673979 0.46700063 0.17184664 0.15871181
2793.8035 73.39299 -171.93283 0.9571991 0.22975717 0.17601581 0.15027766
2794.4678 85.882774 -172.38919 0.96967876 -0.046062466 0.24000293 0.17331561
2793.8701 76.115349 -156.62158 0.96876562 -0.097081415 0.22818495 0.1372932
2793.2458 90.396248 -153.9967 0.99763006 0.068804778 -0.00037505644 0.14458869
2817.1565 51.811539 -204.65923 0.78302425 0.19213341 0.59157228 0.081940658
2792.8445 62.647446 -158.87733 0.85516524 -0.24728499 0.45556837 0.14148664
2810.3093 67.672974 -201.87047 0.81702268 0.099304251 0.56798995 0.14736915
2819.5398 36.822906 -201.4577 0.68395233 0.26325101 0.68037355 0.071000688
2823.9905 115.8607 -81.546417 0.7745651 0.035851665 -0.63147724 0.11094881
2785.3342 79.857506 -128.49146 0.93630594 -0.32083631 0.14281188 0.14966257
2819.521 101.8909 -84.429024 0.76200211 -0.15959808 -0.62759954 0.10626856
2778.2043 69.923172 -130.40932 0.65267307 -0.68246388 0.32903028 0.11246008
2790.6521 93.11055 -128.54506 0.9227159 -0.37477037 0.090236165 0.15082164
2791.9944 102.0727 -127.96081 0.84337151 -0.531385 0.079715297 0.15785991
2804.6672 71.632057 -196.33965 0.85918868 0.13551138 0.49338773 0.17890847
2808.4453 54.860756 -195.35561 0.823636 0.2067796 0.5280776 0.15030485
2834.8293 47.496006 -222.7222 0.77075672 0.17894851 0.61148304 0.03063344
2795.3081 80.710869 -173.54298 0.82552856 0.562801 0.041924544 0.15813255
2797.5664 70.43132 -175.2224 0.95171559 0.17702553 0.25079751 0.13989681
2799.0469 54.326145 -174.68169 0.95667982 0.10829084 0.27025333 0.14553951
2784.9924 63.76281 -151.30928 0.8076545 -0.47337312 0.35158512 0.17132702
2802.5356 72.500137 -194.11128 0.83982998 0.092608809 0.53489172 0.16610995
2806.6704 102.39998 -101.83258 0.77142328 -0.20263456 -0.60319597 0.1568687
2798.4368 90.921097 -102.49491 0.73573595 -0.5516448 -0.39291292 0.15523124
2814.4968 43.786385 -195.71422 0.76963228 0.3931661 0.50307715 0.1543508
2790.6892 77.673248 -150.59186 0.96524483 -0.19628514 0.17255314 0.1518341
2791.4883 90.721222 -149.77136 0.97188818 -0.18204631 0.14930658 0.15509437
2809.5503 57.1716 -197.62425 0.79971164 0.24941301 0.54612672 0.15729675
2807.9753 116.40549 -105.07115 0.71098268 -0.28134847 -0.64447391 0.16993473
2804.2329 48.396912 -181.73431 0.88072658 0.30059987 0.36600599 0.1553352
2798.9075 105.9338 -134.40331 0.92128283 -0.38109112 -0.077508025 0.14624113
2787.1184 75.500328 -136.0652 0.82269681 -0.48961422 0.2888734 0.12929918
2794.6614 90.565384 -135.04787 0.97055674 -0.24083072 0.0044937874 0.13025327
2801.2429 63.492779 -183.50061 0.93590051 0.18184662 0.30169857 0.14804752
2795.9858 79.794212 -180.26894 0.94851321 0.19248126 0.25154245 0.15747175
2795.6331 81.142609 -182.78064 0.92419267 0.20817623 0.32020396 0.16148324
2815.342 107.40754 -91.549492 0.81881225 -0.17310441 -0.54734021 0.10354998
2783.8945 69.109688 -137.77345 0.93192184 -0.21303725 0.2934908 0.11911946
2799.2871 66.65081 -184.65164 0.9181208 0.18718119 0.34930989 0.15279587
2793.3889 98.690216 -139.93466 0.97499019 -0.21746267 0.045870561 0.1628294
2810.2017 118.56805 -98.977203 0.72876829 -0.098319709 -0.67766511 0.15303339
2804.1187 90.285782 -97.884262 0.72460967 -0.2442627 -0.64441955 0.15268524
2790.6575 85.439919 -140.2395 0.9369244 -0.3069855 0.16713034 0.13878015
2803.4294 54.200695 -183.15219 0.85559708 0.4228546 0.29857606 0.15477733
2782.3982 77.262482 -116.81287 0.9190523 -0.39321789 0.02687983 0.17845589
2789.6929 101.47319 -119.13945 0.92739898 -0.34884843 -0.13504039 0.13804564
2788.4546 90.689941 -118.42679 0.91988897 -0.3601459 -0.15523937 0.16993593
2824.8071 100.92888 -78.17453 0.7357071 -0.11576472 -0.66733325 0.13179635
2826.1782 115.75935 -78.257828 -0.70230925 0.027356302 0.71134615 0.13545907
2770.2629 67.747177 -117.64291 0.68222344 -0.68616313 0.25249028 0.14048867
2799.4685 100.3578 -107.29678 0.69679075 -0.25607321 -0.67000687 0.16769271
2796.4604 87.365822 -104.22929 0.72606122 -0.3152611 -0.61110193 0.16824755
2777.8174 76.862038 -102.98379 0.60639369 -0.79515183 -0.0045033162 0.18863279
2799.1516 110.79556 -110.37935 0.69245154 -0.35715652 -0.62685734 0.1611992
2831.3679 118.06634 -71.327629 0.7400685 0.1334582 -0.65915668 0.16892417
2828.6721 103.73184 -75.800148 -0.69692999 0.040000368 0.71602273 0.14351255
2792.3572 92.161407 -143.04121 0.96802807 -0.24304608 0.062050607 0.14681299
2798.9229 85.934021 -99.763336 0.68226749 -0.37822849 -0.62566304 0.1549411
2789.176 70.832092 -148.2074 0.60663754 -0.68481046 0.40376419 0.13321783
2810.5183 116.6002 -100.42545 0.71599108 -0.18852848 -0.67217094 0.16486882
2799.4338 72.283852 -189.21082 0.86318004 0.17087975 0.47510028 0.14938901
2806.7427 57.249077 -193.58528 0.84519702 0.14907667 0.51324278 0.13635205
2810.2617 102.89129 -96.740082 0.74803919 -0.24348603 -0.61737502 0.13807467
2790.021 77.874191 -143.67197 0.96368426 -0.21172218 0.16274615 0.14861125
2794.3677 61.345707 -161.86241 0.84710467 -0.31646919 0.42692032 0.14336586
2814.0908 47.590134 -200.27519 0.75373322 0.21274275 0.62179315 0.11811408
2796.4045 73.292633 -159.15892 0.96971387 -0.022529369 0.24320258 0.11830259
2808.9456 63.447052 -199.59491 0.79697722 0.18312943 0.57557875 0.14983584
2802.7573 90.502716 -97.411072 0.72263157 -0.48279798 -0.49468142 0.14967637
2789.6685 82.680077 -143.77216 0.97339487 -0.18663771 0.13292398 0.15413129
2802.3948 55.318138 -186.18816 0.79461932 0.48298585 0.367838 0.16304852
2807.2402 101.17258 -100.30785 0.72906327 -0.1655823 -0.66411537 0.14707515
2787.5669 70.180237 -144.87921 0.91910571 -0.3159734 0.23538373 0.1534263
2798.3811 65.791428 -186.75778 0.87941664 0.2616787 0.39768156 0.14865206
2795.8809 77.169777 -184.5495 0.87551415 0.015043581 0.4829582 0.16573822
2810.2437 116.15455 -99.432259 0.73108929 -0.040992294 -0.68104923 0.16718122
2792.3838 95.814789 -143.60817 0.96176803 -0.26002416 0.085963018 0.15369678
2811.1106 101.12801 -93.669876 0.73680288 -0.15629688 -0.65779388 0.11530443
2799.7715 85.134071 -98.724854 -0.64598638 0.23822142 0.72522557 0.14148362
2806.5659 110.79725 -100.57662 -0.6301589 0.34272978 0.6967324 0.13371864
2791.0869 92.147293 -116.78068 0.89730501 -0.40677357 -0.1714029 0.18459113
2830.6174 116.30947 -72.394669 0.74950308 0.14340779 -0.64628112 0.16532591
2827.0232 101.3958 -77.06208 -0.70307708 0.070526674 0.70760763 0.13394567
2783.5361 77.980469 -116.38645 0.91079849 -0.4054938 -0.077594303 0.19162907
2792.4446 102.59148 -117.83503 0.89476895 -0.42285386 -0.14346837 0.16634437
2800.677 91.841835 -103.11437 -0.65215683 0.20541112 0.72972441 0.15132529
2799.698 114.03477 -108.96924 -0.61340296 0.37730566 0.69381356 0.16289315
2802.9758 105.71863 -104.28825 -0.67483073 0.17378558 0.71721828 0.14717124
2836.7422 129.78319 -61.510227 -0.43385732 -0.36470467 0.82386792 0.13132305
2828.4878 103.45393 -74.835548 -0.38718662 -0.17313468 0.90559977 0.15506147
2826.626 57.191692 -215.27567 0.64117253 0.19633064 0.74185717 0.047690339
2800.9011 107.01488 -112.75086 0.90399545 -0.0012118403 -0.42754033 0.18608977
2798.6816 97.746674 -114.32542 0.86437088 -0.3976303 -0.30781993 0.16075405
2814.043 68.693718 -205.84676 0.6925891 0.118838 0.71147579 0.16075501
2792.7322 87.356293 -119.16922 0.70097852 -0.70767808 0.088435575 0.13999768
2823.5537 52.879402 -211.50948 0.6486609 0.17530835 0.74061191 0.06371177
2790.6001 89.136909 -163.59731 0.99309319 0.037766796 0.11108383 0.17129235
2792.6997 74.218857 -163.71021 0.97792798 0.1259207 0.16673589 0.14875567
2795.5405 64.11348 -163.38509 0.82576883 0.55997437 0.067338526 0.15259843
2787.5017 78.424568 -109.12547 0.74988008 -0.2970362 -0.59114242 0.18662301
2795.4524 93.548103 -109.04013 0.71986687 -0.23474367 -0.65321285 0.16593397
2800.2239 106.62175 -109.48025 0.71744126 -0.32662061 -0.61530238 0.16618398
2813.6592 106.81438 -92.84198 0.79949814 -0.14999181 -0.58164012 0.10717678
2791.447 95.46386 -138.27867 0.95473653 -0.26924616 0.12643036 0.14401075
2807.0356 90.987015 -95.029869 0.73717618 -0.26939708 -0.61967456 0.13701145
2795.3215 78.569069 -180.05635 0.93460482 0.099943131 0.34135792 0.16070999
2801.8279 54.986759 -179.84163 0.82148212 0.5233196 0.22650324 0.14590406
2783.665 68.759727 -137.79024 0.90163767 -0.32580525 0.28443012 0.13297676
2790.3208 83.899101 -139.50156 0.93345779 -0.31324452 0.17474113 0.14245723
2799.6609 63.427155 -182.79622 0.92220485 0.22583991 0.31390217 0.15246582
2809.2273 93.285309 -92.949257 0.73147476 -0.23472552 -0.64019418 0.1171195
2789.1528 85.909767 -136.44225 0.93215579 -0.32232609 0.16489835 0.13175102
2816.0767 108.29241 -89.559189 0.7944687 -0.12078986 -0.59517169 0.096018448
2790.8276 96.905434 -133.79959 0.91889912 -0.34749353 0.18674232 0.15026857
2783.1785 71.689789 -133.63959 0.95936102 -0.13694899 0.24672137 0.1221481
2794.6658 83.620972 -177.22498 0.96011883 0.20903189 0.18568121 0.18424761
2797.7705 67.957695 -177.77306 0.94958407 0.15888102 0.27027196 0.14466514
2798.6797 54.347927 -179.62396 0.90734947 -0.22857733 0.35280207 0.15272181
2795.3445 101.5496 -117.50892 0.88047558 -0.40369168 -0.24858753 0.18769065
2799.1658 107.00517 -114.48432 0.42195997 -0.89812082 0.12380932 0.21382231
2790.7676 90.107368 -115.96611 0.89998454 -0.41570646 -0.13120963 0.17815134
2780.5347 77.295898 -115.21269 0.74467731 -0.65861267 0.10809767 0.16303648
2797.6201 76.569199 -186.39644 0.93736273 0.24929914 0.24331255 0.14558849
2800.2168 62.043961 -184.90723 0.90372324 0.18333749 0.38687429 0.1491068
2810.1467 112.96873 -99.702179 0.73625737 -0.24128479 -0.63222361 0.15030263
2774.3137 70.612213 -96.091667 0.61857069 -0.76465577 -0.18075357 0.11177219
2806.5481 99.322113 -99.425674 0.71121317 -0.18920532 -0.67703557 0.13704282
2791.4543 81.890808 -105.98969 -0.6285165 0.23114429 0.74265695 0.13941303
2792.6143 87.006332 -163.10291 0.99953663 -0.0018691632 0.030381814 0.1625001
2783.8096 79.735588 -119.36352 0.77724415 -0.61583632 0.12898509 0.15618975
2783.6338 96.963814 -161.2242 0.77261686 0.58111483 -0.25567311 0.15204467
2792.5837 73.218704 -161.76234 0.97983605 0.13529958 0.14702165 0.13868017
2797.134 107.52898 -119.37664 0.9159385 -0.25966239 -0.30599374 0.21154453
2791.8147 92.966782 -119.78625 0.91086107 -0.40298083 -0.089098588 0.17031924
2797.7817 71.997223 -194.8082 0.55185848 -0.40962043 0.72640437 0.14203179
2805.7693 68.900955 -199.98987 0.68389523 0.20307802 0.70074719 0.15213928
2797.0149 87.565239 -103.87489 0.72040832 -0.30863875 -0.62109095 0.16625275
2787.7046 68.305557 -148.23804 0.99644101 0.031373821 0.07823687 0.13172004
2801.3359 111.10629 -109.90323 0.65504766 -0.4369761 -0.61641258 0.17001545
2789.0405 92.266098 -147.16447 0.95268464 -0.27278247 0.13409594 0.15447855
2804.7546 102.07275 -102.7658 0.70740992 -0.20968123 -0.67498517 0.1572599
2784.469 95.043449 -143.63069 0.53498548 -0.78852111 0.30335629 0.16223374
2786.4121 75.609856 -135.97017 0.88581103 -0.39745191 0.2395221 0.1334129
2801.709 63.275024 -184.93932 0.9249059 0.19243273 0.32790047 0.14600594
2794.8857 91.250916 -135.9642 0.97611356 -0.21723355 -0.0034545071 0.13119179
2803.4858 49.539474 -180.46033 0.88953799 0.32298928 0.32310995 0.15887669
2799.2107 107.67919 -136.22639 0.92501193 -0.36502567 -0.10539987 0.14782076
2795.072 80.508728 -179.5511 0.93567759 0.11689608 0.33293051 0.15769555
2824.9604 97.636833 -79.618034 -0.67201144 -0.13818133 0.72753459 0.13209729
2777.8062 75.225319 -117.38055 0.68116629 -0.69918537 0.21714565 0.14999913
2831.6594 110.12214 -72.570786 0.74873459 0.13870202 -0.64819616 0.15995206
2790.1489 89.39193 -116.9099 0.90413058 -0.41639656 -0.095717512 0.1802156
2794.5327 99.353699 -117.85093 0.89356124 -0.42738917 -0.1374293 0.18767163
2795.6973 93.42907 -124.30537 0.86798775 -0.49371222 -0.053343557 0.13996416
2796.0452 65.034607 -168.53389 0.9370535 0.31836715 0.14343318 0.14737426
2793.3167 78.912735 -169.10933 0.97967738 0.12512991 0.15676339 0.15120696
2783.738 77.446526 -126.16577 0.61194485 -0.74972123 0.25187606 0.12436692
2800.4092 55.765327 -175.52293 0.873344 -0.40494332 0.27072331 0.11339213
2796.7302 104.82582 -121.27863 0.95267278 -0.16937011 -0.25244465 0.19591801
2827.0134 121.44502 -76.307861 0.75674564 0.06717404 -0.65024894 0.14143318
2831.7869 108.03695 -72.731468 0.7319535 0.034373824 -0.68048698 0.16226426
2830.2117 94.891655 -70.554031 0.73093635 -0.23373295 -0.64117157 0.18611227
2793.0623 97.28875 -118.79728 0.90635395 -0.40535638 -0.11920019 0.18196754
2786.6626 84.345818 -118.01733 0.9113487 -0.41161257 -0.0043119802 0.17887169
2772.9304 67.093719 -115.6339 0.84142947 -0.52056426 0.1449458 0.12981603
2803.7632 105.47252 -116.12764 0.19795896 -0.95740384 0.2102146 0.23572364
2779.3169 75.08049 -108.19155 0.76850492 -0.63668162 -0.063535407 0.18461338
2794.833 90.640831 -108.56345 0.78009635 -0.33630732 -0.52758604 0.17945817
2803.7375 117.57563 -111.48165 0.69130814 -0.35968524 -0.62667346 0.2165741
2794.2795 100.85854 -113.63651 0.76390237 -0.38210699 -0.52004564 0.17144307
2845.5056 105.59994 -65.767952 -0.48832086 -0.274088 0.82850379 0.19166288
2790.6814 90.414436 -158.88763 0.99453795 -0.10250532 0.019671358 0.15256435
2823.8518 37.509525 -208.15683 0.69671482 0.15906741 0.69948983 0.049582861
2791.593 87.90197 -112.45027 0.73053592 -0.68071848 -0.054217845 0.15712434
2798.8757 98.648483 -110.60033 0.85563314 -0.31808698 -0.40830451 0.18566702
2818.7744 52.580242 -207.10054 0.72096831 0.24695343 0.64747101 0.10498553
2803.5422 111.85048 -108.30733 0.82671922 -0.083131433 -0.55643916 0.19342983
2808.1755 68.684044 -199.65819 0.75366962 0.083482355 0.65193003 0.14689331
2791.3481 76.009628 -158.80089 0.98924124 0.0070672277 0.1461226 0.14485762
2793.8398 63.575882 -158.16808 0.9072715 0.40019166 0.1292479 0.15496071
2796.676 91.531227 -107.01241 0.65580553 -0.75090969 -0.077806003 0.15376864
2797.1782 95.535469 -107.95867 0.74176651 -0.2924487 -0.60353643 0.15689166
2797.7632 106.33355 -112.39513 0.7197687 -0.39020029 -0.57417488 0.17640468
2802.0657 109.34809 -108.51424 0.26722178 -0.96304214 -0.033799633 0.20295465
2789.9587 91.113663 -160.63637 0.95379889 0.27796283 -0.11403669 0.15002106
2796.3579 75.094704 -163.71935 0.98635578 0.076699786 0.14566869 0.13205117
2795.3098 61.804348 -164.84814 0.92924976 -0.15684569 0.33450603 0.14908797
2817.7646 50.630329 -205.28651 0.69498473 0.24824053 0.67481321 0.10001692
2812.374 66.456978 -203.81206 0.72338229 0.097972177 0.68346143 0.15326278
2800.7361 70.525162 -188.6156 0.92415404 0.1876339 0.33276546 0.16601294
2804.0962 55.083187 -187.79128 0.88886541 0.20874672 0.40785179 0.14296983
2816.7302 102.49261 -88.079369 0.78236657 -0.22159532 -0.58206362 0.10437722
2781.7944 70.60022 -135.33134 0.73911887 -0.59955466 0.30698135 0.11052342
2795.377 65.579704 -177.11911 0.89798188 0.34280613 0.27588502 0.13964786
2794.1726 82.474968 -174.03946 0.69083983 -0.56675291 0.44892257 0.18233025
2792.4875 95.438477 -133.87224 0.9325667 -0.35200197 0.080087468 0.14356527
2789.0125 82.84111 -134.36737 0.90788031 -0.38418394 0.16779754 0.14176258
2792.9807 77.213463 -177.04311 0.94211423 0.12729576 0.31018797 0.16466795
2795.4124 100.54441 -130.64424 0.57613796 -0.75971007 0.30150563 0.17716883
2820.1521 115.23737 -87.338737 0.82632601 -0.028643468 -0.56246322 0.10290065
2793.1431 74.17778 -168.04597 0.95921361 0.21965992 0.17792921 0.16040567
2784.967 80.094772 -123.38316 0.81842202 -0.56523997 0.10338831 0.16199543
2795.8669 64.352409 -167.88809 0.851228 0.51382595 0.10674198 0.15160829
2829.0591 104.27599 -75.480522 0.74483848 -0.052164916 -0.66520262 0.14346519
2826.4111 65.845612 -217.62054 0.67743224 0.17759913 0.71382362 0.056171224
2831.2993 50.723316 -217.76717 0.65168083 0.25732926 0.71350807 0.035532061
2798.7961 109.05045 -123.70698 0.89627528 -0.42718917 -0.11916404 0.211858
2791.9531 87.07589 -168.09042 0.98696893 -0.11467966 0.11287554 0.17294417
2792.8718 94.821854 -122.64652 0.91207761 -0.40251157 -0.07809557 0.16701859
2813.2004 117.91374 -91.507889 0.79540229 0.18001984 -0.57872963 0.11549687
2811.4968 104.87172 -94.399536 0.76397616 -0.19724935 -0.61435586 0.11721613
2806.3259 89.851959 -94.257675 0.7390337 -0.33559725 -0.58412641 0.1315192
2787.074 81.439369 -137.53331 0.94309294 -0.24231364 0.22772752 0.12643269
2780.4192 66.003342 -135.72563 0.90459472 -0.28778991 0.3144604 0.13352698
2786.7815 94.10981 -137.10307 0.9699477 -0.20341399 0.13350728 0.11335769
2800.885 101.04269 -136.34209 0.23549275 -0.89441651 0.38021341 0.16243638
2794.2961 82.764671 -177.98859 0.65182537 -0.57743716 0.4916198 0.15994896
2784.2385 68.750343 -138.61194 0.87633711 -0.373294 0.30444193 0.13478389
2793.3159 77.128464 -180.0694 0.92962182 0.10169119 0.35420647 0.15115379
2797.8516 65.073082 -183.0349 0.89864475 0.31837198 0.30178946 0.14484577
2790.0139 82.940735 -138.535 0.94015783 -0.29619059 0.16844693 0.14483997
2797.4651 101.10193 -134.64409 0.49825409 -0.81125146 0.3059639 0.16845456
2813.6897 115.17274 -92.217583 0.80802351 0.12587859 -0.57554549 0.11160397
2807.5771 92.724716 -92.46209 0.74085099 -0.57136303 -0.35310632 0.12105159
2801.9109 54.716961 -181.88632 0.80747324 0.5180518 0.28215113 0.1490138
2793.5193 97.332886 -138.05917 0.97490388 -0.21918981 0.038964637 0.15211566
2809.5854 100.85822 -96.513535 0.73958153 -0.17911942 -0.64879537 0.12841123
2837.2219 107.95805 -69.06366 -0.56914723 -0.24540552 0.78475952 0.19394366
2792.3767 95.947281 -114.64384 0.84058857 -0.34785819 -0.41521743 0.17555265
2835.2068 121.27905 -67.372795 -0.65268302 -0.15091638 0.74244809 0.19477452
2795.6445 106.44884 -115.60902 0.80072546 -0.46087965 -0.38266003 0.18558033
2786.9912 82.902451 -113.77872 0.89514899 -0.26856661 -0.35578117 0.18703854
2780.4658 79.282921 -113.19749 0.54250681 -0.81196195 0.21541616 0.14149235
2786.1545 82.690681 -112.76546 0.52689177 -0.82284772 0.21285357 0.12689595
2840.9121 122.38936 -66.714676 -0.31555688 -0.13472016 0.93929458 0.15717424
2795.7791 107.44124 -115.03666 0.76602608 -0.43543202 -0.47286683 0.18977381
2793.7598 96.635597 -112.53313 0.80457026 -0.33028081 -0.49353954 0.16304456
2835.2451 109.64565 -70.074921 -0.55918866 -0.21676834 0.80019969 0.18508454
2789.2739 84.540367 -110.60938 0.83321476 -0.37147483 -0.4095847 0.19349468
2795.1853 96.888329 -114.4217 0.86349326 -0.42268473 -0.27516723 0.17943956
2785.5322 82.333778 -113.98988 0.81388205 -0.5807634 -0.017602323 0.18169649
2798.5608 108.7571 -116.29636 0.8187139 -0.39738569 -0.41447821 0.20015091
2843.4905 103.69797 -68.018234 -0.44429547 -0.26342767 0.85627532 0.1878287
2800.6526 67.32679 -187.95596 0.89511341 0.25670496 0.36451963 0.15177372
2798.4871 76.037544 -187.33296 0.79690385 0.60357863 0.025239786 0.18142177
2788.8203 71.202927 -145.86946 0.51039582 -0.76009542 0.40218282 0.12852459
2804.2942 51.770714 -186.31653 0.87480062 0.28421733 0.39235747 0.15017594
2795.616 93.97332 -140.66347 0.99120516 -0.077903278 -0.10697383 0.13534045
2817.3533 116.84547 -88.832649 0.82214975 0.1241308 -0.55557299 0.11481149
2815.2463 105.16531 -90.778519 0.81128174 -0.19887656 -0.54979092 0.10351952
2792.8433 78.465042 -179.06714 0.94876063 0.14121044 0.28268871 0.16770254
2808.7139 91.950798 -91.762527 0.74207437 -0.44051239 -0.50524694 0.11218543
2790.5613 85.628563 -136.47978 0.93400955 -0.34268588 0.10095791 0.14347398
2782.5085 70.966919 -135.51942 0.80542958 -0.52212304 0.2804831 0.12895507
2793.1802 98.162148 -136.04306 0.97969592 -0.19377404 0.051454298 0.15553454
2797.3879 65.189575 -180.38531 0.89265978 0.36275974 0.26751429 0.143227
2806.8035 111.87823 -103.73342 0.80309665 -0.098008014 -0.58773315 0.1808617
2797.4834 92.180565 -108.75509 0.64153397 -0.76687276 -0.018448388 0.15015443
2804.3643 60.63023 -193.10651 0.80450368 0.33248201 0.49216816 0.15279309
2789.3291 62.368565 -153.93669 0.93575341 -0.12912437 0.32816529 0.18740094
2803.7649 99.908669 -104.37889 0.79819864 -0.32089108 -0.50981158 0.1703648
2789.8904 75.916298 -152.85521 0.98280805 -0.092401654 0.1598445 0.15550099
2803.6548 72.511215 -195.1902 0.81599176 0.15713793 0.55629587 0.16122325
2791.3062 89.575531 -152.82016 0.98059976 -0.18048851 0.076472253 0.15607196
2786.8767 103.1298 -152.22145 0.93668306 0.26097474 -0.23348893 0.18008162
2812.4263 46.904388 -194.71545 0.77782041 0.4163242 0.47081795 0.15608649
2795.7778 78.345497 -183.15935 0.82385129 0.56658107 0.015966155 0.18468516
2802.4207 66.747345 -187.50931 0.93197519 0.12187138 0.34142295 0.1435737
2803.1084 52.943848 -182.1618 0.85799265 0.38407353 0.34108081 0.14828487
2799.748 98.486115 -107.13624 0.78405857 -0.30441555 -0.54090971 0.17467475
2801.4871 111.05598 -110.05138 0.74034691 -0.28102171 -0.61066628 0.17826888
2789.6868 82.691002 -108.78348 0.77198309 -0.37610453 -0.51243293 0.17454113
2797.3386 101.61278 -110.18802 0.74219728 -0.33188114 -0.58223546 0.1735101
2802.624 113.47746 -111.42474 0.62293756 -0.50092399 -0.60085267 0.19054815
2778.9487 75.092255 -106.13665 0.71869469 -0.68757814 -0.10350949 0.19438212
2796.3738 89.845947 -106.3029 0.73985755 -0.30498272 -0.5996635 0.16394962
2801.0217 110.29505 -111.34744 0.79914761 -0.27866641 -0.5326426 0.18867782
2786.0581 80.291931 -111.17274 0.86761671 -0.38783494 -0.31116769 0.19003779
2797.2903 97.336868 -109.66314 0.83024704 -0.39414135 -0.39413503 0.17880559
2821.9246 108.65512 -84.818352 0.78382611 0.029786583 -0.6202656 0.10406811
2812.6194 96.061638 -89.097099 0.77601194 -0.36520487 -0.5142284 0.10286269
2794.8801 101.04583 -136.01009 0.93111753 -0.35618258 0.07844805 0.17470503
2795.4863 83.379173 -181.80205 0.94076085 0.10231864 0.32326442 0.17766173
2797.3555 68.464462 -182.19423 0.93011832 0.18340644 0.31818545 0.14659016
2801.5017 56.998669 -181.51035 0.85423684 0.46559823 0.23129573 0.14475767
2783.4678 71.898224 -136.44366 0.83695889 -0.49067479 0.24235941 0.13332757
2792.0427 87.970146 -136.74858 0.94274157 -0.31177664 0.1184635 0.14329535
