# .PCD v0.7 - Point Cloud Data file format
VERSION 0.7
FIELDS x y z normal_x normal_y normal_z curvature
SIZE 4 4 4 4 4 4 4
TYPE F F F F F F F
COUNT 1 1 1 1 1 1 1
WIDTH 532
HEIGHT 1
VIEWPOINT 0 0 0 1 0 0 0
POINTS 532
DATA ascii
2652.0801 -1146.079 5.3568912 0.39898103 -0.767874 0.50118226 0.078290068
2601.9338 -1178.6672 53.564693 0.99576378 0.055841643 -0.073049679 0.10598706
2604.5054 -1163.6007 53.006088 0.9724372 -0.23315291 0.0023625582 0.11275915
2623.7488 -1168.2797 11.766203 0.67989498 -0.26961261 0.68194705 0.091988049
2604.3887 -1194.0717 53.243896 0.92620778 0.32333183 -0.19389601 0.090601556
2633.9233 -1156.4921 8.299757 0.51979697 -0.62093431 0.58672971 0.069490127
2607.0557 -1148.1067 53.123688 0.84935278 -0.4357478 0.29786518 0.1218975
2620.0669 -1155.3141 23.984795 0.69774538 -0.47647986 0.53490031 0.095279679
2607.8101 -1180.2278 70.764717 0.84962678 0.17221732 -0.4984732 0.13620001
2611.781 -1170.2126 26.588261 0.78056771 -0.21245161 0.58785915 0.10911047
2624.4868 -1143.2979 32.365723 0.53830647 -0.66350698 0.51960045 0.077251114
2612.2959 -1199.7965 69.580574 0.7733202 0.28236917 -0.56766498 0.092546232
2612.7778 -1184.282 28.796753 0.67163396 0.3054378 0.67499304 0.11358478
2610.3896 -1182.1969 73.768929 0.70175433 0.1980346 -0.68434143 0.092798337
2606.916 -1169.2723 34.425743 0.87557417 -0.26028091 0.40696892 0.11334575
2610.6479 -1153.1871 38.083935 0.7095657 -0.55363858 0.43589085 0.089647241
2607.3887 -1187.2609 36.717674 0.85796124 0.27690414 0.43269697 0.15333195
2658.7573 -1161.1106 -8.8974257 0.56430465 -0.082399376 0.82144421 0.086016543
2661.001 -1183.9999 -9.9987841 0.58927196 0.052595317 0.80622095 0.088762663
2610.3093 -1170.0269 27.353575 0.79005241 -0.24514626 0.56189007 0.10602632
2603.8474 -1173.9503 65.211304 0.93329573 0.0047047576 -0.35907799 0.15332256
2667.4932 -1135.5023 -14.546759 0.73276651 -0.19315429 0.65249109 0.15683681
2675.7197 -1164.5895 -26.027798 0.8655327 -0.067282699 0.49631259 0.14017628
2619.8137 -1153.6471 25.660095 0.66078347 -0.52545005 0.53597337 0.090237677
2617.0066 -1206.7924 72.464638 0.7674306 0.30508491 -0.56389141 0.091469653
2603.707 -1174.8418 43.798519 0.98093015 -0.12003348 0.15286592 0.11956236
2604.345 -1189.1232 43.598812 0.9714148 0.19603817 0.13387442 0.1259563
2607.0129 -1157.9844 45.615711 0.86622417 -0.42361423 0.26496536 0.12487713
2657.2478 -1200.5677 -8.2919979 0.68025881 -0.061818779 0.73036045 0.11581764
2603.1333 -1182.6621 35.791271 0.86646223 0.2202125 0.44805092 0.13054593
2627.2268 -1142.257 30.241848 0.54076076 -0.6125347 0.57652324 0.089519322
2664.0383 -1183.6917 -12.464095 0.62370402 0.094361059 0.77594411 0.094466157
2660.4519 -1162.3906 -10.479424 0.56914866 -0.090679549 0.81721908 0.088371456
2609.5127 -1156.9231 34.85289 0.70033276 -0.55215585 0.45239133 0.08544489
2604.0735 -1169.7167 34.964516 0.89045215 -0.21846068 0.39921162 0.10720705
2669.762 -1131.6057 -21.510916 -0.081034325 0.59615189 0.7987718 0.20583248
2651.5059 -1151.0865 -3.9149823 0.60090739 -0.28508469 0.74675095 0.13302407
2602.0854 -1174.8911 35.851738 0.93090427 -0.054987181 0.36110064 0.11877063
2668.3113 -1140.4501 -15.984611 0.67702335 0.082604013 0.73131114 0.14382014
2610.8262 -1151.2695 38.009487 0.64565861 -0.60908824 0.46058273 0.074842259
2608.3687 -1164.4436 33.047501 0.80242342 -0.34387282 0.48771733 0.093617938
2617.5542 -1164.9662 18.934929 0.69426811 -0.37077564 0.61686081 0.093382746
2633.624 -1150.6389 14.643291 0.56689942 -0.58049786 0.58450603 0.075800888
2608.9895 -1154.8746 59.153374 0.94251889 -0.33328623 -0.024050852 0.13808511
2632.949 -1191.4102 15.242847 0.56778955 0.35292304 0.7436803 0.050109711
2675.595 -1155.8333 -25.561396 0.82942128 0.020977121 0.55822957 0.12403945
2604.405 -1176.2529 60.067043 0.98973674 0.032959983 -0.13904978 0.11881826
2620.0015 -1166.5443 17.003351 0.66430837 -0.34179607 0.66473287 0.094242357
2603.1233 -1169.7915 57.35891 0.9864465 -0.12750144 -0.10327959 0.11570658
2606.3442 -1192.1558 58.164757 0.94509757 0.22451459 -0.23745267 0.11012196
2634.6169 -1190.6257 13.789809 0.57672036 0.34984082 0.73824453 0.047897
2673.5334 -1159.1445 -21.326702 0.69949251 -0.015469055 0.71447253 0.12618899
2631.353 -1152.3245 15.364549 0.58607674 -0.53874409 0.60520154 0.076192193
2674.1772 -1141.0511 -21.924692 0.71408838 -0.0070546106 0.70002002 0.18192376
2649.7742 -1190.2288 -0.58117491 0.60874629 0.11361469 0.78518766 0.057805646
2610.625 -1145.2783 50.281597 0.75683516 -0.53646779 0.3733668 0.12809566
2639.7654 -1151.7841 6.0022669 0.33900335 -0.8383044 0.42699239 0.068994693
2626.1226 -1161.7018 8.4122181 0.58009762 -0.55004263 0.60078275 0.087248974
2601.8152 -1161.2981 50.640491 0.931853 -0.33898339 0.12938409 0.10847241
2609.1758 -1194.3035 43.893059 0.77994758 0.55704564 0.28527525 0.11186615
2604.6646 -1163.2478 45.097851 0.91071045 -0.31011084 0.27283278 0.12051971
2611.6704 -1149.4336 45.292023 0.78859967 -0.51000363 0.34352124 0.11963773
2603.5381 -1180.9995 42.921791 0.98597372 -0.0011278591 0.16689695 0.12505643
2619.5757 -1156.8256 21.802301 0.64690685 -0.54085952 0.53757095 0.077965252
2675.9976 -1173.0692 -25.30739 0.7626816 -0.026411526 0.64623463 0.14284642
2640.332 -1144.5906 17.366844 0.43083331 -0.76658654 0.47615933 0.054353707
2611.707 -1170.3253 24.018894 0.76675051 -0.23134422 0.59881008 0.11808544
2603.5645 -1173.2362 63.527687 0.96790087 -0.023903018 -0.25019312 0.14405893
2622.6787 -1191.2703 23.86998 0.55022836 0.40827557 0.72839534 0.074085832
2609.1902 -1196.0524 64.648338 0.8619051 0.32342884 -0.39052969 0.092497021
2605.6055 -1172.895 39.623741 0.95042282 -0.19468276 0.24247701 0.12673441
2639.6704 -1157.9698 2.7430949 0.4869687 -0.51819295 0.70309144 0.090671442
2654.6501 -1144.2797 -2.1309347 0.58008891 -0.2494747 0.77540904 0.10835669
2647.1116 -1175.5183 -1.7549274 0.54124415 0.12347592 0.83175021 0.045820069
2609.0671 -1155.7286 43.067623 0.83366448 -0.46988317 0.29019544 0.12314299
2606.9558 -1188.3724 40.737164 0.89620614 0.28759387 0.33779326 0.14603889
2603.0356 -1185.2004 43.904655 0.98057181 0.12991102 0.14697643 0.11481394
2641.5952 -1173.7101 2.5550003 0.52719492 0.095794693 0.84432751 0.056854066
2610.5674 -1150.0951 45.05677 0.77567613 -0.52565432 0.34930518 0.11325726
2603.8892 -1166.8883 43.843468 0.92066342 -0.28307387 0.26879004 0.11147196
2642.6614 -1154.5919 3.9339468 0.49185738 -0.47903064 0.72705293 0.089442477
2648.9072 -1146.8401 7.8644471 0.40468809 -0.69760358 0.59125018 0.078229286
2607.459 -1194.8475 57.883415 0.92259204 0.30643025 -0.23435953 0.10610073
2602.4578 -1171.1415 56.022724 0.98458081 -0.13288227 -0.1137669 0.11402473
2618.1731 -1170.4283 16.235359 0.68486375 -0.2318531 0.69080085 0.10082387
2604.2458 -1154.9016 56.643208 0.96762431 -0.20546454 0.14658622 0.13352111
2627.1333 -1158.6158 13.131473 0.59676945 -0.53662771 0.59657091 0.077136539
2611.147 -1152.1755 41.505844 0.76541531 -0.52914649 0.366256 0.11472554
2603.4287 -1167.7593 41.979126 0.92463315 -0.25303698 0.28465036 0.099196479
2658.8401 -1181.0355 -8.9003725 0.54192996 0.0060849967 0.84040159 0.072306156
2601.4893 -1182.1647 42.834808 0.95941353 0.15325849 0.23672237 0.11391108
2650.4932 -1154.7646 -1.2847502 0.4678537 -0.23956724 0.8507176 0.095178284
2672.2134 -1148.9525 -19.645325 0.72520882 -0.012356391 0.68841809 0.10845377
2672.5051 -1129.6095 -21.526779 -0.096212484 0.49709514 0.8623454 0.20504133
2661.7073 -1181.851 -11.090319 0.61595124 0.15035078 0.77330375 0.091787204
2606.7324 -1170.3228 32.718872 0.84268349 -0.23554766 0.48415059 0.1022523
2610.45 -1177.7213 75.03653 0.82243687 0.15807419 -0.54645234 0.1504879
2628.3879 -1140.8289 31.479076 0.50817031 -0.66966623 0.54158115 0.074058443
2614.1196 -1154.2252 32.12907 0.71165377 -0.50760961 0.48567617 0.092140421
2616.032 -1192.5472 33.071415 0.61079109 0.49409169 0.61871451 0.11098118
2620.1199 -1154.6281 23.602983 0.62742829 -0.55250794 0.54869735 0.079274073
2604.9172 -1179.9214 66.562912 0.9117856 0.16621076 -0.37552768 0.13703325
2608.9038 -1165.7252 62.932377 -0.57767588 0.560193 0.59369552 0.14131385
2612.2627 -1170.3732 24.132381 0.77998114 -0.25125998 0.5731473 0.11706506
2616.2881 -1209.8846 69.794197 0.77367949 0.30981264 -0.55266279 0.10208082
2607.49 -1166.1292 32.34988 0.80767858 -0.29769057 0.50895548 0.11208171
2668.8369 -1179.9835 -17.029411 0.65300763 0.012846447 0.75724238 0.10721026
2618.0225 -1152.6678 28.545025 0.66463453 -0.54812521 0.50775951 0.084124893
2608.1431 -1176.6105 72.079201 0.84853822 0.10517889 -0.51857525 0.14490759
2620.241 -1191.8584 26.261856 0.62919945 0.36982533 0.68362069 0.10033727
2618.4985 -1204.5692 75.301392 0.72645861 0.2753709 -0.62962586 0.081705093
2613.311 -1197.3522 48.482403 -0.66217291 -0.71391821 -0.22770116 0.097847886
2603.103 -1181.9991 48.002674 0.99963057 0.0080193188 0.025970152 0.11019126
2609.5457 -1149.2487 50.459213 0.84360141 -0.435817 0.31368804 0.13501462
2605.3506 -1167.4349 48.100109 0.96506286 -0.22714649 0.13060671 0.11462878
2612.4004 -1201.5139 67.755928 0.86825037 0.27892554 -0.41029477 0.089207053
2610.9116 -1169.2821 24.616949 0.76992232 -0.28356171 0.57167506 0.11965646
2674.8357 -1150.866 -27.190264 0.91290969 0.066637106 0.4026852 0.12531331
2620.6677 -1156.1912 21.169222 0.63198805 -0.54987806 0.54609996 0.076502211
2604.1663 -1174.8612 64.586487 0.96422452 0.025897009 -0.26381886 0.13636698
2606.2769 -1163.238 65.349808 0.99813879 -0.055422198 -0.025442718 0.13556549
2659.0879 -1172.0129 -9.3201818 0.56835616 0.0080292169 0.82274348 0.076136686
2656.3169 -1148.2025 -6.2361784 0.5957095 -0.091643192 0.79795474 0.11574156
2658.0862 -1191.8446 -7.3886228 0.55713123 0.079701871 0.82659084 0.095586091
2603.8357 -1181.9056 61.580254 0.95591897 0.17926466 -0.23255765 0.11690513
2622.9775 -1158.9843 17.979084 0.65059698 -0.45587504 0.60737264 0.081777491
2642.8625 -1144.3719 15.641937 0.44290391 -0.75173557 0.48859984 0.052696109
2622.2854 -1178.9518 18.352354 0.62593567 0.10585815 0.77265686 0.097256318
2602.6658 -1161.8116 61.133133 0.95500106 -0.26636931 -0.13046207 0.14625899
2675.425 -1171.1292 -24.864473 0.78010887 -0.070691265 0.62163728 0.13629878
2624.688 -1156.9182 17.696867 0.61237073 -0.50497264 0.60828018 0.075797163
2618.7979 -1174.9366 19.901037 0.68691468 0.02419216 0.72633529 0.10329132
2672.3467 -1170.2555 -20.817366 0.71600562 -0.028823158 0.69749922 0.11687985
2605.2917 -1171.8484 38.773148 0.93313873 -0.19980197 0.29888338 0.11747127
2611.417 -1153.8883 39.644066 0.79064488 -0.4956966 0.35939613 0.12141016
2624.3772 -1137.364 38.453953 0.59642529 -0.60898852 0.5228861 0.093838811
2651.7053 -1161.3066 -3.7439561 0.478863 -0.20823361 0.85283583 0.080607556
2612.7644 -1195.5 39.400688 0.76635802 0.50129229 0.40174797 0.14042817
2625.9807 -1194.2195 81.739273 -0.50865233 -0.20041576 0.83732092 0.072916716
2607.7209 -1190.0071 63.255875 0.93596309 0.22026433 -0.27469388 0.11436088
2608.9202 -1200.92 59.211929 0.87345093 0.36922652 -0.31741968 0.093640156
2627.7271 -1149.7429 20.736303 0.59548408 -0.56085569 0.57518661 0.074322566
2634.1028 -1191.5466 14.343552 0.58948624 0.31467992 0.74396408 0.051524602
2618.0981 -1164.5673 19.95923 0.70191622 -0.36254933 0.61308366 0.097849198
2604.3699 -1168.8517 63.376823 0.99383461 -0.04061643 -0.10316534 0.12847722
2674.8284 -1155.9523 -24.128462 0.83386946 0.014058701 0.55178261 0.1185023
2608.6565 -1148.3298 53.222134 0.85536236 -0.42967433 0.28937045 0.13397525
2603.8643 -1186.6857 52.897118 0.9846257 0.16601029 -0.054339971 0.099102333
2625.8247 -1169.4338 12.513221 0.65740412 -0.059112195 0.75121605 0.093368575
2671.8525 -1167.1483 -37.222065 0.93169463 0.17955916 -0.31575891 0.20179088
2603.6597 -1166.1107 52.971378 0.97273064 -0.23186064 -0.0059749093 0.11159037
2637.4194 -1155.4442 7.4876575 0.53660989 -0.56824166 0.62381989 0.083209008
2618.261 -1150.2144 31.196901 0.66739535 -0.54850656 0.50371027 0.089206882
2612.5679 -1182.8508 28.543747 0.70968932 0.18637022 0.67941684 0.12748811
2627.0498 -1139.4248 35.462128 0.47706136 -0.69217533 0.5415771 0.074303031
2612.4023 -1165.588 27.582577 0.78921098 -0.30972788 0.5302968 0.10712463
2608.5762 -1175.3671 72.474915 0.77349967 0.087802798 -0.62768543 0.15562995
2615.6013 -1211.9237 69.527756 0.69141549 0.25628585 -0.67547184 0.088274986
2612.7988 -1194.6097 72.759827 0.7329613 0.26823795 -0.62515289 0.088735357
2607.0415 -1197.6191 57.069214 0.90005547 0.37841448 -0.21610798 0.08788871
2605.1221 -1184.9821 58.972599 0.96590412 0.14175695 -0.21664307 0.11427577
2671.0586 -1134.6255 -20.209646 0.59289175 0.36178476 0.71943808 0.19331245
2666.9736 -1164.7443 -14.675399 0.63473856 -0.053641982 0.77086282 0.087228373
2606.5012 -1185.243 65.730568 0.92127872 0.19918428 -0.33402264 0.11187569
2675.0972 -1165.5629 -24.02515 0.77283806 -0.071345195 0.63058001 0.14062139
2612.0557 -1180.8162 27.607178 0.65646863 0.23673119 0.71624529 0.11572997
2624.1384 -1154.0663 20.078783 0.60024667 -0.56226516 0.56882495 0.076794095
2613.8638 -1167.5264 22.936216 0.75951058 -0.30003902 0.57716572 0.1116292
2618.3335 -1214.1106 72.013321 0.75225562 0.22784133 -0.61822313 0.10528114
2604.5959 -1167.27 65.308395 0.97934479 -0.073532946 -0.18835247 0.15387723
2604.3215 -1169.506 38.864292 0.91179675 -0.25804797 0.31943381 0.10870386
2643.0642 -1158.8772 0.27447852 0.43514332 -0.41906071 0.79689294 0.10636063
2601.718 -1181.7151 41.451168 0.95090973 0.17084233 0.25803795 0.11658089
2667.9492 -1147.9944 -14.794481 0.65707779 -0.00072792621 0.75382245 0.10134795
2608.323 -1154.3523 41.184662 0.73815536 -0.56337309 0.37112996 0.093141772
2666.5652 -1190.9944 -16.817284 0.65641218 -0.19217324 0.72951525 0.1056457
2669.3042 -1149.0127 -16.075296 0.67176211 0.0023161098 0.74076331 0.099810593
2672.0859 -1133.6575 -20.539684 0.37328938 0.44419467 0.81446064 0.17946689
2664.2544 -1167.9417 -12.997776 0.59795874 -0.046782959 0.80016041 0.079305798
2604.5483 -1167.8313 64.671776 0.94084877 -0.16334105 -0.2968556 0.16110118
2601.0049 -1181.0023 63.097099 0.89117783 0.25438425 -0.37562051 0.088528477
2617.0891 -1147.8813 35.74052 0.68726307 -0.55617023 0.46727309 0.10678668
2664.2915 -1176.6168 -13.203888 0.65999657 -0.068193883 0.74816716 0.099964269
2657.0813 -1190.6836 -6.9459219 0.56108969 0.085289448 0.8233493 0.0846489
2665.7456 -1155.7802 -12.887948 0.64126104 -0.043326128 0.76609862 0.084578916
2627.5549 -1203.2333 80.321854 -0.48741749 -0.24031997 0.83944654 0.094564408
2616.384 -1177.4963 75.034599 -0.48146239 0.054510806 0.87476999 0.14494355
2602.1177 -1176.504 38.073757 0.93810171 -0.042528164 0.34373906 0.12567902
2606.9143 -1163.084 37.253445 0.84815991 -0.35967922 0.38891602 0.1121633
2618.8474 -1158.5662 22.691654 0.6879735 -0.45967954 0.56159341 0.089297116
2623.2065 -1196.114 26.588396 0.55276728 0.40596035 0.72776681 0.091755085
2609.23 -1170.7657 28.222094 0.79521555 -0.1942144 0.57438052 0.11976002
2674.8328 -1174.0695 -24.276697 0.75344527 -0.062824428 0.65450233 0.12543732
2668.1987 -1138.5066 -24.957903 0.95095128 0.18365332 -0.24892382 0.13971063
2677.5388 -1158.6609 -28.760357 0.89110649 -0.055324618 0.45040914 0.12164284
2631.9314 -1146.1864 21.928751 0.5258072 -0.66977072 0.52434152 0.06648241
2634.0063 -1167.1686 6.5513101 0.55247706 -0.018600751 0.8333205 0.081162758
2602.8828 -1177.1438 46.218204 0.99050337 -0.075676508 0.11478718 0.11816061
2614.1023 -1146.0743 44.050793 0.7505089 -0.54558909 0.37291947 0.12947409
2604.9282 -1192.1848 47.327438 0.95485222 0.29236251 0.052739039 0.11360952
2660.6086 -1145.7017 -8.0497322 0.65555716 -0.044540949 0.75383085 0.11350466
2646.4492 -1157.1752 0.74844515 0.43623576 -0.35377792 0.82736903 0.089797989
2606.1785 -1161.2788 44.426323 0.89231497 -0.35328168 0.28100896 0.11771517
2605.3459 -1151.7699 57.040653 0.92757779 -0.34976056 0.13140367 0.15026587
2602.2695 -1170.4304 54.987576 0.98259449 -0.15162656 -0.10731941 0.11171321
2601.1584 -1185.184 54.990517 0.95026034 0.27558261 -0.14511879 0.083863266
2601.4819 -1184.509 48.439438 0.97658372 0.21186605 0.037376091 0.10787247
2607.0535 -1153.5262 49.609364 0.86024505 -0.43002915 0.27395868 0.12813121
2643.2056 -1156.187 3.3280039 0.47816387 -0.43495953 0.76300037 0.089093588
2600.769 -1169.0294 49.600147 0.96674228 -0.20083377 0.15835123 0.1035971
2640.4204 -1174.9509 3.6319127 0.55282652 0.064546786 0.83079273 0.058169536
2604.0718 -1173.028 33.543068 0.89836639 -0.15091409 0.41250792 0.11734091
2618.5002 -1212.8701 72.6651 0.7050128 0.22756609 -0.67169237 0.096672006
2672.8169 -1176.4448 -22.151194 0.7582553 -0.058608104 0.6493181 0.12165269
2626.5781 -1145.7086 26.587631 0.58852667 -0.55679506 0.58618742 0.090565205
2609.1499 -1186.5449 71.420074 0.79985166 0.22599329 -0.55602556 0.084405579
2668.7981 -1135.0465 -17.564518 0.88267565 0.17757072 0.43514633 0.1963007
2612.5972 -1160.8374 29.074425 0.76085609 -0.39891642 0.51182389 0.093027622
2616.1863 -1175.0172 78.585907 0.73627621 0.0044954787 -0.6766662 0.16044858
2624.7512 -1206.4426 79.525299 -0.61805868 -0.21907799 0.75498897 0.094961204
2611.0005 -1178.4453 74.573654 0.76967025 0.14229137 -0.62238324 0.13050714
2605.8501 -1180.799 33.924759 0.84007448 0.12853216 0.52702409 0.1399803
2608.783 -1167.5994 31.166311 0.80556583 -0.27082455 0.52698928 0.099074788
2668.4619 -1181.922 -16.865679 0.66287231 -0.020360742 0.74845558 0.10771609
2670.6228 -1163.4468 -17.925514 0.73528278 -0.07564766 0.67352551 0.11356088
2616.9534 -1151.9658 30.967024 0.70047194 -0.51344031 0.49569964 0.09243755
2607.6523 -1179.0643 71.156738 0.89888 0.16648537 -0.40533605 0.14486599
2609.1692 -1193.491 67.013702 0.85813212 0.3105993 -0.40882441 0.084787749
2612.5906 -1208.762 63.671894 0.81457186 0.34748161 -0.46446666 0.10122607
2607.8062 -1181.0774 33.623886 0.9092707 0.013544689 0.41598478 0.15131482
2611.5625 -1162.0024 31.562763 0.81597632 -0.37995499 0.43567973 0.10783651
2664.3323 -1182.0442 -13.045115 0.63187724 0.016747368 0.7748875 0.101425
2621.9609 -1147.1537 30.27738 0.68545872 -0.52319396 0.50637376 0.10668949
2608.5591 -1191.4965 40.113686 0.76450878 0.48183033 0.4282124 0.11994793
2662.4626 -1162.0518 -11.394114 0.60554498 -0.067753568 0.7929216 0.087040685
2664.5938 -1131.4489 -19.09034 0.36443636 0.52233839 0.77094018 0.16904487
2669.6379 -1136.5199 -18.636551 0.93050218 0.1108955 0.34909582 0.18596379
2668.6804 -1155.0148 -16.224453 0.65948576 -0.014365817 0.75157976 0.084664553
2611.2771 -1161.6469 30.839684 0.76947814 -0.38975888 0.50595593 0.092838734
2668.6416 -1176.9818 -17.393822 0.67258036 -0.034212317 0.73923284 0.098500006
2613.1931 -1187.7001 74.916824 0.72787315 0.18299784 -0.6608423 0.095782273
2604.4875 -1176.4047 34.410339 0.88656044 -0.042267788 0.46067774 0.12309506
2623.5957 -1145.6409 29.643112 0.62406647 -0.55420697 0.55081367 0.090914324
2602.5029 -1166.0383 62.05143 0.88267285 -0.26397848 -0.38884962 0.15566429
2612.3201 -1175.4722 24.725607 0.74599832 -0.066201456 0.66264915 0.12042248
2633.4929 -1146.0116 20.575447 0.50447029 -0.6797635 0.53238273 0.070565879
2614.7258 -1159.5699 25.519091 0.68438053 -0.46501204 0.56159335 0.087829553
2605.8779 -1185.8616 66.392456 0.89788496 0.27915546 -0.34040385 0.094105132
2607.55 -1191.3862 43.393257 0.83807689 0.48142612 0.25662437 0.12433617
2651.9343 -1185.0129 -3.0958097 0.56163937 0.11075156 0.81993616 0.056386862
2650.8306 -1148.5137 0.21741872 0.53215671 -0.32911444 0.78005952 0.1003987
2607.0325 -1160.8112 42.977116 0.88411987 -0.35420269 0.30474994 0.11457341
2614.3479 -1146.2604 45.149845 0.7568444 -0.5664714 0.32603183 0.13044651
2635.8335 -1161.5027 3.3162777 0.51585501 -0.47132021 0.71536762 0.089898229
2604.0674 -1178.6129 41.945965 0.97505414 -0.076524012 0.20835906 0.13958116
2672.4404 -1157.3912 -19.110819 0.7867313 -0.073008053 0.61296302 0.11094451
2660.2891 -1187.1268 -9.1648579 0.58800918 0.11970594 0.79994732 0.087959103
2606.0742 -1176.449 32.545677 0.86187798 -0.063704967 0.50309843 0.11744775
2623.4573 -1146.6749 28.628731 0.62893683 -0.54025912 0.55906934 0.09200231
2612.302 -1161.6519 29.564795 0.78147864 -0.3897644 0.48721129 0.096661188
2615.6177 -1193.8198 76.48069 0.74706191 0.21790603 -0.62802505 0.080177568
2673.2239 -1168.429 -36.298977 0.95557141 0.19709529 -0.21917273 0.21504338
2669.6487 -1136.6925 -17.011818 0.68752015 -0.07161402 0.72262543 0.19193617
2605.3274 -1176.8146 66.982315 0.95491797 0.053207405 -0.29206276 0.14311939
2610.364 -1170.3174 27.140804 0.78833413 -0.23797871 0.56735831 0.10815546
2676.4001 -1164.5647 -27.211046 0.8655327 -0.067282699 0.49631259 0.14017628
2616.3928 -1208.0881 70.822838 0.77545339 0.32364729 -0.54214799 0.10197405
2622.6279 -1154.0907 21.990335 0.65017891 -0.52331108 0.55082929 0.087573163
2609.0815 -1176.8324 73.315666 0.83790052 0.12986684 -0.53014839 0.15634832
2609.085 -1181.5179 30.741055 0.77466011 0.18868044 0.60357386 0.13218182
2619.5732 -1151.321 28.223 0.65801698 -0.55255318 0.51156485 0.087049417
2618.6418 -1203.8009 76.01165 0.73658001 0.25018352 -0.62837738 0.089045376
2609.0867 -1166.147 30.37533 0.78604805 -0.33176908 0.5215916 0.10389946
2668.2268 -1177.9744 -16.5968 0.65814084 0.013776921 0.75276881 0.10232029
2619.6104 -1193.7921 80.422241 0.70494342 0.24017949 -0.66735941 0.082397774
2604.8032 -1175.5768 35.239292 0.90101844 -0.10820042 0.42006961 0.12362636
2664.5237 -1171.8453 -12.981577 0.6384061 -0.039858006 0.76866698 0.083671831
2670.6145 -1156.5492 -16.894459 0.6787228 -0.047915477 0.73282975 0.10127063
2619.5164 -1145.4111 34.406197 0.66627091 -0.53049147 0.52408195 0.10097659
2610.2024 -1159.6277 34.712574 0.78476584 -0.40967873 0.46508697 0.10215614
2604.5825 -1166.573 58.203156 0.99689108 0.045998611 0.063971356 0.13146909
2673.1226 -1164.7939 -21.726385 0.6995092 0.020241113 0.71433687 0.12385657
2626.7593 -1157.6725 14.786542 0.59156942 -0.52391958 0.61282456 0.072056323
2607.7681 -1196.9182 56.427959 0.91461229 0.35743245 -0.18901423 0.10158668
2622.7988 -1172.9067 16.209305 0.65710986 0.021889506 0.75347692 0.1014608
2648.9893 -1144.7784 12.394121 0.37561956 -0.78862435 0.48680753 0.075103283
2603.4736 -1177.9646 57.938202 0.98888069 0.073947638 -0.129022 0.11158785
2666.8406 -1128.9116 -25.408298 0.8927868 -0.024959164 -0.44978744 0.15252614
2669.7427 -1137.483 -17.745552 0.74807882 0.084880196 0.65815914 0.16786055
2614.1753 -1149.2355 37.429909 0.68857777 -0.56355399 0.45636335 0.090189196
2665.0168 -1154.0006 -12.979839 0.64307272 -0.021244612 0.76551038 0.088266537
2663.9888 -1175.9994 -13.013821 0.62739962 -0.031508591 0.77805972 0.087806255
2618.9048 -1149.9199 30.926723 0.6594997 -0.55460733 0.50741583 0.091010496
2609.9226 -1180.8986 29.734219 0.77955085 0.085728005 0.6204443 0.13067506
2614.7854 -1196.3811 74.580147 0.75539172 0.26181218 -0.6006977 0.092389978
2618.061 -1169.4507 22.884319 0.68983096 -0.15402569 0.70739615 0.1131186
2610.6199 -1176.5876 75.124519 0.80654132 0.12696119 -0.5773837 0.15255108
2643.6355 -1175.0282 1.427362 0.5365271 0.041554149 0.84285939 0.067658141
2648.748 -1155.1263 0.67673737 0.45036376 -0.31427467 0.83570564 0.084759764
2605.1182 -1169.5432 41.535751 0.94500238 -0.22939627 0.23312633 0.11878353
2604.8416 -1186.4886 41.675201 0.95833176 0.17246874 0.2277164 0.12319767
2646.2126 -1156.1018 1.2550273 0.43501821 -0.39527681 0.80902123 0.089683555
2608.812 -1154.0857 44.168991 0.78243572 -0.55002946 0.29199642 0.10532442
2655.842 -1180.1162 -6.5167122 0.57286936 0.021075195 0.81937569 0.06090118
2605.8496 -1183.4349 37.33321 0.89150858 0.17676207 0.4170942 0.14307854
2651.2249 -1172.9358 -5.0283647 0.52753174 0.027643796 0.84908545 0.06197622
2605.8198 -1165.828 37.944347 0.87485141 -0.33178934 0.35291764 0.11248522
2612.8113 -1150.9397 39.168571 0.72193736 -0.55684102 0.41077313 0.10979443
2651.3701 -1154.1128 -2.2654183 0.51966029 -0.24398726 0.81879383 0.10865507
2631.7168 -1143.6708 24.710009 0.54230857 -0.63045096 0.55536741 0.077627175
2670.1711 -1134.9714 -20.380554 0.88267565 0.17757072 0.43514633 0.1963007
2627.397 -1198.1947 21.114491 0.55386871 0.17884968 0.81316805 0.10540719
2617.4736 -1174.9175 21.51178 0.71546596 -0.038660895 0.69757706 0.11719928
2620.1899 -1156.7966 22.557068 0.69376951 -0.46127424 0.55309123 0.090323724
2674.2766 -1173.5432 -23.619505 0.776658 -0.061987028 0.62686521 0.13719331
2669.1384 -1186.4348 -16.13031 0.62589318 0.11270778 0.7717219 0.11618648
2611.2881 -1182.4847 29.032114 0.73730165 0.16605091 0.65483844 0.12759522
2619.1404 -1151.3087 29.306786 0.65976048 -0.53064883 0.53209764 0.092267923
2611.4673 -1166.793 27.636559 0.78647494 -0.30566329 0.53668159 0.10042568
2665.4331 -1158.1219 -13.788953 0.60364121 -0.030263355 0.79668152 0.088775985
2628.5647 -1140.1815 32.718899 0.49085557 -0.68433309 0.53921145 0.081179678
2670.8596 -1143.9476 -18.340031 0.67482144 -0.016511753 0.73779631 0.13324991
2611.0654 -1196.7317 46.80608 0.78648162 0.58195853 0.20681146 0.11774287
2606.1697 -1164.1163 46.519791 0.94364029 -0.26023978 0.20449512 0.12116721
2603.4353 -1180.647 46.760075 0.99565661 -0.077000566 0.052334107 0.1225007
2614.7537 -1146.979 39.687672 0.72698289 -0.52246779 0.44555953 0.10980087
2654.3489 -1178.9633 -6.4514832 0.53571367 0.056526143 0.84250557 0.064398713
2668.2632 -1145.8103 -14.687883 0.70923519 -0.017389156 0.70475745 0.1112129
2607.2585 -1164.103 38.096092 0.87808126 -0.34996882 0.32633594 0.12068467
2653.3857 -1157.4352 -4.8529696 0.53459239 -0.16787985 0.82826763 0.096610606
2604.4978 -1182.6339 39.238464 0.93810403 0.098177217 0.33214772 0.13875392
2607.7415 -1167.0181 32.590202 0.82356006 -0.30583921 0.47771451 0.098848455
2661.6079 -1197.2539 -12.017407 0.62677538 -0.099003829 0.77288473 0.10697459
2605.6968 -1180.9932 34.388592 0.86314958 0.11291517 0.49216157 0.13412713
2616.1599 -1152.1097 32.109543 0.71789384 -0.49260017 0.49190798 0.096471697
2668.8425 -1182.7184 -17.513906 0.67675048 -0.045845978 0.73478359 0.1109642
2656.8267 -1144.7393 9.8560305 0.23888275 -0.86742067 0.43648186 0.06727232
2630.3625 -1188.9635 16.786703 0.55060232 0.41889155 0.72205746 0.057015214
2638.3201 -1156.5629 7.3471589 0.57750183 -0.42414895 0.69755954 0.097256437
2623.2268 -1169.3668 15.329396 0.66468483 -0.19871594 0.72021246 0.10865667
2679.1157 -1169.7938 -28.827074 0.76325202 0.025735417 0.64558816 0.17911227
2611.1514 -1175.5929 26.15716 0.7642414 -0.073656581 0.64071035 0.12352962
2667.0205 -1128.2256 -26.894943 0.90959835 -0.10155664 -0.402886 0.19444515
2617.2893 -1160.4661 22.787128 0.7036882 -0.45063335 0.54932004 0.088830911
2638.5149 -1144.6099 17.525517 0.52846026 -0.66569984 0.52685243 0.065160312
2609.5715 -1187.4612 69.78437 0.9208914 0.18114381 -0.34517521 0.10880027
2674.1924 -1172.2871 -23.091026 0.73047531 -0.050028458 0.68110424 0.12487026
2603.6069 -1179.9343 58.904739 0.98230904 0.10627692 -0.15418854 0.12199166
2627.9629 -1175.7726 13.202774 0.61830336 0.14599794 0.77226001 0.083379671
2604.2554 -1163.8739 59.976471 0.99941385 -0.033653785 0.0062795356 0.13031448
2627.2173 -1159.1851 13.217617 0.6052261 -0.51572782 0.6064043 0.072364785
2605.8831 -1193.9204 56.640171 0.92120296 0.32564527 -0.21293256 0.091836691
2641.5432 -1145.9651 13.364096 0.48721534 -0.68061811 0.54715645 0.065912478
2602.2241 -1173.5095 47.81842 0.98821533 -0.080904692 0.12994169 0.10916875
2654.9883 -1147.3971 -3.0861356 0.53891283 -0.16150169 0.8267346 0.10354485
2605.9641 -1156.9443 48.306927 0.8798632 -0.43435812 0.19280501 0.12565422
2602.7651 -1189.2528 47.910954 0.9587754 0.26972243 0.089439876 0.11403271
2636.8474 -1160.599 4.2465463 0.49646154 -0.45314661 0.74039453 0.092031531
2636.6248 -1176.5828 5.715652 0.52418917 0.20495288 0.82657123 0.04910231
2605.2957 -1187.2157 39.346878 0.82125616 0.3746402 0.43032897 0.12095574
2608.7927 -1158.9449 38.67485 0.82817906 -0.42469504 0.36572331 0.11692632
2616.5398 -1143.9752 39.701176 0.69783694 -0.54271102 0.46742737 0.098324999
2608.0532 -1179.6339 32.876945 0.91101921 -0.048008997 0.40955964 0.15108301
2643.874 -1161.6094 0.11949462 0.45497635 -0.30644941 0.83611321 0.10284634
2661.3743 -1150.6245 -9.1521435 0.63738364 -0.091132514 0.76513851 0.094954267
2663.2441 -1173.0566 -12.425426 0.61974251 -0.028195418 0.78429854 0.082975142
2663.2773 -1154.0559 -12.206363 0.63176465 -0.015496774 0.77500534 0.091119878
2613.8894 -1155.9351 31.93433 0.76778352 -0.45045218 0.45563284 0.10441916
2627.2712 -1143.1766 29.224834 0.54177552 -0.61196136 0.57617927 0.092255019
2608.6267 -1187.1522 35.517838 0.8338939 0.26915243 0.48184851 0.15162566
2608.4519 -1171.3566 31.645929 0.86189103 -0.21764997 0.45800906 0.11341313
2665.0378 -1192.8727 -14.179458 0.62994587 -0.083376929 0.77215058 0.10263158
2649.4062 -1147.6061 5.6052699 0.42848724 -0.63930959 0.63849974 0.072814077
2605.9531 -1193.1779 50.852776 0.93814701 0.34511253 -0.027884945 0.10492925
2602.9685 -1174.0731 51.031532 0.99663353 -0.075290076 0.032450505 0.1076965
2629.3318 -1160.9902 9.336935 0.59225827 -0.5455547 0.59295887 0.07724493
2651.3013 -1194.0088 -0.92786068 0.61573476 0.13219704 0.77678478 0.066464901
2606.2876 -1154.8917 51.59927 0.90514582 -0.35282621 0.23711751 0.12682331
2636.0232 -1163.7792 4.4639268 0.53251189 -0.31338161 0.78627163 0.090323523
2609.9736 -1147.4921 49.178009 0.73964667 -0.58250296 0.3370654 0.11618627
2651.5715 -1148.3413 -0.17836343 0.54055524 -0.32274598 0.77693957 0.10322791
2601.9238 -1180.4318 47.632416 0.99429226 0.07131131 0.079357155 0.10857853
2648.9932 -1190.0012 -0.0086950893 0.60874629 0.11361469 0.78518766 0.057805646
2603.1179 -1162.4756 48.44672 0.94291127 -0.28754404 0.168038 0.11386886
2619.0337 -1154.0073 26.693096 0.69738418 -0.46849465 0.54237264 0.096416391
2612.6978 -1197.5817 71.183418 0.76088387 0.29183477 -0.57955861 0.093705468
2615.2122 -1171.418 24.456858 0.72575736 -0.1115151 0.67885244 0.11879534
2624.3804 -1141.902 33.530502 0.54047632 -0.62388712 0.56449115 0.079076789
2608.4053 -1178.2231 72.140556 0.82975489 0.14633165 -0.53860366 0.14160834
2612.478 -1185.1193 29.330978 0.7051329 0.25063083 0.66330373 0.12902123
2617.4929 -1156.3313 26.388489 0.69459027 -0.46679524 0.54739988 0.09475477
2617.2842 -1206.887 72.791161 0.7674306 0.30508491 -0.56389141 0.091469653
2632.4358 -1142.361 25.429129 0.54996455 -0.62287641 0.55638474 0.078804649
2674.9534 -1170.9502 -25.216999 0.86849022 -0.082539074 0.48878634 0.14277558
2607.2996 -1179.9813 70.508224 0.84758013 0.20080608 -0.49120757 0.12994573
2607.1289 -1169.8785 30.683912 0.82003015 -0.25857368 0.51057833 0.1188091
2665.9094 -1181.5353 -14.343558 0.64112127 0.076208629 0.76364636 0.10154846
2603.248 -1173.2906 43.456047 0.97226334 -0.12569395 0.19724365 0.1141876
2602.5952 -1187.0105 45.36245 0.9551366 0.26949766 0.1228215 0.11396673
2608.1443 -1155.3079 44.08482 0.78891915 -0.5531255 0.26769149 0.11122454
2619.8726 -1137.9025 41.915127 0.70160997 -0.5376755 0.46759871 0.12380327
2622.4507 -1147.3533 29.183796 0.62795478 -0.58575428 0.5124107 0.090916142
2606.4768 -1171.0082 67.019424 -0.65921479 0.26521915 0.70362961 0.16766393
2614.7043 -1195.0903 75.218002 0.78149885 0.23885216 -0.57637596 0.083490297
2604.1277 -1174.2041 32.725216 0.90067536 -0.089420587 0.42519161 0.11326055
2671.8374 -1176.6824 -20.815926 0.73049819 -0.044938765 0.68143445 0.11776944
2610.301 -1161.67 31.549772 0.76649296 -0.38607067 0.51326209 0.096769884
2613.9731 -1159.4585 28.337688 0.76829374 -0.40518507 0.4955298 0.090689711
2625.6313 -1144.687 28.677319 0.59187955 -0.5678364 0.57204926 0.088415705
2609.2029 -1172.1664 66.330185 -0.28042415 0.45233369 0.84661478 0.1643437
2612.2712 -1187.4635 74.192139 0.76936221 0.18172343 -0.61242014 0.10055952
2606.2361 -1173.3217 32.311615 0.84867513 -0.15501423 0.50568873 0.1083487
2672.5022 -1175.136 -21.824493 0.77725154 -0.079024099 0.62420768 0.12304279
2676.5059 -1165.2822 -26.573523 0.8204695 -0.06605503 0.56786138 0.14289287
2627.4038 -1152.3076 18.400152 0.58534062 -0.56193453 0.58447063 0.07279323
2605.9927 -1176.6649 65.756058 0.97895432 0.072269 -0.19085506 0.13193463
2619.2529 -1183.9729 22.467756 0.589252 0.28085735 0.7575627 0.10437461
2614.2456 -1165.4153 22.07815 0.71425873 -0.39058518 0.58075613 0.10132917
2643.8911 -1191.1881 5.3957276 0.59316003 0.33415312 0.73246354 0.048820872
2603.2581 -1162.8623 52.962139 0.95537549 -0.29536825 -0.0039070412 0.11727004
2679.6621 -1169.6276 -29.608633 0.76738214 0.03729865 0.64010423 0.18891405
2602.0107 -1180.2992 52.761662 0.99250138 0.11572482 -0.039354477 0.10685527
2628.6206 -1161.4913 9.6137991 0.59355682 -0.54620856 0.59105539 0.07551977
2647.2012 -1147.9613 6.8643217 0.46072036 -0.59900552 0.65492678 0.089635871
2629.5444 -1146.2203 23.454041 0.5320859 -0.67343861 0.51319104 0.081649169
2608.137 -1190.1353 67.502342 0.85492116 0.31035003 -0.41568336 0.081936292
2609.9739 -1176.6268 27.276388 0.79542851 -0.071492262 0.60181582 0.13479091
2613.7771 -1160.3599 26.427803 0.6975314 -0.44873253 0.55864936 0.09245111
2599.8813 -1164.8822 62.062828 0.89270842 -0.1728961 -0.41614735 0.12010283
2631.5479 -1168.5183 9.0756569 0.5709129 -0.083411343 0.81676251 0.10226444
2606.2358 -1155.208 51.106022 0.91798401 -0.26299724 0.29688022 0.13140762
2654.2708 -1144.5336 6.3559604 0.38898784 -0.76637751 0.51122797 0.073801696
2603.6643 -1187.7523 49.903652 0.98748624 0.14697926 -0.057166457 0.10214059
2634.2629 -1155.8536 8.6819582 0.52211958 -0.61664826 0.58918256 0.069628626
2603.2935 -1171.0371 51.008427 0.99169898 -0.12539057 0.028465401 0.10860319
2625.2585 -1163.64 15.184241 0.63943619 -0.31037885 0.70341051 0.097738475
2638.3994 -1147.3325 13.381489 0.57110786 -0.58579808 0.57504469 0.075722933
2654.1997 -1127.6038 -25.785397 -0.22262967 0.38838196 0.89420104 0.2077751
2677.74 -1163.1409 -32.795006 0.93307722 0.018099651 0.35922039 0.158106
2636.1675 -1191.9972 13.607543 0.57730973 0.31413496 0.75367945 0.047735557
2604.2224 -1174.1945 33.617771 0.90620589 -0.10588866 0.40936345 0.11322277
2616.2976 -1194.9077 76.73658 0.72942084 0.22612391 -0.64561069 0.079364292
2670.769 -1174.9913 -20.050468 0.77078485 -0.12477992 0.62475652 0.11578103
2672.5752 -1155.5448 -19.145294 0.77935481 -0.055223823 0.62414455 0.10530222
2613.6062 -1172.9901 77.302429 0.79295778 -0.019797228 -0.60895485 0.16577181
2610.9312 -1160.5519 31.93107 0.76375973 -0.40434664 0.50316483 0.094270982
2623.2761 -1145.2406 30.232771 0.63633639 -0.55441588 0.53637588 0.088447414
2637.8052 -1172.3877 5.5207057 0.52380013 0.11432267 0.84413493 0.070769727
2602.9888 -1186.9974 48.122265 0.98607647 0.16506939 0.020131027 0.11317298
2601.1545 -1166.8213 49.477322 0.95417356 -0.26510835 0.13881767 0.10250065
2606.5886 -1151.8293 50.615292 0.84248292 -0.47371992 0.25653836 0.12302962
2637.355 -1156.808 5.3530068 0.51780242 -0.57166272 0.63646084 0.088284642
2615.7085 -1153.0011 30.86508 0.70359528 -0.5198316 0.48448822 0.091994114
2610.175 -1178.5121 73.606667 0.79259175 0.12179516 -0.5974648 0.14377634
2625.4617 -1198.364 24.811689 0.59064102 0.31738827 0.74189478 0.081119239
2607.4062 -1167.4236 32.01659 0.80681419 -0.30522752 0.50585276 0.10550858
2623.6152 -1207.8015 78.672318 -0.64974779 -0.21837586 0.72810698 0.096235298
2668.4385 -1182.0111 -16.651272 0.65300763 0.012846447 0.75724238 0.10721026
2655.0764 -1196.1188 -4.1136646 0.63624835 0.08177758 0.76713783 0.070736222
2611.7156 -1151.4489 42.32069 0.79200321 -0.49673951 0.35493767 0.12156866
2604.5906 -1166.8125 41.802555 0.91504031 -0.2869651 0.28346473 0.11091795
2647.3428 -1154.163 1.4865339 0.43939891 -0.38057131 0.81369162 0.093374595
2604.5542 -1184.6595 41.655678 0.96062499 0.12803757 0.24658869 0.12470722
2653.7798 -1177.0381 -5.6148362 0.52333635 0.0089675924 0.85207903 0.054731715
2672.0518 -1162.2412 -19.446997 0.7841028 -0.085626937 0.61469573 0.10853973
2606.9399 -1180.463 32.13884 0.8405028 0.09136378 0.53404844 0.13578926
2609.4395 -1165.0817 30.637804 0.77912509 -0.34547639 0.52307761 0.094961494
2669.543 -1180.0017 -17.770884 0.66347963 0.00045312598 0.74819422 0.10921717
2618.6748 -1150.5681 30.518978 0.65936029 -0.5550828 0.50707698 0.089128301
2608.6956 -1173.8553 72.27935 0.7835421 0.024137676 -0.6208697 0.16149387
2622.408 -1203.8391 79.550713 0.69450825 0.22484104 -0.68345064 0.088197373
2664.4275 -1150.3667 -10.241954 0.63289356 -0.052927755 0.77242756 0.086062916
2647.9636 -1157.9764 -0.068210602 0.44930431 -0.29224789 0.84422559 0.087181397
2648.8687 -1178.3787 -2.0640109 0.56811506 0.10092993 0.81673646 0.052925617
2622.4812 -1155.1052 20.181179 0.61654705 -0.54995447 0.56340021 0.078279875
2603.6738 -1171.4186 62.951408 0.97215194 -0.046919797 -0.22960639 0.14350829
2613.5547 -1169.0338 22.441051 0.75094497 -0.27495426 0.60040134 0.11407688
2607.7131 -1192.2689 64.124664 0.87935603 0.32297635 -0.3498846 0.08834774
2619.5479 -1156.8136 23.40591 0.71323007 -0.45172054 0.53595841 0.09264379
2610.1953 -1196.1464 66.927811 0.8482706 0.32985631 -0.41428471 0.091722742
2624.3354 -1194.7981 24.436218 0.57217729 0.34455493 0.7442413 0.093888313
2613.1665 -1172.035 25.142874 0.74961007 -0.15757215 0.64284974 0.11653655
2607.7671 -1180.3466 69.848862 0.92504323 0.14358093 -0.35168099 0.13856779
2629.4602 -1143.3893 26.436338 0.54463339 -0.61628956 0.56882483 0.086219035
2670.5461 -1133.5796 -15.644612 0.96121544 0.065893546 -0.26781133 0.16413027
2674.6777 -1169.2827 -24.380308 0.83871949 -0.11303934 0.53270233 0.13874687
2620.3914 -1144.8259 33.68911 0.58392179 -0.62361139 0.51975399 0.075265497
2611.9368 -1158.3315 31.718035 0.73974419 -0.43810096 0.51073092 0.089044161
2606.3044 -1175.6659 32.14222 0.85540044 -0.10737608 0.50671536 0.11210679
2620.3521 -1200.2184 78.641197 0.69123799 0.23294581 -0.68405139 0.077717446
2619.5332 -1178.0195 78.614761 -0.6044929 -0.025356412 0.79620689 0.13046029
2656.6731 -1190.0232 -6.5875349 0.54414999 0.0054381797 0.8389703 0.069805883
2607.2668 -1192.4603 43.702057 0.84733653 0.47859973 0.23013708 0.12578262
2612.5745 -1147.3922 46.252506 0.77629578 -0.53003395 0.3412168 0.12533085
2603.3933 -1178.9719 43.911346 0.98845422 -0.04582845 0.14442316 0.12120885
2650.4104 -1150.3134 0.70029926 0.47169346 -0.36009717 0.80488217 0.095244691
2605.9165 -1162.2212 44.376633 0.90196019 -0.33712003 0.26984784 0.11808647
2634.6284 -1162.9731 3.8192372 0.53952157 -0.44208083 0.71657586 0.092029072
2606.3726 -1191.1611 59.152653 0.9427737 0.24204199 -0.22933248 0.10827543
2605.8438 -1160.4664 60.11026 0.99690533 -0.040426619 0.067419849 0.12924825
2611.6208 -1206.2285 56.506111 0.82640016 0.49566132 -0.26717538 0.088270053
2604.0002 -1173.9661 60.47871 0.99287844 -0.0084272409 -0.11883353 0.12351107
2609.8684 -1146.3662 53.587986 0.83150721 -0.46574315 0.30278546 0.13915718
2602.1013 -1163.6469 54.263016 0.94981009 -0.31201661 0.02250319 0.11736083
2600.9243 -1178.8353 53.135452 0.99130028 0.10568383 -0.078451715 0.098097995
2627.2073 -1161.9054 10.215571 0.59072709 -0.54835242 0.59190464 0.077269711
2644.2292 -1149.2339 7.8939433 0.3986643 -0.75712717 0.51751834 0.07080587
2612.3823 -1153.6222 36.633877 0.7612226 -0.46569884 0.45129231 0.11187796
2620.5371 -1187.8091 83.488754 0.7014237 0.24940228 -0.66768503 0.088887937
2605.6721 -1184.929 37.361141 0.90948784 0.17174327 0.37859753 0.14241634
2605.033 -1168.541 37.814678 0.90396851 -0.27678359 0.32593212 0.1099882
2660.3501 -1161.722 -9.3466835 0.57246715 -0.096444577 0.81423575 0.08226683
2622.9126 -1139.9178 36.927528 0.62360156 -0.58639622 0.51697248 0.099918596
2624.3345 -1187.2756 20.081253 0.55149245 0.40737054 0.72794598 0.069847107
2615.123 -1165.3936 21.095476 0.70716321 -0.39193055 0.58848161 0.096652225
2629.1592 -1152.0814 17.151798 0.59155369 -0.55186993 0.58779573 0.069226138
2603.7896 -1167.9381 61.537403 0.97601241 -0.11754223 -0.1832584 0.14142659
2672.8779 -1160.7576 -21.060778 0.65461147 0.023074547 0.75561327 0.1258173
2602.3682 -1181.8538 61.058678 0.92348844 0.28023803 -0.26198426 0.098480783
2613.0444 -1209.8461 62.519485 0.83796972 0.35779732 -0.4120532 0.093322001
2621.9602 -1149.5389 27.517597 0.65619391 -0.53126663 0.53587806 0.093582258
2615.4695 -1209.3929 68.664345 0.7341038 0.34991738 -0.58193594 0.097257763
2608.9392 -1174.5415 73.230011 0.81432402 0.094780006 -0.57261956 0.15767594
2614.1123 -1182.972 27.111557 0.69897944 0.17364272 0.69374061 0.12986767
2609.4949 -1190.1195 70.721146 0.76172537 0.26067176 -0.59314817 0.077130765
2618.6594 -1168.3752 22.411654 0.68273646 -0.17494698 0.70941132 0.11152373
2638.1267 -1144.7429 18.103449 0.49233609 -0.70864195 0.50540251 0.062548518
2620.2395 -1158.5325 20.891176 0.67708826 -0.46329561 0.57175928 0.084534772
2604.2539 -1176.5786 64.873383 0.95812494 0.055654559 -0.28089005 0.14122574
2603.3682 -1164.757 57.799294 0.61544955 -0.57529551 -0.53875506 0.14753677
2613.7593 -1173.481 23.187029 0.75916868 -0.097133674 0.64360547 0.12511589
2613.0859 -1203.9697 67.95237 0.83592528 0.29436937 -0.46322301 0.086386889
