# .PCD v0.7 - Point Cloud Data file format
VERSION 0.7
FIELDS x y z normal_x normal_y normal_z curvature
SIZE 4 4 4 4 4 4 4
TYPE F F F F F F F
COUNT 1 1 1 1 1 1 1
WIDTH 528
HEIGHT 1
VIEWPOINT 0 0 0 1 0 0 0
POINTS 528
DATA ascii
2518.3845 -1811.5985 48.228859 0.75782478 0.48562545 -0.4357402 0.16087057
2528.8503 -1820.2513 50.773228 0.82345468 -0.55198759 0.13127102 0.16720606
2523.4966 -1826.3146 55.87085 0.79533654 -0.58627093 0.15403304 0.13785978
2507.3899 -1846.1023 83.34053 0.97686774 -0.18030772 0.11497183 0.12574363
2509.9182 -1870.8004 103.09927 0.95160884 0.032099325 -0.30563092 0.089962617
2517.2607 -1887.0632 121.91373 0.9153524 0.26295123 -0.30493715 0.072217159
2508.313 -1875.9188 98.082146 0.95737082 0.10036168 -0.27086657 0.089977957
2508.7659 -1885.6891 77.782852 0.98575133 0.1604328 0.050553367 0.073207699
2516.6345 -1889.6259 117.76938 0.92220968 0.24402642 -0.29996741 0.072529688
2511.5225 -1875.2325 109.11554 0.93833536 0.13040419 -0.3201898 0.088239148
2534.261 -1895.1 155.99443 0.82918996 0.2288606 -0.50996745 0.061627384
2505.5164 -1874.3043 82.679466 0.99597961 0.081359245 -0.037486766 0.071902201
2525.3096 -1895.3273 139.07523 0.90142751 0.28398356 -0.32677481 0.040905882
2530.8291 -1892.0388 152.09361 0.860295 0.19503264 -0.47101468 0.052000269
2506.427 -1876.3198 87.995018 0.98978925 0.079897098 -0.11804095 0.06718304
2520.8604 -1889.7953 133.20795 0.89982688 0.33852273 -0.27516174 0.042365201
2530.9749 -1902.3512 147.03586 0.86186498 0.28312558 -0.42074776 0.042963304
2508.5093 -1844.5824 78.844658 0.92112035 -0.31676194 0.22627237 0.1210189
2519.3726 -1888.3298 127.42382 0.91951555 0.28586146 -0.26976719 0.066833355
2506.7354 -1852.1417 88.027885 0.99318993 -0.11647186 0.0028446489 0.12150842
2519.3867 -1830.9862 61.39748 0.83407569 -0.520585 0.1825076 0.11006171
2507.3374 -1876.238 93.60334 0.98579246 0.080445245 -0.14745101 0.07666079
2511.5886 -1841.2302 71.593269 0.88443696 -0.42033541 0.20270519 0.10495828
2507.0789 -1862.1501 93.471092 0.98442781 -0.048015829 -0.16910477 0.10232529
2515.5476 -1836.4806 67.035683 0.86086178 -0.46955454 0.19604973 0.094913267
2526.3308 -1886.6624 147.17004 0.89309746 0.22162859 -0.3914814 0.053225581
2508.1423 -1866.077 97.92466 0.96776199 -0.017996931 -0.25122273 0.089744285
2510.1577 -1876.88 103.77235 0.93692219 0.11458559 -0.33022261 0.093214989
2507.0952 -1845.8433 90.113281 0.9829368 -0.1285456 -0.13157216 0.14921296
2505.2808 -1851.8715 83.234146 0.98790842 -0.056340966 0.14443916 0.12904628
2516.251 -1869.7338 125.78541 0.94540727 0.020547898 -0.32524279 0.12842236
2504.2461 -1851.1417 78.557838 0.98239505 0.043811865 0.18160541 0.14216416
2513.896 -1877.9369 116.71468 0.9392302 0.14479817 -0.31125578 0.087251022
2506.6614 -1844.1379 90.574883 0.81808293 -0.42744035 -0.38475326 0.16568264
2504.7776 -1845.2152 87.183395 0.99985808 -0.012822373 0.010929261 0.15465191
2515.491 -1868.1996 134.43596 0.93864685 0.26036003 -0.22617403 0.13206349
2513.8662 -1871.5649 118.68746 0.92354572 -0.040553376 -0.38133806 0.1165979
2508.3657 -1869.0499 70.896088 0.97951663 -0.011190256 0.20105219 0.1160859
2508.0242 -1841.9174 95.129456 0.76468444 -0.50476348 -0.40058905 0.17008384
2511.8445 -1876.6965 110.25838 0.94583547 0.13939984 -0.29319432 0.089551993
2525.9761 -1823.916 47.167107 0.79768866 -0.59166574 0.11672366 0.15248092
2527.7075 -1817.392 64.837234 0.76222181 -0.61272371 0.20877628 0.14833488
2526.2812 -1822.4735 53.382919 0.78112108 -0.61060202 0.13044164 0.14287911
2524.0427 -1827.0236 42.045895 0.96678615 0.0057483199 -0.25552192 0.19735298
2526.6155 -1820.7469 58.311234 0.73888099 -0.66438639 0.11245258 0.14649373
2532.394 -1810.5117 65.938599 0.78467751 -0.58068502 0.21699327 0.18289761
2532.5894 -1810.5094 59.638287 0.87094021 -0.47622553 0.12112959 0.18395399
2530.5295 -1807.568 53.952309 0.97553599 -0.21906908 -0.018393181 0.17668204
2521.7249 -1837.2386 8.1121836 0.93976468 -0.30933574 0.14544335 0.2198295
2515.4446 -1913.0715 99.598358 0.8853038 0.2293383 -0.40452579 0.046931244
2512.1748 -1843.8088 58.940403 0.93000156 -0.29094294 0.22460926 0.10941358
2512.8137 -1891.6763 104.3163 0.92294019 0.16475201 -0.34790537 0.071901254
2521.7791 -1838.5804 16.024889 0.98523831 -0.084368736 0.1489542 0.21258672
2521.1169 -1831.0325 39.656559 0.84789848 -0.51923162 0.1070823 0.15772253
2521.7437 -1832.2397 32.031883 0.93018544 -0.36707965 0.0027605488 0.1899925
2530.0977 -1841.1132 51.367191 0.9857794 0.0080243619 -0.16785276 0.18979642
2521.0283 -1829.067 45.260265 0.78394341 -0.60575199 0.13600454 0.15693437
2517.4399 -1837.1543 20.667229 0.96905005 -0.10384947 -0.22395815 0.22878733
2520.2756 -1833.0579 25.274448 0.97342962 -0.21595639 -0.076141931 0.19689843
2516.2068 -1840.3303 56.11002 0.85233909 -0.47215986 0.22490701 0.12251373
2513.4324 -1892.8801 105.30231 0.91439956 0.1445459 -0.3781268 0.074405745
2525.1833 -1932.1637 103.74722 0.85192794 0.39539412 -0.34333989 0.068987049
2510.1816 -1858.0188 103.95651 0.96758974 -0.10036664 -0.23172541 0.10585272
2526.4763 -1822.319 57.107025 0.81676352 -0.54700464 0.18353003 0.15905665
2508.2168 -1854.9366 73.909874 0.95919961 -0.1244973 0.25384352 0.095697068
2507.9131 -1879.616 75.597176 0.98971808 0.077372365 0.12029829 0.05772087
2535.3906 -1931.4541 129.78302 0.84752142 0.40026912 -0.34855705 0.032999478
2513.377 -1837.312 70.531342 0.86795747 -0.45078582 0.2084274 0.096337281
2515.9668 -1834.1439 22.7915 0.84299022 -0.14181049 -0.51890004 0.1704237
2521.9866 -1899.2654 127.0743 0.92984599 0.2287325 -0.28821507 0.032592341
2506.7188 -1867.0018 89.74472 0.98914981 -0.0010303971 -0.1469069 0.090050653
2521.1414 -1828.7571 36.739342 0.75336522 0.36016786 -0.55019993 0.16912539
2518.4275 -1840.3486 34.150719 0.87285364 -0.48496327 0.054195907 0.21444064
2509.1023 -1843.5853 87.295372 0.96681237 -0.251165 0.046796735 0.12036994
2519.8645 -1878.9753 139.63423 0.91068685 0.26860085 -0.31385189 0.086281888
2510.2915 -1892.1296 93.305428 0.94726193 0.25047249 -0.19989595 0.068027459
2511.1746 -1842.0743 74.041283 0.89883071 -0.38324699 0.21266206 0.11039756
2519.5747 -1826.8545 75.521294 0.84202921 -0.48817813 0.22949706 0.088028461
2518.0801 -1832.7898 27.821718 0.91470557 -0.10017192 -0.391509 0.20507896
2509.5981 -1880.941 67.259766 0.9863922 0.036409739 0.16032691 0.072090462
2509.1289 -1859.1906 71.8032 0.96691734 -0.058868229 0.24820423 0.099268936
2512.6956 -1849.3939 40.001648 0.87017328 -0.49274153 0.0020629351 0.18920304
2519.1887 -1836.8998 45.217159 0.86940992 -0.47165346 0.14720525 0.16128346
2524.4336 -1825.5161 49.319439 0.78531849 -0.60677761 0.12286479 0.14468627
2538.3057 -1940.6669 121.0599 0.77922517 0.60320956 -0.1701365 0.040159576
2518.7642 -1822.0028 28.686472 0.92515254 -0.0033500944 -0.37958083 0.18063638
2508.0894 -1876.7709 75.024544 0.97937965 0.044101033 0.19715635 0.074807093
2518.3171 -1884.5092 127.44503 0.92788762 0.28073847 -0.24537823 0.066745944
2508.0234 -1855.1461 77.145584 0.98030001 -0.13989687 0.13943008 0.099790782
2523.2593 -1908.486 123.30677 0.93416595 0.21252701 -0.2866466 0.02850911
2512.2349 -1833.1941 80.897255 0.8895697 -0.39274094 0.23328163 0.10896616
2523.8188 -1831.4509 41.392227 0.88240689 -0.45418334 0.12278276 0.20297831
2525.9312 -1824.2443 46.305874 0.98051131 -0.18211077 -0.07371062 0.18905255
2518.2029 -1841.0282 36.494701 0.88159537 -0.45781735 -0.11486008 0.24700888
2511.1943 -1845.9784 31.968016 0.76807415 -0.60983056 -0.19536833 0.22096601
2521.2014 -1823.4663 27.278372 0.96402371 -0.172353 -0.20236772 0.17727938
2515.7463 -1829.2603 78.703072 0.84526896 -0.50836098 0.16458896 0.09032768
2521.959 -1828.1129 24.068977 0.96192753 -0.27323762 0.0060544051 0.19161513
2529.9165 -1817.7776 52.216434 0.74566507 -0.66001302 0.091467828 0.15858619
2526.4326 -1823.2971 40.399078 0.86479139 -0.49997976 0.046433598 0.1713843
2523.8806 -1824.1012 34.035107 0.94791228 -0.28946829 -0.13293001 0.18339349
2528.5457 -1819.8756 46.721588 0.83722425 -0.54096717 0.080063142 0.16200033
2542.1089 -1942.6234 131.75784 0.75098729 0.49024332 -0.4423568 0.023320165
2516.4883 -1814.9977 43.321316 0.70196068 0.53874576 -0.46583715 0.15605478
2520.6929 -1834.6166 37.861034 0.85353124 -0.51220906 0.095531635 0.16916367
2510.1426 -1843.7418 84.902634 0.95193279 -0.28659979 0.10809477 0.11781292
2526.5132 -1906.1248 134.16916 0.91804314 0.23537323 -0.31905523 0.026865069
2506.968 -1868.004 83.999832 0.99999136 -0.0041538929 -0.00017626042 0.096010558
2522.0276 -1835.8066 38.540871 0.94968277 -0.28527725 -0.12930398 0.22729404
2525.6982 -1825.387 49.674519 0.83050573 -0.53601921 0.1514717 0.16400123
2529.5012 -1816.5559 61.09425 0.77078855 -0.60891265 0.1873776 0.15838726
2523.9988 -1831.0684 43.797287 0.90277117 -0.42028788 0.091445781 0.1931408
2527.2417 -1821.6676 55.512058 0.78919369 -0.58709121 0.18027006 0.16743855
2532.2676 -1811.0397 66.224228 0.78036022 -0.59845293 0.18136166 0.18022314
2530.4031 -1810.8667 63.882607 0.89521885 -0.36922282 0.24951488 0.17804185
2533.2134 -1809.6022 60.681873 0.86125541 -0.49930522 0.094516598 0.1902148
2506.8872 -1864.175 95.733368 0.97721529 -0.029057959 -0.21025188 0.094793603
2516.303 -1846.3057 44.118176 0.92636949 -0.33886835 0.16434065 0.16099058
2523.1489 -1832.0736 39.202194 0.89365071 -0.44664478 0.043552347 0.21075428
2509.1497 -1845.4042 92.37899 0.97770965 -0.19202162 -0.084921099 0.13708587
2510.7881 -1887.2952 100.79694 0.93844956 0.17460312 -0.2980372 0.082963794
2528.4995 -1890.5413 148.39079 0.85789335 0.19254455 -0.47638813 0.050103057
2517.293 -1910.2633 103.98412 0.89345223 0.29316884 -0.34028679 0.049218319
2519.5496 -1820.7493 39.650513 0.74619573 0.47565937 -0.46576825 0.15925635
2545.9819 -1946.0139 133.01392 0.6738224 0.52277613 -0.52217668 0.024129149
2522.6719 -1895.5229 131.50566 0.92495203 0.26392987 -0.27350459 0.034662873
2515.636 -1828.4508 25.704868 0.83131105 0.16377459 -0.53113067 0.17519669
2516.875 -1829.9634 23.452925 0.84967744 -0.072644867 -0.52227485 0.15972163
2521.3921 -1824.9681 33.194504 0.95127255 -0.049783863 -0.30430597 0.1941877
2525.6482 -1824.7532 38.237858 0.89737797 -0.44037929 0.027908985 0.1644901
2526.6187 -1823.3416 49.655708 0.80487829 -0.58233458 0.11426889 0.15757263
2517.2168 -1826.7792 29.894829 0.84733748 0.13801821 -0.51280624 0.18502879
2526.2153 -1824.538 43.960747 0.84117228 -0.52904069 0.11200474 0.16788475
2544.1592 -1948.2352 117.62885 0.76751071 0.62731189 -0.13193581 0.054426193
2526.406 -1819.2639 67.091957 0.85531604 -0.36090738 0.37172616 0.13238914
2516.823 -1883.3512 122.43481 0.93456644 0.24391475 -0.25901952 0.080207311
2509.4534 -1854.4098 68.545525 0.9597832 -0.22243096 0.1712911 0.10088723
2517.0371 -1833.437 70.718445 0.83703744 -0.48935056 0.24475366 0.088955492
2523.5688 -1911.9861 119.93758 0.9295814 0.26713097 -0.25400689 0.036759231
2521.2266 -1835.1165 48.034794 0.88130319 -0.45275494 0.13534257 0.18087515
2508.3313 -1866.9541 94.374794 0.97534323 -0.02684957 -0.2190541 0.08796601
2508.8835 -1891.4529 92.100189 0.93423748 0.13575144 -0.32980576 0.082062855
2529.4287 -1818.6736 51.919067 0.86178398 -0.4923664 0.12208064 0.17800574
2510.0391 -1845.4551 97.167152 0.98197603 -0.18069366 -0.055433985 0.13979965
2509.9531 -1851.12 111.29047 0.98841888 0.057929236 -0.14025821 0.12291317
2526.7173 -1818.2214 66.03804 0.76257306 -0.61475706 0.20138539 0.14450003
2512.3037 -1877.9613 109.90756 0.94960284 0.12103852 -0.28914374 0.087227255
2516.0601 -1836.2687 64.083527 0.8501851 -0.47508293 0.22689527 0.099398687
2519.1858 -1910.3608 108.26299 0.91318399 0.26700231 -0.3079038 0.044169512
2516.9614 -1836.5378 63.273979 0.84690857 -0.47380939 0.2413515 0.11027134
2531.4861 -1807.7559 68.725754 0.86812717 -0.43161929 0.2450714 0.18421784
2524.3154 -1821.6467 66.63942 0.79504639 -0.56542003 0.21954806 0.13013382
2516.8726 -1838.0712 59.126045 0.85416776 -0.45684606 0.24837282 0.11454186
2527.5168 -1932.8593 106.55919 0.87774485 0.3993085 -0.26479554 0.049935963
2513.6572 -1889.9144 107.12408 0.91772091 0.15706593 -0.36485425 0.075046651
2527.8401 -1819.113 59.769722 0.78397882 -0.58329338 0.21247604 0.15562755
2511.5063 -1855.9247 107.13261 0.95546442 -0.14570199 -0.25662953 0.10945578
2520.5713 -1823.1249 82.702408 0.78506166 -0.61908847 -0.020190492 0.091719449
2523.4929 -1879.1438 146.21626 0.8900823 0.25241202 -0.37952816 0.070696607
2511.7402 -1836.0588 87.351891 0.92615587 -0.35789508 0.11893854 0.12163322
2507.772 -1854.1094 90.960197 0.98882395 -0.14010195 -0.050976999 0.11425655
2534.6982 -1906.7321 150.6098 0.82771796 0.31766185 -0.46257311 0.032301772
2507.8955 -1870.8278 94.822418 0.9716987 0.034182072 -0.23373751 0.084030993
2512.0645 -1896.5166 99.288734 0.92311066 0.21613838 -0.31804225 0.071510546
2543.9177 -1948.3274 124.68647 0.7775417 0.56995916 -0.26566049 0.064747885
2515.8765 -1833.0358 86.553268 0.86312705 -0.49934781 0.075255707 0.10803298
2524.2463 -1904.2273 130.0239 0.93369198 0.22225557 -0.28075206 0.028778289
2519.8276 -1882.8304 134.76222 0.94227529 0.24668971 -0.22641 0.082793109
2540.0066 -1940.6813 129.32318 0.80432987 0.52862632 -0.27130738 0.040854082
2508.1301 -1854.089 83.757904 0.98177695 -0.18366255 0.048806738 0.1072057
2521.0737 -1910.5332 113.6255 0.91975564 0.25463006 -0.29868567 0.041826215
2512.1091 -1860.1305 60.654392 0.950315 -0.16894113 0.26145798 0.091211505
2515.4939 -1885.859 115.87312 0.94339061 0.23364572 -0.23542266 0.075663395
2527.082 -1817.0535 67.025452 0.81097555 -0.52825081 0.25153476 0.13570312
2517.1116 -1835.1909 64.602318 0.84532046 -0.47675693 0.24111432 0.10613439
2538.7542 -1847.7335 48.770859 -0.60028875 -0.19836611 0.77479303 0.19781993
2525.0598 -1828.0845 46.822128 0.90128088 -0.42528257 0.082629099 0.18334144
2528.4836 -1818.813 58.691887 0.78799981 -0.57521331 0.21951289 0.16090111
2530.8315 -1813.3051 63.511662 0.79409206 -0.56586349 0.22184746 0.1670095
2526.8977 -1822.9351 52.980263 0.83308136 -0.52927357 0.16076361 0.1652157
2533.7178 -1808.736 70.355499 0.75761169 -0.62750906 0.17960207 0.19766347
2532.1008 -1809.3256 69.93512 0.77769852 -0.58325177 0.23452583 0.17858593
2532.5938 -1808.9153 64.353256 0.8515752 -0.48907411 0.18874902 0.1820035
2529.5605 -1809.9777 57.671738 0.98638082 -0.15660313 0.050283246 0.17877991
2516.0586 -1869.1184 126.279 0.95188969 0.11973067 -0.2820825 0.099240027
2509.2144 -1844.2617 78.31057 0.92176843 -0.33548895 0.19439682 0.12503333
2519.1101 -1826.0658 79.158157 0.80735326 -0.57522666 0.13151045 0.087180011
2534.9175 -1935.8484 122.59937 0.83639556 0.45936939 -0.29903546 0.039336391
2507.2004 -1869.0575 75.917198 0.98474222 -0.0108895 0.17367819 0.10565425
2519.8757 -1896.0798 123.76278 0.92916465 0.22061473 -0.29661793 0.052182816
2524.874 -1830.6226 45.171459 0.97612321 -0.16547143 -0.14072205 0.19444402
2526.2319 -1821.5654 50.46225 0.98023504 0.071356811 -0.18451948 0.18871664
2527.1421 -1817.3921 65.08284 0.83930552 -0.47224066 0.2693603 0.14623812
2526.635 -1820.7489 50.696804 0.99329728 -0.039193615 -0.10873977 0.18670493
2529.1887 -1818.9075 54.597759 0.84120613 -0.50741565 0.18681973 0.17408563
2528.2275 -1818.3168 60.093349 0.82323402 -0.49980778 0.26921734 0.16796315
2524.7214 -1821.9457 47.249119 0.88366324 0.31442285 -0.34681049 0.17388645
2526.8232 -1815.8782 71.951256 0.80283087 -0.55355978 0.22143652 0.1346918
2507.2439 -1861.0208 84.006905 0.99601573 -0.084609948 0.028175365 0.10170259
2513.8279 -1839.4093 68.811806 0.866862 -0.43200001 0.24884985 0.085631214
2509.9631 -1844.999 73.980064 0.91241044 -0.36748675 0.18016848 0.11360543
2507.4836 -1869.0026 89.929184 0.98943734 -0.0052673747 -0.14486527 0.082427844
2523.4121 -1885.8781 141.84453 0.90176749 0.26670563 -0.34012273 0.056096315
2523.3655 -1827.2329 57.097385 0.82277393 -0.52437091 0.21926738 0.14681566
2508.2791 -1854.0441 79.028915 0.98259497 -0.1553497 0.10185092 0.10799425
2520.7388 -1882.5472 138.04414 0.94244093 0.27716836 -0.18703686 0.10191431
2518.5811 -1833.343 63.171135 0.83469915 -0.49279138 0.24583319 0.10590139
2528.4866 -1820.8036 52.5079 0.79862332 -0.5793004 0.16313128 0.1675033
2515.6365 -1898.6421 109.29079 0.91913348 0.17545159 -0.35271856 0.065379888
2518.7722 -1904.3397 114.41644 0.91609991 0.25343293 -0.31069705 0.035232659
2537.7661 -1936.6638 129.40346 0.84628081 0.4552384 -0.27670711 0.040863819
2527.79 -1927.2113 116.3307 0.86582565 0.38150355 -0.32372975 0.034644876
2526.9253 -1917.2572 125.37147 0.89250618 0.34430221 -0.29135662 0.031306379
2529.7249 -1897.748 147.64659 0.85797107 0.29823229 -0.41826209 0.047698259
2525.3215 -1930.1504 105.9095 0.87712955 0.37673569 -0.29784891 0.049253356
2542.3875 -1938.9614 135.97986 0.76145303 0.45397508 -0.46270499 0.018219484
2535.4167 -1928.8015 132.82587 0.84476477 0.40231037 -0.35287228 0.029831503
2523.3059 -1911.9121 119.91749 0.93039364 0.26719484 -0.25094739 0.035807718
2508.5107 -1874.8947 95.134064 0.97049004 0.029131263 -0.23937503 0.084962852
2550.7788 -1942.183 142.18501 0.64775169 0.53569257 -0.54171139 0.024593657
2530.4832 -1927.8925 122.11884 0.86878371 0.38750869 -0.30830479 0.030525411
2549.2632 -1942.7823 139.77994 0.64775169 0.53569257 -0.54171139 0.024593657
2526.0334 -1927.9867 110.98808 0.88229668 0.35123929 -0.31334251 0.050153892
2511.0552 -1885.9916 101.98174 0.93932247 0.14409284 -0.31130469 0.079091072
2511.0608 -1882.4985 104.68804 0.92804742 0.15378797 -0.33923042 0.090854734
2512.7312 -1879.8057 112.084 0.94808793 0.16822706 -0.26986831 0.081165396
2517.2532 -1873.9877 131.99586 0.95901489 0.19952963 -0.20119235 0.10756306
2510.3953 -1887.6188 99.748459 0.9417305 0.17589028 -0.28671646 0.09187419
2508.8594 -1887.4276 94.168266 0.96022403 0.22745706 -0.16196644 0.07152003
2515.3752 -1872.5178 123.65614 0.95066214 0.10476326 -0.29200369 0.094232157
2511.1396 -1901.3617 90.458092 0.9312256 0.27783358 -0.2358546 0.06953793
2513.2822 -1873.9882 116.63628 0.94295144 0.13102089 -0.30606553 0.090557888
2507.5698 -1850.9423 85.206947 0.98938864 -0.14191107 0.031165665 0.10773847
2525.3005 -1894.6664 139.53568 0.90830213 0.28166461 -0.30927709 0.042775586
2521.2412 -1835.3286 34.334923 0.7577163 0.26105413 -0.59809422 0.17619699
2512.8552 -1833.3148 82.677032 0.88796926 -0.40887737 0.21054675 0.11375173
2507.0085 -1876.9906 88.762451 0.97332817 0.0090971608 -0.22923692 0.082620598
2512.1667 -1906.9681 92.943306 0.93168962 0.17798549 -0.31666332 0.068419002
2509.3904 -1854.1514 66.509247 0.94322389 -0.20145915 0.26408887 0.096753545
2515.7927 -1833.0055 68.00042 0.84925455 -0.52080667 0.086759076 0.093274809
2528.3828 -1815.9723 69.646309 0.71740234 -0.68226361 0.140891 0.15178935
2516.9385 -1888.2778 119.33742 0.92467141 0.24205941 -0.29392186 0.069243841
2526.261 -1922.527 117.54777 0.88761735 0.33289894 -0.31829819 0.03542107
2507.2102 -1861.0928 82.053818 0.99609882 -0.076320186 0.044299275 0.10309374
2517.511 -1825.8975 88.603409 0.81320667 -0.57512337 0.089039579 0.10567044
2510.1816 -1841.7285 85.254471 0.94275624 -0.31483054 0.10996559 0.11630615
2526.8906 -1823.3804 52.766899 0.85874599 -0.47958544 0.18042496 0.17677853
2524.7139 -1828.3807 48.105911 0.87488586 -0.46661237 0.12979852 0.1773928
2541.5706 -1850.0111 45.625328 -0.45300812 -0.32040775 0.83193898 0.19132805
2531.386 -1810.6982 62.874481 0.88279784 -0.43371964 0.18043086 0.16666083
2529.7046 -1816.8279 57.918644 0.84060156 -0.48967597 0.23153058 0.17423823
2517.4839 -1836.2042 53.533825 0.84245801 -0.51678413 0.15231106 0.12434459
2528.7712 -1819.7108 49.632828 0.83756876 -0.53855687 0.091842994 0.1712694
2511.3674 -1866.0018 106.51128 0.95429873 0.001083664 -0.29885241 0.083395958
2515.1946 -1894.1376 110.32994 0.91402739 0.15612139 -0.37440619 0.063075855
2510.5283 -1851.2467 57.212448 0.9395141 -0.24347278 0.24090309 0.113391
2522.8582 -1919.4902 111.41375 0.91165614 0.28332731 -0.29767212 0.041753557
2521.1665 -1841.6915 41.660126 0.79827368 -0.5385353 -0.26970142 0.22878057
2526.2371 -1826.0596 47.770466 0.96070677 -0.27564347 0.032605674 0.18750797
2523.0859 -1833.0573 42.822186 0.89399225 -0.44031903 0.083047993 0.20255321
2528.5867 -1815.8562 52.896549 0.98434067 -0.17556007 0.015877515 0.18168715
2529.5015 -1818.9653 52.242699 0.83350503 -0.53583467 0.13472392 0.17665222
2521.991 -1811.7133 50.408733 0.84632963 0.39239463 -0.36021194 0.16110185
2523.1506 -1826.0415 57.880417 0.79506028 -0.58261275 0.16864619 0.13657668
2509.7712 -1863.0688 101.79163 0.96182305 -0.085911684 -0.25983763 0.091394067
2519.0242 -1833.4294 62.718502 0.83765966 -0.48982057 0.24166533 0.11289145
2522.458 -1828.8652 57.345081 0.8427096 -0.50006157 0.19944653 0.13704719
2509.1077 -1843.6692 80.139252 0.92579943 -0.34767023 0.14839412 0.12504487
2507.999 -1851.6763 90.849815 0.98532623 -0.16662216 -0.03700361 0.12046036
2508.6709 -1847.9849 85.239258 0.97725964 -0.20605281 0.050058346 0.11477129
2528.0576 -1817.0167 46.996742 0.95896643 -0.27827957 -0.054257702 0.18658037
2508.5964 -1858.1589 95.658348 0.97325766 -0.09688706 -0.20828456 0.10626157
2511.3347 -1840.588 74.726646 0.88587636 -0.42185488 0.19303259 0.11575117
2510.5149 -1864.7765 56.736317 0.97396356 -0.14659207 0.17293271 0.078486748
2514.7791 -1837.9587 68.527611 0.85176629 -0.4590064 0.25260118 0.090706475
2526.4741 -1823.6935 52.503464 0.81381774 -0.55702496 0.16560155 0.16573764
2510.374 -1879.3864 102.7074 0.95043451 0.13335462 -0.280875 0.083875164
2510.3455 -1854.0813 104.64471 0.9652102 -0.058300864 -0.25489277 0.11719207
2530.175 -1817.4722 54.404278 0.81851089 -0.55398113 0.15213422 0.17606503
2519.2998 -1838.0563 52.593403 0.85582405 -0.47505137 0.20467392 0.16296749
2529.9453 -1812.5007 64.598869 0.86995655 -0.43014473 0.24114551 0.16785975
2521.0994 -1829.3812 62.939419 0.83183753 -0.46425354 0.30416274 0.12107933
2514.7466 -1893.8607 109.06947 0.91979063 0.15068713 -0.36232394 0.068800896
2512.9731 -1845.916 61.598831 0.87448925 -0.40599093 0.26540524 0.092694879
2512.8948 -1873.3964 113.04266 0.94926322 0.13117543 -0.2858187 0.099596478
2519.4624 -1916.1453 104.18459 0.91636717 0.24759772 -0.31458962 0.048107471
2515.4458 -1836.391 68.630066 0.84825271 -0.48241082 0.21851125 0.090029947
2522.9482 -1822.0712 70.133667 0.82405567 -0.47775602 0.3044363 0.11584973
2509.9409 -1852.984 64.986748 0.94317812 -0.25595215 0.21190456 0.094059758
2524.5061 -1830.2568 46.524712 0.91909701 -0.38824663 0.067270063 0.19419681
2530.4333 -1810.7423 63.64933 0.90411305 -0.36668307 0.21936992 0.17945379
2509.2244 -1849.8882 72.583763 0.94973141 -0.26161814 0.17194813 0.10790353
2507.7803 -1872.915 76.342751 0.99203002 0.030326203 0.12229796 0.095658004
2527.3413 -1816.4629 66.111855 0.83164984 -0.4808107 0.27781224 0.14930263
2532.624 -1924.2581 131.32666 0.85108894 0.38877121 -0.35285205 0.027269114
2521.031 -1892.9918 127.99155 0.93570352 0.24477562 -0.25405473 0.056360126
2517.5195 -1832.1807 69.703842 0.83803189 -0.51924515 0.16759181 0.090832591
2511.6543 -1859.0548 108.80664 0.95590913 -0.080110744 -0.28252429 0.096717134
2523.4255 -1824.0203 63.412872 0.79156125 -0.56646305 0.22923872 0.13714105
2512.7332 -1842.6256 62.26836 0.89133644 -0.4082076 0.19719507 0.091881022
2520.3962 -1917.6649 105.57011 0.91362482 0.27746433 -0.29715866 0.04693399
2513.6516 -1890.0618 108.13368 0.92110622 0.16320328 -0.35345155 0.072148748
2525.1321 -1828.0358 46.083305 0.97842222 -0.13737583 -0.15433027 0.18420503
2523.7915 -1827.0253 41.158298 0.96413362 0.0058003748 -0.26535401 0.20019861
2522.1018 -1830.9259 37.615101 0.82135659 0.26819697 -0.50343192 0.18345141
2528.4556 -1814.9103 65.730644 0.82314086 -0.48531908 0.29479575 0.15026243
2526.5774 -1824.8948 50.323589 0.92597169 -0.35949332 0.11550323 0.18271682
2527.9248 -1820.7264 55.509159 0.83550566 -0.51271826 0.19761136 0.1763064
2527.6609 -1818.2058 61.512455 0.82082826 -0.48676378 0.29883447 0.16924421
2525.0544 -1835.5673 47.335003 0.84998727 -0.45772532 0.26078573 0.17262423
2511.6277 -1864.7113 105.1997 0.95757878 -0.037503496 -0.28572074 0.088360906
2526.9075 -1824.145 54.130947 0.87247503 -0.40883854 0.26765347 0.17908946
2535.2742 -1898.4515 156.9514 0.85361767 0.22332202 -0.47059974 0.048888676
2511.2349 -1887.2577 101.62818 0.93332565 0.13624953 -0.33217362 0.073865682
2518.1763 -1836.8724 61.594212 0.83195072 -0.46292651 0.30587101 0.11382142
2525.0859 -1823.4343 62.68679 0.84474516 -0.38902637 0.36751062 0.1503112
2524.8606 -1829.853 45.075424 0.97659719 -0.1568978 -0.14710897 0.19018292
2526.3667 -1820.3092 50.274235 0.98556501 0.039923873 -0.16452277 0.18426688
2531.1323 -1808.4705 58.82909 0.95836771 -0.27173474 0.087701499 0.18374126
2531.8601 -1809.395 70.560944 0.77769852 -0.58325177 0.23452583 0.17858593
2532.3879 -1808.6891 63.881771 0.87863195 -0.44632751 0.16969876 0.17998344
2530.5247 -1839.7502 48.517094 0.92127264 0.14051415 -0.36264655 0.17477916
2508.8694 -1845.4263 88.1222 0.97152275 -0.23608148 0.020227134 0.123605
2507.6702 -1881.1888 89.391914 0.96698254 0.03426322 -0.25252882 0.086894542
2526.1055 -1891.1395 144.46844 0.90248716 0.26405641 -0.34028104 0.050835423
2536.8794 -1921.1223 141.94565 0.80771798 0.3771812 -0.45312917 0.01949396
2519.4224 -1827.1704 89.323662 0.8202976 -0.56322086 0.099469207 0.11575671
2510.9299 -1844.5391 38.951424 0.6657843 -0.72973186 -0.15563634 0.2213026
2520.0215 -1837.5018 41.819248 0.84626222 -0.53137755 0.038446389 0.20357671
2525.7471 -1827.2345 46.65712 0.92103112 -0.38234517 0.074255057 0.18789291
2518.2605 -1841.8469 40.247513 0.78235859 -0.55081844 -0.29071298 0.23954333
2522.1958 -1834.5898 41.935928 0.88859469 -0.45319739 0.070792548 0.2056407
2525.3682 -1828.9561 47.561905 0.94199842 -0.33219454 0.047809962 0.18492398
2527.564 -1820.1307 52.948311 0.99321258 -0.11610831 0.0069039925 0.18652767
2528.0288 -1818.8364 59.650005 0.84144288 -0.45842648 0.28604034 0.15848735
2522.9097 -1836.5756 40.905766 0.95937222 -0.16891906 -0.2259896 0.21508862
2524.3149 -1833.7454 45.140827 0.94781882 -0.31851143 -0.01378193 0.19945961
2522.1526 -1838.6635 35.573895 0.87682861 0.12001665 -0.46558306 0.22061405
2525.5276 -1828.8375 49.035332 0.93157685 -0.34772682 0.10606879 0.17896912
2526.511 -1826.095 54.04623 0.92446822 -0.3163662 0.2127696 0.17048118
2522.0696 -1835.2205 39.061478 0.9268322 -0.37431368 -0.029518148 0.22685806
2526.9729 -1823.5994 43.622337 0.85311097 -0.51410151 0.088889249 0.1837144
2509.4792 -1858.2006 70.74662 0.95466173 -0.077230684 0.2875002 0.098397203
2514.3247 -1836.0272 69.342064 0.86520606 -0.47569788 0.15852438 0.090450317
2508.5391 -1884.8319 73.143799 0.98982757 0.10811643 0.09247832 0.06862624
2524.6731 -1820.7474 66.712708 0.74061692 -0.6512745 0.16531226 0.13630594
2518.3442 -1830.6248 70.806458 0.84079027 -0.48113239 0.24815992 0.091124117
2522.6475 -1827.7928 59.906769 0.84064585 -0.49384913 0.22232319 0.1371565
2517.2332 -1831.1421 76.048485 0.84088624 -0.51221633 0.17477058 0.07978566
2524.3425 -1822.7969 44.6446 0.95158434 0.13403988 -0.27662349 0.18977013
2525.2012 -1826.6049 53.406231 0.87925309 -0.43831167 0.18653925 0.16802728
2520.6172 -1832.2169 31.535517 0.95324767 -0.12787957 -0.27379861 0.20730188
2520.292 -1829.5941 64.777122 0.83688086 -0.47981167 0.26345998 0.11230434
2526.7534 -1824.6675 48.632282 0.9200806 -0.37761366 0.10420956 0.18277501
2521.1631 -1823.65 73.913376 0.82840061 -0.47544667 0.29614675 0.1024754
2521.5339 -1835.168 42.843193 0.86597627 -0.49143389 0.092616498 0.20292419
2520.4978 -1826.1599 71.033028 0.78864598 -0.5967232 0.14818545 0.10791612
2520.1326 -1828.4552 66.069214 0.81742698 -0.55028671 0.17028713 0.11022733
2520.5166 -1830.2571 59.796299 0.8266831 -0.53061515 0.18719672 0.11506887
2521.1807 -1822.7426 39.333179 0.77735955 0.41801628 -0.4700793 0.14456175
2516.2378 -1821.3606 32.471165 0.77056599 0.38294312 -0.50949258 0.1461793
2522.1528 -1835.4542 37.212399 0.95323753 -0.28164333 -0.10961391 0.22359516
2519.7769 -1817.8495 44.290241 0.72170252 0.51338923 -0.46430275 0.14708009
2521.5745 -1833.8849 48.264267 0.8625738 -0.48477247 0.1447828 0.17900972
2521.2893 -1833.1544 54.071133 0.862059 -0.46031827 0.21204105 0.15684475
2515.6479 -1831.7836 81.934387 0.84128737 -0.51734287 0.156818 0.099911556
2529.3088 -1818.8672 54.24535 0.82364583 -0.5456835 0.15439253 0.17613526
2508.844 -1876.243 62.843151 0.98398548 -0.049371522 0.17127481 0.092440322
2518.5154 -1835.8865 57.483406 0.83218282 -0.48683068 0.26545742 0.12945621
2513.3579 -1874.4971 113.92217 0.9555558 0.13441736 -0.26238337 0.098531254
2525.2546 -1920.864 116.90681 0.89996552 0.31414008 -0.30228806 0.037635889
2517.2595 -1895.3137 115.65033 0.92368042 0.16647461 -0.34510967 0.056103148
2511.0591 -1855.4559 59.618225 0.93691742 -0.20748821 0.28130838 0.095984221
2529.408 -1816.1512 59.776649 0.85098654 -0.43797883 0.28982148 0.17244864
2530.1272 -1816.5383 54.853706 0.87436277 -0.46260843 0.14657155 0.18164615
2526.9299 -1822.4329 51.536137 0.97421205 0.15390657 -0.16499588 0.18136695
2516.1704 -1840.166 48.976902 0.87847972 -0.44622341 0.17075741 0.13647324
2528.0938 -1932.0441 111.2338 0.86309558 0.39408386 -0.31585431 0.043661624
2516.0657 -1901.9835 107.97676 0.9174664 0.23054425 -0.3241986 0.052919593
2526.1633 -1825.0859 44.890324 0.82750577 -0.54858506 0.11953524 0.16989462
2510.8311 -1873.9681 103.75968 0.95998842 0.036796182 -0.27761185 0.089026041
2524.0325 -1832.3174 44.207539 0.96783745 -0.20438766 -0.14668441 0.2028686
2516.572 -1844.787 34.683765 0.91644394 -0.3886373 0.095349468 0.19839591
2512.7249 -1839.8613 75.064186 0.87768233 -0.43905002 0.19211672 0.10190216
2516.1018 -1840.8531 44.375221 0.43019587 -0.88595659 -0.17324102 0.20328559
2518.4856 -1833.2849 64.138588 0.83742148 -0.49150684 0.23905304 0.1093182
2511.229 -1844.5358 80.060226 0.94694841 -0.30029038 0.11451811 0.097732253
2515.5903 -1836.3301 70.163635 0.84832102 -0.47439352 0.23516437 0.086009704
2517.2183 -1842.6588 31.741842 0.73698932 -0.2217235 -0.63850248 0.18971583
2516.0154 -1844.043 34.430199 0.78381848 -0.30773488 -0.53937733 0.25673574
2509.5054 -1848.8461 75.559074 0.94282854 -0.31132385 0.1189613 0.10830388
2526.8696 -1823.1453 47.909958 0.96431947 -0.26328418 0.027737441 0.19189078
2510.0276 -1848.8409 86.718048 0.9717927 -0.23385121 0.030537767 0.092430301
2513.6069 -1852.3263 57.496281 0.89005303 -0.33910051 0.30465785 0.10749984
2524.6824 -1826.822 53.928337 0.85584342 -0.47982267 0.19313782 0.16000947
2509.8582 -1850.8031 70.31041 0.94863081 -0.27414098 0.15794389 0.10478956
2510.9648 -1854.6943 94.928177 0.9817912 -0.10650848 -0.15729581 0.095773302
2509.9229 -1845.1886 86.689003 0.96236384 -0.25376409 0.097260699 0.10984324
2521.8328 -1830.859 58.336636 0.85407746 -0.44966882 0.26143759 0.13697094
2511.2649 -1851.9238 64.002792 0.93076539 -0.26818296 0.24850284 0.10354417
2513.9236 -1849.3379 47.683083 0.82615638 -0.50822306 0.24325898 0.16851327
2521.293 -1843.1399 31.749292 0.9564445 -0.010884296 0.29171124 0.22399643
2515.2195 -1838.3583 41.693867 0.36825827 -0.8197583 -0.43861389 0.23244038
2514.0752 -1851.887 51.389366 0.82809931 -0.44583318 0.33982983 0.15291938
2509.6152 -1846.8804 81.980164 0.95373654 -0.29659322 0.049184445 0.10593117
2519.0432 -1822.9197 35.345837 0.83937395 0.27050281 -0.47146544 0.17688826
2518.5308 -1840.2643 35.319767 0.89273053 -0.44616404 0.063007057 0.18885183
2510.4866 -1895.1257 92.122665 0.94617045 0.23164286 -0.2260599 0.065391257
2519.6487 -1924.7084 95.090073 0.85882264 0.41878647 -0.29502809 0.075225852
2508.1104 -1870.796 89.799492 0.98606032 -0.04112925 -0.16122472 0.084919758
2520.6255 -1824.5493 84.365623 0.81523961 -0.57325804 0.082216851 0.095342636
2541.4839 -1943.0603 130.20364 0.76947629 0.48722935 -0.41293317 0.024017094
2516.9468 -1873.2617 133.22256 0.95069128 0.23625778 -0.20091863 0.11770133
2525.5352 -1906.1052 132.14191 0.93471849 0.21175063 -0.28541723 0.028164217
2509.9744 -1842.9983 83.314758 0.94329458 -0.3165926 0.099821873 0.11277345
2507.2031 -1867.0046 81.166351 0.99865329 -0.001436079 0.05186129 0.10209346
2518.5286 -1838.1057 57.581779 0.82629246 -0.45087489 0.33756873 0.1325895
2525.0837 -1824.4729 60.362785 0.84350538 -0.43017104 0.32163879 0.15152164
2532.4155 -1808.5477 66.380463 0.85336858 -0.47949785 0.20455767 0.17803955
2508.6182 -1849.7393 88.99939 0.98266739 -0.18537684 0.00043654162 0.11657704
2530.4473 -1912.2212 138.26715 0.84707969 0.3389098 -0.40938506 0.023336021
2516.0447 -1827.2653 90.289787 0.8442381 -0.52244103 0.11965537 0.1160814
2519.1592 -1877.5016 138.37112 0.9470765 0.25804844 -0.19093734 0.10175745
2507.0005 -1878.0142 87.187851 0.98269504 0.013945615 -0.18470505 0.079870395
2522.3184 -1823.01 70.430504 0.82724971 -0.48699871 0.28016105 0.11120316
2515.6047 -1839.1903 66.894768 0.84816986 -0.45208091 0.27609921 0.093881495
2525.446 -1828.2333 48.463127 0.93691826 -0.34314758 0.066587463 0.18514642
2523.095 -1837.3639 42.790154 0.9519524 -0.2533499 -0.17204769 0.213054
2526.8123 -1828.9374 47.422634 0.93513614 0.2212721 -0.27669302 0.17723726
2519.2781 -1823.4888 35.60968 0.74335587 0.467801 -0.47810486 0.14135206
2507.4702 -1868.9602 91.463257 0.98818487 0.011344844 -0.15284634 0.091200203
2510.0356 -1891.3538 95.104645 0.9397577 0.2000744 -0.27717456 0.075462937
2518.9106 -1920.7559 100.62188 0.89646965 0.24031347 -0.37227893 0.060351502
2512.3394 -1833.9618 84.492279 0.90783608 -0.37327546 0.19104737 0.11282863
2508.3257 -1848.9318 87.93927 0.97748792 -0.21054447 -0.013724073 0.11163091
2529.0461 -1898.3157 146.06131 0.86963344 0.2908332 -0.39894068 0.044948827
2521.4548 -1834.0132 34.199097 0.93906969 0.022748288 -0.34297317 0.22525352
2522.4473 -1916.1494 113.18494 0.91862196 0.24837685 -0.30731517 0.035805743
2521.4221 -1824.9415 69.892746 0.83235258 -0.45640698 0.31445491 0.10968567
2513.9568 -1869.6143 119.95845 0.9695217 0.15583631 -0.18905738 0.11188904
2513.7358 -1844.1066 66.887856 0.86807472 -0.40096617 0.29269856 0.10254789
2514.0083 -1875.5095 114.38638 0.95537931 0.12026037 -0.2697922 0.10447529
2534.749 -1807.6958 65.588318 0.80537903 -0.57912928 0.12638795 0.19231644
2516.8506 -1899.8198 111.59226 0.91813052 0.18139677 -0.35232309 0.063407362
2511.5564 -1845.6599 62.799908 0.88789308 -0.41444075 0.19971164 0.085596614
2521.7058 -1826.7197 64.660728 0.82659 -0.5253635 0.20184699 0.12013089
2527.7808 -1821.8553 53.746338 0.92865455 -0.32024658 0.18719754 0.18463027
2529.4346 -1809.275 75.521057 0.82726598 -0.49377388 0.26798955 0.16192777
2526.9253 -1822.8899 48.907578 0.97674704 -0.21365583 0.017788999 0.19378385
2527.8616 -1819.7859 58.398899 0.89153719 -0.35209516 0.28493935 0.17062137
2527.9272 -1816.818 63.427376 0.86557645 -0.38942447 0.31484273 0.16879371
2528.4502 -1813.1289 69.468086 0.85268968 -0.43720463 0.28595871 0.13550791
2519.9219 -1825.9121 75.605354 0.82445568 -0.53953505 0.17080635 0.095694631
2512.8423 -1841.8505 71.111481 0.87271535 -0.45120281 0.18650466 0.098621786
2528.5874 -1810.7739 76.925644 0.80989021 -0.52827209 0.25496364 0.15818658
2538.8794 -1899.9695 160.12746 0.80031645 0.24862514 -0.54559982 0.048024591
2512.4763 -1844.0184 99.867714 0.91596347 -0.26834571 -0.29833117 0.14766102
2514.7039 -1894.051 109.12154 0.91355449 0.15732954 -0.37505421 0.067916848
2526.6145 -1820.6812 45.090672 0.97255021 -0.22381957 -0.06364689 0.19196577
2510.6582 -1867.0261 104.46844 0.95215702 -0.014981528 -0.30524173 0.083360195
2515.675 -1841.2656 107.28393 0.9098292 -0.24630873 -0.33398038 0.17883419
2511.8608 -1873.3763 109.26469 0.95276248 0.086614147 -0.29110423 0.092687458
2517.9963 -1906.9078 108.08056 0.90508103 0.27353284 -0.32558882 0.044283986
2526.9634 -1834.0444 48.487961 0.86760408 -0.3963519 0.30028048 0.16801849
2528.2041 -1823.5681 56.311684 0.99791384 0.041098122 0.04978906 0.17761767
2527.1687 -1824.0083 52.066223 0.96274137 -0.24485064 0.114792 0.18318817
2527.9558 -1839.1351 43.461567 0.79922944 -0.52407926 0.29423335 0.22837634
2522.8955 -1822.7582 69.188637 0.77890706 -0.59794468 0.18911882 0.11359317
2525.2881 -1821.2483 46.957439 0.9786709 0.051569242 -0.19885653 0.18951412
2522.2041 -1821.8792 85.120377 0.80503881 -0.58773816 0.080475926 0.10012263
2526.134 -1822.7703 57.254196 0.81339538 -0.55240422 0.18231152 0.15438552
2527.2639 -1821.4812 45.023155 0.93442398 -0.35575101 0.017119419 0.18517655
2522.5869 -1821.8401 74.599602 0.80071765 -0.56956619 0.18559515 0.10598262
2527.8308 -1821.9867 50.665554 0.8973009 -0.41917881 0.13834833 0.18794227
2524.0586 -1823.7831 44.450665 0.77223867 0.46511915 -0.43279511 0.15053841
2524.8474 -1822.5735 62.226276 0.80857569 -0.54733586 0.21593714 0.14212129
2521.845 -1821.667 79.71106 0.81236416 -0.56346756 0.15022919 0.10226772
2530.5686 -1811.1553 66.592659 0.83648551 -0.49359313 0.23802894 0.16718726
2529.5417 -1817.7292 55.904415 0.84733927 -0.50077236 0.17675756 0.18102406
2530.2893 -1814.1917 62.089367 0.807266 -0.53487384 0.24946257 0.16700858
2531.3391 -1806.6046 72.77523 0.82381618 -0.49277771 0.2801733 0.19286656
2528.553 -1820.2194 50.830948 0.87546349 -0.47233674 0.10228243 0.17659265
2517.9275 -1891.8243 119.97064 0.92379761 0.2478435 -0.29184163 0.062473681
2521.8306 -1831.4675 54.190968 0.85445696 -0.48095086 0.19644226 0.15084332
2514.5325 -1843.7797 58.496407 0.8562994 -0.43567228 0.2773824 0.1122236
2512.531 -1867.0278 113.12515 0.964607 0.057296414 -0.25739154 0.089649133
2514.6313 -1847.7476 105.39096 0.85571837 -0.22550823 -0.46571672 0.13912614
2529.6353 -1818.3518 50.064499 0.87139809 -0.48253515 0.088459946 0.18095204
2525.3977 -1913.5223 124.49386 0.91239768 0.29741535 -0.28120199 0.031733185
2536.3142 -1933.8451 129.18924 0.85378921 0.4261075 -0.29912609 0.038092047
2528.458 -1817.9672 60.010895 0.83673739 -0.45790607 0.30032071 0.16502915
2525.6301 -1826.8392 50.555328 0.88556439 -0.43377781 0.16617016 0.17689779
2523.1345 -1837.4349 42.227299 0.95595026 -0.16875593 -0.2401678 0.21649759
2527.4465 -1822.6713 54.59922 0.85869396 -0.43916345 0.26415926 0.18329044
2530.6484 -1811.9058 67.748466 0.79116601 -0.56927013 0.22357966 0.16445737
2524.2974 -1830.376 44.718094 0.9135614 -0.40070906 0.069554716 0.18938929
2530.3228 -1808.7928 72.164169 0.83809024 -0.47345418 0.27100909 0.16953258
2519.8743 -1828.9222 69.486069 0.8336674 -0.41836077 0.36051756 0.098740771
2523.3801 -1909.5367 121.55331 0.93203205 0.25485969 -0.25760987 0.035753228
2509.9163 -1850.3867 71.308975 0.94526052 -0.29995683 0.12848525 0.10284178
2514.6755 -1872.774 122.15622 0.95193881 0.17039563 -0.25451481 0.092021391
2533.1655 -1840.146 49.775089 0.90039915 0.23935717 -0.36330357 0.1587543
2526.675 -1824.8541 50.37635 0.95647687 -0.28021449 0.081436351 0.19297564
2529.3628 -1810.9514 72.00602 0.8476035 -0.47740188 0.23163715 0.15157774
2527.365 -1824.152 53.840229 0.93756491 -0.27713528 0.21016207 0.17658092
2527.9951 -1818.4645 60.297028 0.85359997 -0.43244523 0.29044479 0.1604728
2528.1741 -1816.151 63.526718 0.86224651 -0.37602466 0.33931756 0.16707411
2518.7373 -1826.8113 93.989212 0.81171453 -0.58310169 0.033345945 0.14549315
2529.2651 -1830.2321 49.616856 0.91128969 0.274371 -0.30703691 0.1530039
2532.2268 -1913.073 140.87965 0.83728796 0.34854734 -0.42126435 0.023894088
2509.2134 -1847.2688 91.950211 0.97554976 -0.2161026 -0.040029563 0.12171932
2523.1436 -1882.483 142.67557 0.91281462 0.23752825 -0.33218947 0.072002918
2508.2668 -1879.158 92.241684 0.96676451 0.032275174 -0.25362313 0.082905322
2510.9116 -1838.1877 82.824043 0.90293908 -0.40218315 0.15149176 0.1245461
2507.3291 -1856.3804 85.098228 0.99310875 -0.11347412 0.029301759 0.10668892
2510.8647 -1898.8073 92.941101 0.92437053 0.28529105 -0.25327483 0.061403211
2520.1306 -1825.3735 78.394737 0.83048385 -0.53537184 0.15386204 0.088765547
2519.2053 -1876.1675 138.79828 0.90984446 0.23629108 -0.34110057 0.10088283
2506.6902 -1873.9342 89.073082 0.98692614 0.011412773 -0.16076867 0.076759748
2532.085 -1909.6167 144.49019 0.8620376 0.30460438 -0.40510166 0.02995069
2530.9116 -1810.3153 67.720284 0.86334687 -0.45550862 0.21712689 0.17345358
2510.8845 -1873.8151 106.42103 0.95172495 0.093403265 -0.29239598 0.089696243
2524.177 -1918.7069 115.62964 0.91155487 0.28219849 -0.29905134 0.03810161
2510.0073 -1855.0874 102.68153 0.95023394 -0.082469091 -0.30042362 0.11628678
2516.8262 -1899.0372 113.06538 0.91784179 0.1963657 -0.34497389 0.062655263
2524.0063 -1839.8956 43.809402 0.76734781 -0.58248925 0.26811114 0.186665
2528.1038 -1833.5109 47.858921 0.95867622 0.13292815 -0.25153542 0.17451714
2512.1919 -1838.0544 98.984039 0.95906013 -0.27174479 -0.079739735 0.14790814
