# .PCD v0.7 - Point Cloud Data file format
VERSION 0.7
FIELDS x y z normal_x normal_y normal_z curvature
SIZE 4 4 4 4 4 4 4
TYPE F F F F F F F
COUNT 1 1 1 1 1 1 1
WIDTH 524
HEIGHT 1
VIEWPOINT 0 0 0 1 0 0 0
POINTS 524
DATA ascii
2422.4788 -1539.7079 -117.01196 0.89666647 0.39016277 -0.20919436 0.12798831
2422.7908 -1555.171 -113.27322 0.98118323 -0.13070759 -0.14210889 0.15794551
2420.2961 -1562.2616 -111.31199 0.96263254 0.12586334 -0.23978528 0.15915483
2422.3364 -1541.3702 -115.8159 0.94867802 -0.3108722 -0.058038525 0.15035704
2440.1145 -1572.9927 -159.61021 0.8300761 -0.0015620488 0.557648 0.10682357
2425.3152 -1569.5024 -107.4219 0.94412398 0.10886905 -0.31109068 0.15917702
2425.7778 -1553.3702 -112.8409 0.97825819 -0.099008188 -0.18223141 0.12914635
2432.4014 -1587.9832 -149.65314 0.75613576 0.03171527 0.65364581 0.079609595
2425.3989 -1563.5365 -109.28701 0.97322851 -0.12527454 -0.19269799 0.13465628
2423.2905 -1533.0016 -117.34389 0.98017079 -0.11841155 -0.15888326 0.14140828
2431.123 -1550.6052 -73.131744 0.013427975 -0.93961793 -0.34196177 0.22622484
2420.7473 -1597.2015 -135.04828 0.84239078 -0.021919638 0.53842109 0.11199348
2431.2075 -1573.3983 -148.49356 0.75490767 -0.057735264 0.65328485 0.093637936
2426.5784 -1594.0297 -142.79485 0.75994509 -0.0087373666 0.64992851 0.086642504
2425.1089 -1567.6351 -105.67303 0.77576286 0.32191914 -0.54273385 0.17235203
2426.1113 -1564.0073 -104.03219 0.95868206 -0.06295184 -0.27742702 0.16436754
2424.7981 -1534.005 -112.73581 0.95744801 -0.21819824 -0.18889898 0.16515745
2432.8745 -1569.3175 -149.45813 0.74658263 -0.082462445 0.66016233 0.10206842
2426.9485 -1553.3942 -106.80363 0.94934738 -0.14195614 -0.28033563 0.1574142
2427.9067 -1592.005 -144.2325 0.76326185 -0.0041797324 0.64607573 0.08745382
2432.4644 -1582.9844 -149.45695 0.76052499 -0.022157086 0.64893055 0.084507063
2423.2192 -1600.0599 -139.8857 0.73765677 -0.036237314 0.67420274 0.10621323
2440.0869 -1547.8409 -69.155983 0.75676912 -0.64062411 -0.13000472 0.25158736
2425.4194 -1553.8412 -112.74094 0.98201632 -0.098672986 -0.16095848 0.12780567
2424.689 -1608.957 -144.42613 0.58762735 -0.081146479 0.80505234 0.096933708
2437.8069 -1582.9716 -156.22696 0.72185814 0.025486905 0.69157159 0.074933462
2431.8926 -1603.0022 -149.12209 0.66090786 0.01349235 0.75034577 0.080604196
2435.0879 -1592.9929 -152.9101 0.69825417 0.056368537 0.7136271 0.068215474
2424.7056 -1587.7906 -124.87354 0.98987895 0.12146448 0.073389642 0.10730727
2424.4395 -1576.0211 -128.77643 0.98804528 -0.014525692 0.15347804 0.114475
2455.1777 -1633.8553 -165.57782 0.7645573 0.27540332 0.58275646 0.10108709
2425.3169 -1563.1532 -132.66486 0.96301425 -0.11201598 0.24506316 0.13651448
2452.7852 -1595.5133 -178.00337 0.84939581 0.23157538 0.47423577 0.031759162
2459.1531 -1616.5662 -179.01724 0.80540228 0.1601823 0.570674 0.050343636
2460.1514 -1629.5874 -174.3914 0.77440399 0.24606308 0.58288199 0.090291828
2432.1152 -1557.3936 -140.37285 0.98370969 0.17677119 -0.032668628 0.12307298
2427.772 -1549.2241 -95.49041 0.80027729 0.13010672 -0.58534473 0.18321881
2424.27 -1556.6919 -101.04703 0.78748626 0.21978804 -0.57581127 0.20399977
2431.2991 -1542.2198 -87.518982 0.79820639 0.25041652 -0.54786682 0.23119619
2427.0459 -1558.0889 -137.66516 0.94927967 -0.080624029 0.30392089 0.14529942
2455.1575 -1600.9637 -179.91873 0.87069088 0.20047575 0.44911793 0.041284196
2429.2483 -1555.1666 -93.840767 0.69346279 0.31446269 -0.64824575 0.16572364
2423.8181 -1577.9783 -129.45078 0.98150456 0.0075760307 0.19128889 0.11277081
2424.3679 -1587.0804 -125.83055 0.98516619 0.16876157 0.031099241 0.10810811
2430.541 -1540.8807 -94.811119 0.94519502 -0.032601587 -0.32487464 0.21701662
2430.0732 -1549.0321 -93.644241 0.88169366 -0.0092196856 -0.47173226 0.1920113
2460.4089 -1618.465 -178.40785 0.73159617 0.21381293 0.64734155 0.044694796
2425.3501 -1569.9424 -134.22997 0.93943 -0.0832901 0.33246666 0.12377596
2457.1951 -1624.9419 -172.86221 0.79356331 0.23646754 0.56066066 0.063362487
2452.4282 -1628.6796 -164.67133 0.77756298 0.23186807 0.58449382 0.071281306
2420.3567 -1595.9954 -133.85934 0.85174412 0.00047490391 0.52395779 0.11118672
2424.3906 -1553.3519 -136.26697 0.9037208 -0.11758819 0.4116573 0.13081674
2424.0964 -1577.1104 -137.68248 0.87826067 -0.015893508 0.47791794 0.099974617
2430.2434 -1543.0673 -94.551102 0.91309798 -0.049398523 -0.40473679 0.2046072
2419.2275 -1580.7698 -125.34831 0.98919082 0.14487761 -0.022626296 0.09753754
2421.7769 -1567.2144 -126.25642 0.98956066 -0.12290499 0.075259909 0.12414049
2422.5532 -1546.8474 -127.80019 0.99847883 0.033467103 0.043818187 0.14707236
2434.6191 -1539.728 -81.583626 0.69315624 0.30442613 -0.65334457 0.25803986
2433.7312 -1539.7402 -90.731712 0.91096216 0.23878968 -0.33634421 0.18968184
2428.8416 -1570.9115 -143.6543 0.86880809 -0.066339262 0.49068484 0.12067367
2431.967 -1555.4589 -92.70507 0.92761052 -0.15826663 -0.3383643 0.16363847
2426.0923 -1594.0406 -142.07547 0.76301479 -0.02841947 0.64575601 0.092301354
2421.9666 -1583.3297 -134.23235 0.87884504 -0.041600034 0.4752903 0.097677447
2445.1357 -1634.5881 -150.07547 0.81333816 0.29585922 0.50094742 0.10170221
2434.4395 -1563.7823 -90.437233 0.77273333 0.21195778 -0.59829515 0.144456
2422.3892 -1562.3192 -132.12859 0.95672518 -0.121479 0.2644234 0.136048
2437.1863 -1554.3682 -81.863068 0.90726775 0.049023781 -0.41768637 0.1881541
2437.6582 -1546.6879 -81.933624 -0.69359517 -0.71680593 0.071518973 0.21642721
2422.2988 -1543.7235 -132.44623 0.9932465 0.051829286 0.10380341 0.15981598
2428.4148 -1558.8633 -99.351135 0.92253602 -0.079570964 -0.37761849 0.17337565
2425.7141 -1556.9243 -141.22821 0.84307277 -0.072729364 0.53285903 0.11318582
2432.9023 -1546.3857 -94.186554 0.94192177 -0.16713636 -0.29128829 0.17333902
2429.1562 -1597.7278 -147.26566 0.62252879 0.027521657 0.78211284 0.072847798
2432.4893 -1584.0291 -149.85162 0.75701684 -0.0088167666 0.65333593 0.080090344
2427.9102 -1549.9076 -96.83049 0.86624634 0.016306503 -0.49935099 0.19215621
2429.2324 -1546.2057 -91.678947 0.080774598 -0.99651033 0.021040119 0.22896524
2439.3584 -1546.1879 -76.860054 0.9187277 0.017898511 -0.39448586 0.2357517
2423.4143 -1579.1296 -136.49533 0.87741476 -0.017731154 0.47940481 0.099660091
2423.6853 -1563.8718 -133.62636 0.94990242 -0.10776034 0.2933822 0.13142186
2436.9844 -1553.6399 -84.814056 0.7417233 0.27135348 -0.61336267 0.20003434
2422.7747 -1595.4323 -138.8166 0.79318202 -0.050607305 0.60687822 0.10050813
2425.8264 -1552.8582 -139.25412 0.8500936 -0.20545004 0.48490322 0.133706
2425.3335 -1583.0706 -139.23112 0.86540043 -0.045800179 0.49898344 0.097272016
2428.5015 -1573.0547 -143.69202 0.84850717 -0.092573546 0.52102375 0.11652334
2429.0977 -1542.5955 -141.92975 0.76588368 -0.19685322 0.61210376 0.15638308
2424.8621 -1569.2385 -107.30087 0.94291735 0.1046371 -0.31616127 0.16897559
2428.8784 -1549.0746 -97.372177 0.91797221 -0.077984549 -0.38890284 0.18628035
2424.1807 -1555.6257 -104.06579 0.91862833 0.047879674 -0.39221105 0.17798357
2444.551 -1553.2581 -69.569199 -0.40756384 -0.87504023 -0.26114428 0.23816913
2436.4436 -1577.0856 -153.65427 0.73075569 -0.043291219 0.681265 0.095603861
2439.365 -1567.0063 -158.73418 0.80827141 -0.013971781 0.58864433 0.10979624
2434.6135 -1589.066 -152.22623 0.74858654 0.035646711 0.6620782 0.078287639
2428.8452 -1608.7273 -146.98743 0.61956549 -0.053552538 0.78311604 0.098979943
2431.0435 -1597.9991 -147.95723 0.70688564 -0.00064643007 0.7073276 0.080540746
2418.6841 -1555.6105 -107.70715 0.94103724 0.15313296 -0.30166075 0.16410531
2426.5227 -1546.0741 -93.440498 0.74565703 0.19090399 -0.6383974 0.19431998
2439.2747 -1576.0323 -155.73189 0.71315259 -0.084086522 0.69594741 0.10256763
2427.6338 -1559.7516 -108.93185 0.97081459 -0.17651452 -0.16236266 0.145886
2435.0808 -1587.0149 -152.8053 0.75215018 0.012154683 0.65887964 0.084465325
2430.6536 -1594.996 -147.37592 0.72322887 0.0044785985 0.6905939 0.080707155
2425.8215 -1568.906 -105.46689 0.96726179 -0.14741065 -0.2065787 0.15976828
2426.2556 -1604.0127 -143.71461 0.66681945 -0.033124521 0.74448276 0.10188106
2438.8281 -1548.2908 -79.896133 0.77318466 0.11357249 -0.62392855 0.24045004
2430.718 -1552.1572 -95.426918 0.94738775 -0.15115623 -0.28214923 0.15716666
2454.5198 -1619.2955 -171.4348 0.79778314 0.15966147 0.5814209 0.048083108
2456.8406 -1611.8436 -177.42676 0.81656122 0.15190679 0.55691302 0.045968775
2428.1235 -1560.9343 -140.77869 0.92315125 -0.032303058 0.38307735 0.13677822
2456.0969 -1600.9746 -181.95013 0.86602205 0.22721677 0.44539687 0.035699598
2428.5686 -1550.1418 -145.02695 0.95726711 0.039578106 0.28648436 0.17172445
2423.7566 -1578.026 -131.2159 0.96180236 -0.0090687592 0.27359456 0.11559031
2425.1865 -1570.0199 -135.91565 0.90686977 -0.096837156 0.41013393 0.11482148
2450.4753 -1624.4919 -164.03127 0.72559434 0.19984385 0.65846437 0.078384131
2422.3398 -1574.0781 -121.45721 0.9980092 -0.010621443 -0.062167719 0.12754993
2423.4456 -1555.2509 -119.2022 0.99565727 -0.072475322 -0.058428653 0.13183315
2421.9556 -1535.168 -116.7789 0.96642822 0.15542561 -0.20459577 0.14190769
2425.304 -1570.9497 -131.59055 0.97667921 -0.018197488 0.21393126 0.12034568
2432.9529 -1553.0547 -88.403305 0.86792064 0.045378424 -0.49462566 0.18450762
2424.7458 -1548.7017 -138.16138 0.99074137 0.13230832 0.030429982 0.16562055
2431.3252 -1542.2892 -90.971184 0.91586012 0.056650292 -0.39748082 0.21924768
2426.6274 -1559.8185 -135.82141 0.97027344 -0.052210629 0.23631234 0.14762954
2452.2451 -1590.9463 -181.32439 0.86093479 0.29575902 0.41390565 0.025477787
2452.446 -1597.5026 -175.50027 0.83997786 0.17081253 0.51503426 0.037001535
2457.4949 -1637.6151 -166.1702 0.75131917 0.30705017 0.58415723 0.1056781
2454.4019 -1613.1062 -173.39882 0.82306808 0.1461947 0.54880422 0.044206642
2451.5007 -1619.3596 -166.86998 0.74722111 0.19135012 0.63643205 0.070825905
2424.2051 -1580.0049 -126.97417 0.99188948 -0.023379955 0.12493479 0.11161557
2422.8608 -1582.3284 -135.73509 0.87254947 -0.048892215 0.48607302 0.096606657
2426.5637 -1562.3572 -138.2666 0.93234545 -0.072963513 0.3541303 0.1322706
2430.0732 -1546.1567 -94.096748 0.88859868 -0.034205075 -0.45740837 0.19754422
2427.9553 -1551.5505 -139.6712 0.93978888 -0.13080394 0.31573272 0.16483773
2431.864 -1550.8599 -90.915642 0.89259863 -0.030239215 -0.44983691 0.18106328
2428.5015 -1573.0547 -143.69202 0.84850717 -0.092573546 0.52102375 0.11652334
2428.3809 -1591.9492 -144.96939 0.760768 0.016212314 0.64882141 0.084298007
2428.6938 -1563.1293 -98.101044 0.82454252 0.15294823 -0.54473525 0.17674781
2421.7756 -1544.45 -96.857193 0.79142207 -0.027871033 -0.61063439 0.20930339
2430.0393 -1545.903 -93.06179 0.41445252 -0.88548231 -0.21011956 0.21494551
2425.344 -1553.8431 -101.36013 0.93699008 0.023169655 -0.34858683 0.18675989
2429.1685 -1554.2946 -140.59694 0.77369404 -0.24764867 0.58315319 0.15127516
2426.7153 -1576.1914 -142.758 0.82356757 -0.033421881 0.56623268 0.089708924
2422.4976 -1596.3596 -138.97205 0.77881014 -0.037354741 0.62614644 0.10041468
2439.2534 -1571.9323 -93.977127 -0.58739835 -0.37331295 0.7180534 0.17034693
2427.9077 -1541.9404 -93.710075 0.77074206 0.0066440469 -0.63711262 0.21038975
2426.3154 -1550.9623 -114.0203 0.96990472 -0.17704368 -0.16715363 0.13488655
2436.6799 -1567.308 -154.5276 0.71778685 -0.03309343 0.695476 0.0886942
2445.3152 -1623.5532 -158.77805 0.71459681 0.13789864 0.68581003 0.077293888
2445.6125 -1603.1832 -164.03186 0.76024181 0.058362324 0.64701331 0.044719595
2422.5203 -1563.6699 -114.93678 0.99139112 0.043508645 -0.12349359 0.15249829
2422.7327 -1594.0171 -132.68938 0.92048377 -0.021506319 0.39018857 0.11742467
2429.5483 -1559.1978 -143.13544 0.86772817 -0.11083407 0.48452416 0.13019179
2427.2153 -1589.6417 -141.49892 0.83261245 -0.04396401 0.55210835 0.10424931
2430.5164 -1578.1791 -145.1922 0.83504999 -0.10572857 0.53991944 0.11270376
2423.7073 -1562.7338 -105.70855 0.89139217 0.14645149 -0.42891946 0.17818494
2427.1838 -1588.0564 -104.65732 0.96320593 0.011272944 -0.2685279 0.15756702
2425.28 -1550.9043 -100.8913 0.92931515 0.012219298 -0.36908534 0.20386606
2430.3489 -1545.2783 -96.787674 0.81346762 -0.51429164 -0.2716147 0.21852052
2447.8369 -1603.7294 -166.67227 0.75439084 0.053199988 0.65426618 0.050929334
2449.0857 -1624.9485 -162.3475 0.71332294 0.20652689 0.66971415 0.083131447
2423.1121 -1568.2777 -120.06907 0.99758643 -0.067383967 -0.01675606 0.1212579
2440.0652 -1570.6824 -163.3808 0.80210924 0.11658767 0.58568597 0.078178331
2431.2634 -1547.5768 -78.029442 -0.068228871 -0.97979641 -0.18799956 0.22229367
2423.5664 -1544.4023 -120.0836 0.98319751 -0.18222149 -0.010862953 0.1616855
2425.9309 -1597.0598 -142.29121 0.74866819 -0.023195533 0.66253901 0.093904056
2428.304 -1573.217 -105.0707 0.78765386 0.34771872 -0.50861883 0.15825398
2436.7288 -1585.0867 -154.81824 0.75745869 0.020066611 0.65257466 0.078543723
2438.9346 -1549.6604 -65.062134 -0.098106131 -0.99080116 -0.093210869 0.26804072
2425.6909 -1566.0441 -105.16363 0.97122538 -0.061881561 -0.22998255 0.15717372
2431.0266 -1590.9993 -147.97794 0.76836741 0.022649938 0.63960809 0.087073565
2438.1147 -1572.1116 -154.99594 0.74102235 -0.074129641 0.66737592 0.10521465
2426.6384 -1557.1501 -107.87668 0.96718031 -0.15330039 -0.20263577 0.14344196
2426.094 -1541.1654 -112.22487 0.96895075 -0.14648481 -0.19918995 0.17688426
2433.9268 -1617.2325 -149.39581 0.67014778 0.050700195 0.74049407 0.084280156
2423.8489 -1558.0728 -132.1969 0.96607906 -0.13204509 0.22193547 0.13469084
2423.5164 -1574.2683 -135.23022 0.89282823 -0.043419134 0.44829965 0.1021887
2426.0176 -1594.0006 -141.9852 0.76301479 -0.02841947 0.64575601 0.092301354
2411.8916 -1529.1351 -125.81922 0.76501495 0.61926126 -0.17682652 0.1990581
2435.0857 -1558.6807 -88.365616 0.74892861 0.24184479 -0.61694169 0.16505092
2425.1223 -1551.2778 -131.38712 0.99817544 0.035210472 0.04905105 0.1663729
2443.5171 -1598.1122 -162.078 0.76639092 0.034610532 0.6414414 0.052904814
2442.5205 -1558.5752 -75.672134 0.82520759 0.13909334 -0.5474354 0.22321229
2424.7988 -1560.6892 -116.81619 0.98680943 -0.13934693 -0.082399189 0.11742173
2424.1526 -1572.8687 -112.58198 0.98836672 -0.045584913 -0.14509739 0.13767809
2430.2563 -1579.3143 -112.30129 0.67587495 0.60249573 -0.42449024 0.16490029
2439.4197 -1577.859 -159.25981 0.763129 0.024333915 0.64578789 0.077945098
2424.334 -1547.9553 -119.80021 0.99253464 -0.026590815 -0.11902891 0.13900149
2426.5273 -1548.9943 -81.429649 0.24886112 -0.91673642 -0.31250995 0.22248322
2437.1926 -1602.9904 -154.80295 0.70579922 0.0056918445 0.70838904 0.073406339
2428.1372 -1606.9944 -146.7151 0.59073591 0.0010495738 0.80686426 0.0808319
2422.6616 -1561.4437 -105.60487 0.89485455 0.11941547 -0.4300876 0.1897877
2424.262 -1552.3778 -105.0351 0.94947428 -0.057289984 -0.30857167 0.18868566
2426.1021 -1540.4738 -107.75072 0.90308154 -0.39993697 -0.15650602 0.17538327
2432.1694 -1541.6755 -89.850456 0.82076466 -0.27008381 -0.50338858 0.22452945
2422.4365 -1574.1453 -127.85294 0.99073887 -0.017063685 0.13470477 0.11226182
2422.7981 -1551.8536 -128.20006 0.97995102 -0.085373089 0.18002053 0.13902034
2440.2603 -1595.821 -158.97104 0.74285412 0.058825623 0.66686374 0.06251663
2423.9236 -1569.1074 -111.37203 0.98033416 -0.054753955 -0.18959665 0.13953444
2427.0408 -1547.6047 -110.52371 0.95355809 -0.19234344 -0.23179932 0.14830342
2435.9326 -1565.8477 -154.66306 0.74331367 0.01908662 0.66867065 0.091578804
2443.0405 -1621.1307 -157.01662 0.70392007 0.15144022 0.69394696 0.068726443
2432.21 -1576.1578 -149.07689 0.75326258 -0.053806517 0.65551531 0.090781115
2425.1919 -1580.1736 -102.78302 0.97744399 -0.11864071 -0.17472164 0.20087676
2426.5867 -1592.9105 -143.77234 0.72659498 0.009871616 0.68699515 0.077800155
2427.1074 -1552.8926 -103.71304 0.94582069 -0.1137965 -0.30409476 0.17500374
2421.8118 -1576.6896 -127.7941 0.99016243 0.034881841 0.13550484 0.10475121
2422.7725 -1559.7023 -126.44867 0.99142128 -0.10281118 0.080707826 0.12897743
2422.3206 -1540.0283 -125.06146 0.99979252 -0.0085126208 -0.018506089 0.1605192
2429.2842 -1547.5665 -76.240074 0.033143025 -0.99905837 -0.027998174 0.24859507
2440.9778 -1580.0017 -161.01883 0.76187038 0.060569655 0.64489138 0.077462375
2442.8816 -1597.2035 -161.41705 0.76903045 0.037990578 0.63808221 0.054597821
2438.6775 -1606.0723 -156.17264 0.73007566 0.02271311 0.68298876 0.067374445
2439.9846 -1621.4485 -153.97067 0.7083891 0.10536335 0.69791365 0.072665818
2422.5527 -1566.9902 -112.78426 0.97773641 0.10335179 -0.18261968 0.15458253
2427.4023 -1549.7361 -104.49004 0.94107199 -0.1554375 -0.30037084 0.17338151
2423.4978 -1556.3949 -109.91018 0.96778649 -0.050972562 -0.24655849 0.16393663
2434.1328 -1579.0112 -152.23486 0.73923117 -0.0020053892 0.6734488 0.082162082
2424.9001 -1555.1538 -107.85722 0.97596318 -0.038479783 -0.21451148 0.15804103
2436.842 -1558.3722 -153.53996 0.74115539 -0.071796283 0.66748333 0.12342773
2424.959 -1594.3021 -143.84679 0.66146934 -0.022308925 0.74964035 0.079075709
2433.689 -1550.8552 -87.333633 0.70339608 0.26519331 -0.65947437 0.19572522
2425.7808 -1552.0785 -126.06112 0.95123518 0.26101276 -0.16438974 0.14588068
2423.2107 -1568.5604 -131.94183 0.94576991 -0.085351273 0.31342378 0.11586521
2423.8425 -1603.0844 -141.13011 0.69406658 -0.069530644 0.71654528 0.1121254
2423.5037 -1552.2183 -130.3369 0.99205118 -0.039340485 0.11952732 0.13855876
2422.085 -1583.3722 -134.55132 0.86876136 -0.053144258 0.49237123 0.096955396
2426.8782 -1550.3008 -103.51278 0.95337975 -0.15269494 -0.26029074 0.17879404
2424.229 -1558.7656 -102.90475 0.87008286 0.14857376 -0.46998045 0.18660098
2442.1802 -1549.5344 -78.2248 -0.31363487 -0.9492144 -0.025002807 0.25107434
2416.7217 -1541.5138 -115.79771 0.96807015 -0.15478709 0.19718312 0.13273744
2420.564 -1567.2832 -114.40627 0.96601981 0.19348688 -0.17137258 0.14338893
2421.5554 -1559.0602 -116.79716 0.99714422 -0.005686847 -0.07530617 0.14241101
2440.6296 -1549.765 -76.407227 0.83216763 0.053876534 -0.55190074 0.2449498
2437.5288 -1575.9591 -154.42082 0.74430531 -0.064503364 0.66471714 0.097991914
2444.5264 -1632.1196 -155.44171 0.71910632 0.18161045 0.67074865 0.10432707
2441.2002 -1606.4725 -158.2627 0.75533038 0.093939424 0.6485765 0.057556059
2423.0056 -1561.6331 -111.03104 0.96833658 0.044388246 -0.24567036 0.16688925
2420.2102 -1572.8203 -114.81129 0.84173089 0.42600709 -0.33167309 0.10746184
2449.084 -1560.3346 -60.07872 -0.63959754 -0.73139155 -0.23660389 0.19139794
2423.3474 -1607.165 -143.13092 0.58329159 -0.07145796 0.8091135 0.10011111
2425.4116 -1565.326 -136.78244 0.92389011 -0.055666845 0.37858722 0.12101046
2428.8521 -1591.9852 -144.82262 0.76246625 -0.0052342317 0.64700681 0.085961379
2427.521 -1574.7473 -106.19811 0.87265694 0.24178347 -0.42427659 0.16195551
2433.05 -1571.0043 -149.9597 0.77688599 -0.067122832 0.62605327 0.1089201
2451.5808 -1636.0491 -159.94614 0.75185013 0.27702934 0.59831107 0.094285354
2440.1313 -1596.1897 -158.29526 0.76074678 0.037313472 0.64797533 0.058160283
2445.0161 -1617.4365 -159.75018 0.73987156 0.16279913 0.65275306 0.060472842
2431.844 -1587.0161 -149.00392 0.75497651 0.01049626 0.65566784 0.082302272
2423.3865 -1602.8374 -140.64066 0.699462 -0.070480637 0.71118587 0.11545284
2426.7502 -1570.9323 -104.27251 0.93653345 0.084605135 -0.34021619 0.15821303
2441.313 -1546.0778 -70.968712 -0.54666799 -0.52097094 0.65554816 0.21542206
2427.4158 -1594.989 -143.51338 0.75109315 -0.01404711 0.66004676 0.088093907
2432.5442 -1574.1036 -149.6913 0.76186907 -0.051130325 0.64570987 0.095328584
2422.4421 -1545.8285 -128.93605 0.9985894 0.049750369 0.018551368 0.14765373
2422.3936 -1569.9962 -122.2321 0.99950749 0.00050390797 -0.031376939 0.12262338
2422.9875 -1559.5095 -125.69516 0.99298793 -0.10144731 0.060691249 0.12458957
2429.4575 -1545.8319 -88.648323 -0.67635959 -0.25335637 0.69162726 0.19660591
2421.6594 -1578.6133 -120.78645 0.96304315 0.21563432 -0.16139913 0.11515999
2443.7188 -1600.0162 -162.25468 0.74059623 0.042649843 0.67059541 0.053074393
2444.4424 -1612.2721 -160.34642 0.75002211 0.13101591 0.64830679 0.051341873
2447.5479 -1635.9397 -152.41162 0.82248992 0.31518513 0.47346458 0.099789411
2436.6978 -1539.3337 -83.949867 0.89404881 -0.13845143 -0.42603749 0.23921946
2444.9736 -1589.0043 -166.02048 0.78373951 0.12677833 0.60801286 0.051218566
2423.2324 -1550.0603 -124.89082 0.99925667 -0.018627863 0.03375027 0.1379921
2424.3005 -1581.1456 -115.49606 0.95065314 0.24146949 -0.19481042 0.12164868
2437.9282 -1616.8829 -153.03555 0.69083136 0.087107725 0.71774948 0.066077329
2423.8706 -1578.0287 -117.82629 0.99659956 0.013430433 -0.081295542 0.12841502
2424.2405 -1567.5903 -121.97771 0.99747193 -0.070956595 -0.0038609898 0.11857411
2421.5383 -1591.2063 -135.3876 0.83717477 -0.031178812 0.54604602 0.099268705
2425.457 -1573.2141 -138.26562 0.89245385 -0.055267651 0.44774055 0.10869189
2428.6467 -1555.866 -141.87228 0.93632096 -0.053327542 0.34707233 0.16136476
2427.6799 -1553.4298 -95.944832 0.74062788 0.24848934 -0.62427825 0.17816049
2427.4661 -1564.918 -103.34607 0.96958607 -0.19164377 -0.15223514 0.16266274
2429.115 -1602.8013 -146.11525 0.6860503 -0.035083465 0.72670776 0.10079255
2431.4641 -1592.0795 -148.16525 0.76027906 0.02382342 0.64915961 0.0848158
2436.8721 -1568.9883 -154.10138 0.78157949 -0.071694732 0.61967194 0.10540955
2434.3633 -1580.9094 -151.41573 0.75564015 -0.041821718 0.6536504 0.087730534
2428.7563 -1571.231 -102.59306 0.84159684 0.23479107 -0.48640308 0.17919272
2432.3008 -1542.6147 -84.234657 0.69999886 0.16209212 -0.69550538 0.20978753
2443.408 -1615.3838 -158.42314 0.72627091 0.10752065 0.67894763 0.056890666
2449.6282 -1634.5157 -158.744 0.77068532 0.22923765 0.59455377 0.083429463
2430.355 -1565.8007 -96.160355 0.93543988 -0.10539075 -0.33740923 0.17412508
2428.3635 -1573.6936 -104.25441 0.85858071 0.25705492 -0.4435786 0.16781966
2436.5295 -1592.2582 -154.43666 0.71000302 0.074182779 0.70028037 0.066837616
2430.6833 -1543.7914 -94.864693 0.94443786 -0.059408426 -0.32327661 0.20444009
2429.5608 -1563.3685 -97.464973 0.81361163 0.14428626 -0.56322074 0.17845164
2429.7729 -1613.0685 -148.92569 0.58323067 -0.051659554 0.81066227 0.080042608
2427.021 -1569.2561 -141.62201 0.85944939 -0.054728005 0.50828302 0.10833282
2429.3501 -1591.9698 -145.86629 0.76570177 0.017085383 0.64296883 0.085310966
2424.5483 -1588.0573 -139.62537 0.83098751 -0.013404926 0.55612952 0.08847969
2426.5713 -1607.0566 -145.26051 0.61018598 -0.060524024 0.78994298 0.094645843
2424.2932 -1555.4873 -132.94647 0.97678924 -0.08992672 0.19441193 0.13561639
2424.4905 -1572.2411 -136.2514 0.89238006 -0.061633468 0.44705606 0.10929743
2438.498 -1570.6687 -96.184761 -0.47253576 -0.45500833 0.75476974 0.16861144
2432.5544 -1600.0249 -149.70047 0.67122585 0.0068281926 0.74122143 0.074973568
2425.3186 -1606.939 -143.85892 0.62059081 -0.05555547 0.78216404 0.10533132
2434.5671 -1587.0293 -152.23886 0.75639057 0.015483665 0.65393692 0.083479874
2437.5288 -1575.9591 -154.42082 0.74430531 -0.064503364 0.66471714 0.097991914
2428.1604 -1600.9922 -144.84538 0.70461392 -0.0065154559 0.70956099 0.094222523
2439.0044 -1573.0005 -155.9962 0.74821967 -0.0773573 0.65892577 0.10594277
2433.0427 -1594.0189 -149.88649 0.72001094 0.0069606998 0.69392782 0.079697274
2424.4099 -1549.8896 -109.42355 0.96737623 -0.1342607 -0.21484236 0.17577688
2430.6741 -1575.6178 -104.49625 0.74139619 0.37786233 -0.55457348 0.17632343
2425.9556 -1567.798 -104.50192 0.96713603 -0.095570609 -0.23561436 0.15554076
2434.7124 -1581.9893 -152.25772 0.7444427 -0.027774725 0.66710842 0.082390361
2426.9648 -1545.2224 -92.162354 0.74948019 -0.59094733 -0.29843047 0.20879453
2424.1792 -1558.5514 -132.03973 0.97789896 -0.10411572 0.18131052 0.1381613
2455.0676 -1598.9823 -180.96519 0.86602205 0.22721677 0.44539687 0.035699598
2422.3882 -1582.2501 -131.58258 0.92039037 -0.067963347 0.38504872 0.10454012
2439.0405 -1611.1028 -154.96918 0.70157236 0.075126037 0.70862705 0.064689264
2440.219 -1599.3588 -157.71918 0.75640148 0.0348722 0.65317744 0.060132541
2453.4724 -1638.9146 -160.93626 0.76299781 0.27608109 0.58447725 0.10956106
2429.1067 -1562.889 -97.679359 0.84914571 0.085171662 -0.52124602 0.17271382
2420.9714 -1545.3572 -133.02925 -0.54088712 -0.69777495 0.46962881 0.16477217
2429.6074 -1569.1661 -144.9127 0.82529312 -0.085302219 0.55822462 0.11257926
2430.1438 -1574.8992 -103.38161 0.79081535 0.32298726 -0.51989448 0.18376744
2433.1855 -1594.7899 -150.78471 0.70073104 0.067336537 0.71024066 0.069939509
2431.7891 -1556.5314 -93.629539 0.91268265 -0.16325153 -0.37464562 0.16791967
2430.2432 -1575.1582 -147.23427 0.78456968 -0.055343132 0.61756587 0.090232998
2430.8506 -1538.8788 -91.131554 0.89875031 0.12843058 -0.41922963 0.21926951
2431.1724 -1609.1108 -149.41429 0.61761343 -0.013236939 0.7863704 0.076905251
2439.3596 -1557.9464 -76.198753 0.8981573 -0.029363887 -0.43869269 0.21125458
2422.7058 -1581.1732 -131.88509 0.9229756 -0.059088401 0.3802954 0.10537811
2423.9299 -1566.2709 -129.62384 0.98771465 -0.091318212 0.12680976 0.1310292
2422.4714 -1598.9363 -138.44199 0.76387203 -0.092067063 0.63876694 0.10620619
2424.105 -1553.9764 -126.05619 0.99948388 -0.012398207 0.02963471 0.14423934
2421.988 -1543.1864 -121.87146 0.94359344 0.29422411 -0.15186702 0.14221606
2426.6018 -1560.3577 -132.33331 0.99274564 0.031152561 0.11612777 0.14891182
2447.0525 -1617.2513 -162.31305 0.73822051 0.1810592 0.64980614 0.061839815
2424.0278 -1581.243 -123.93639 0.98541331 -0.10698445 0.13234392 0.11774158
2426.7236 -1589.0902 -119.47738 0.93564349 0.31253025 -0.16400021 0.10827852
2450.4788 -1609.9125 -168.6026 0.76188952 0.13927579 0.6325556 0.042380314
2426.1487 -1570.5953 -128.0919 0.98918003 -0.050975684 0.13756561 0.11581983
2431.5933 -1614.8464 -149.08644 0.65814191 0.079138584 0.74872309 0.09490671
2428.697 -1553.2078 -94.150909 0.72045857 0.2749016 -0.63668561 0.16762266
2434.9832 -1551.8741 -84.710922 0.90953368 -0.022806909 -0.41500396 0.1916011
2427.5317 -1572.6836 -96.145851 0.86878353 -0.49148864 0.060449347 0.17509818
2436.9089 -1542.5417 -79.632973 0.88640583 0.19272158 -0.42088372 0.24455826
2429.4841 -1601.7911 -147.4108 0.62552375 0.029141055 0.7796607 0.074537002
2428.489 -1568.2535 -143.68521 0.83176225 -0.060450595 0.55183089 0.11033678
2429.3613 -1562.6027 -97.667526 0.80925894 0.13616325 -0.57145393 0.17869431
2432.312 -1552.4807 -90.740196 0.92601645 -0.084537566 -0.36789525 0.1699338
2434.4617 -1540.9462 -86.67598 0.92197484 0.082777202 -0.3782993 0.20974749
2429.7078 -1585.9335 -146.68649 0.76014131 0.018664984 0.6494897 0.080118991
2421.739 -1589.8596 -132.79001 0.9026528 0.018800242 0.4299587 0.10756072
2422.1882 -1564.5701 -133.50912 0.94468731 -0.05285912 0.32368481 0.11781149
2432.4751 -1541.7238 -90.860435 0.93150342 -0.046584655 -0.36073712 0.21845204
2427.6799 -1553.4298 -95.944832 0.74062788 0.24848934 -0.62427825 0.17816049
2429.8408 -1551.2738 -98.365044 0.94481063 -0.13298976 -0.29941049 0.162386
2429.1926 -1539.0034 -100.85133 0.93786621 0.00055628835 -0.34699658 0.19541213
2431.6287 -1549.2665 -139.8671 0.5862276 -0.40470147 0.70182186 0.15137602
2420.9082 -1586.8339 -130.50179 0.93066132 0.017351497 0.3654702 0.10682932
2424.0417 -1565.4384 -136.79704 0.88522333 -0.048252691 0.46265686 0.11074509
2429.5439 -1559.7668 -97.068871 0.81592506 0.12323926 -0.56487018 0.18790908
2426.5366 -1556.9493 -102.84678 0.94436568 -0.10315064 -0.31230342 0.16324595
2426.0037 -1594.0728 -143.19037 0.71695 -0.0074490402 0.69708478 0.081212066
2428.5508 -1536.8145 -103.17299 0.94501746 -0.071600489 -0.31908527 0.19384378
2428.6086 -1573.5049 -145.7198 0.77986407 -0.05957849 0.62310708 0.087204844
2423.8005 -1584.1605 -120.35983 0.98237836 0.17178695 -0.073634073 0.11272615
2452.158 -1604.8116 -172.16373 0.80371344 0.13077484 0.58046758 0.042718425
2437.4583 -1552.9008 -83.4133 0.92568851 -0.088166609 -0.36786884 0.15653346
2436.7817 -1545.8065 -86.212662 0.89898539 0.24068017 -0.36592117 0.17620425
2451.3804 -1627.6666 -163.91562 0.77259248 0.18655096 0.60687691 0.067651309
2436.5447 -1556.1027 -86.296432 0.71819037 0.25326467 -0.64812005 0.17640148
2454.2815 -1621.5264 -170.6273 0.84641993 0.16388226 0.50667137 0.056516849
2449.3442 -1589.4211 -174.72 0.85778326 0.21178314 0.46835437 0.039249141
2421.3406 -1536.9949 -118.26276 0.94724542 0.25750494 -0.19083317 0.14611956
2433.4695 -1550.7446 -92.643661 0.94034523 -0.094206706 -0.32691887 0.16293198
2428.1733 -1561.243 -143.9931 0.83834147 -0.033006776 0.54414535 0.10302604
2452.5662 -1634.4916 -162.10629 0.76407492 0.26194569 0.58955407 0.084307313
2411.4563 -1551.6442 -108.30654 0.82581103 0.28877544 -0.48440161 0.16386153
2433.27 -1583.9979 -150.94937 0.77049267 0.0012533646 0.6374476 0.083140053
2424.3547 -1550.0225 -102.40236 0.94587606 -0.093396187 -0.31079838 0.19812034
2431.668 -1598.8318 -149.25529 0.63045454 0.022719886 0.77589363 0.070472211
2422.501 -1563.8392 -125.58585 0.99230725 -0.11101625 0.054788157 0.12787169
2433.3572 -1546.7697 -87.043404 0.81905538 0.043292735 -0.5720787 0.20609829
2436.3574 -1544.421 -83.366852 0.91628182 0.036244437 -0.39889091 0.21026352
2436.5586 -1544.4186 -87.135643 -0.6652298 -0.71747917 0.20662276 0.20735879
2422.5212 -1577.0051 -122.06492 0.99993044 -0.00093758246 -0.011757253 0.12582543
2423.2197 -1552.1102 -128.45569 0.99438792 -0.02098825 0.10369248 0.13408862
2420.0286 -1532.187 -122.86843 0.97340059 0.1873761 -0.13183901 0.17816834
2430.561 -1546.4557 -83.782341 0.75707716 -0.50963914 -0.40878123 0.23942113
2433.6296 -1617.7418 -149.81395 0.63530517 0.062360883 0.76973921 0.083976485
2429.0945 -1593.9935 -146.10301 0.72436243 0.0011531974 0.68941838 0.079010002
2429.8967 -1550.9904 -94.957817 0.92237598 -0.085885763 -0.37662482 0.18518354
2429.9395 -1561.1536 -146.10567 0.92290151 0.028016847 0.38401541 0.13451643
2425.8357 -1570.4537 -141.26215 0.82066828 -0.054468803 0.56880289 0.094394229
2423.8098 -1558.4827 -102.70905 0.81606573 0.23318066 -0.5288322 0.19797868
2424.4695 -1586.1783 -139.40259 0.83517545 -0.027232694 0.54930896 0.084809437
2433.0103 -1565.1697 -94.52874 0.74916142 0.20663111 -0.62933356 0.17101842
2432.3674 -1548.124 -88.602852 0.8355186 0.16379285 -0.52448124 0.20449275
2425.7822 -1568.2543 -138.13739 0.89549059 -0.060212284 0.44098881 0.11580668
2435.0059 -1545.3488 -84.472633 -0.26438588 -0.94979602 0.16729508 0.22218731
2423.657 -1545.7689 -137.36026 0.9895007 0.049098067 0.13593301 0.16200414
2430.2183 -1537.8673 -96.286575 0.92613798 -0.068971276 -0.37082535 0.21594295
2434.5356 -1599.8359 -152.02298 0.66410208 0.030807355 0.74700695 0.069335468
2430.9983 -1561.1984 -146.74466 0.79804838 -0.052804012 0.6002754 0.11249844
2427.7209 -1572.0294 -102.88817 0.92382646 0.097224504 -0.37025949 0.16298313
2435.6277 -1585.006 -153.34674 0.73181224 0.011841034 0.6814034 0.07938052
2428.6257 -1554.7063 -99.167404 0.93729264 -0.11595673 -0.3286891 0.17654766
2426.1138 -1550.4326 -137.67226 0.96467948 -0.081608199 0.25046682 0.14722401
2430.5933 -1590.0159 -147.33192 0.7743696 0.030332185 0.63200611 0.081749372
2428.1711 -1572.0177 -142.89761 0.85483432 -0.088146634 0.51135945 0.11509147
2433.2144 -1554.2782 -89.267349 0.84610176 0.084499076 -0.52628106 0.17555453
2434.3167 -1608.9866 -151.80309 0.64802206 -0.012732183 0.76151514 0.073318824
2432.0371 -1565.5499 -95.567162 0.78072214 0.17247836 -0.60060316 0.17262487
2422.0063 -1543.9528 -126.72115 0.81639141 0.56797111 -0.10446975 0.14472069
2439.0393 -1548.7216 -77.652794 0.90062875 -0.036021594 -0.43309394 0.2089258
2425.2383 -1560.4078 -128.36404 0.99280202 -0.1020264 0.062727384 0.13039894
2452.2915 -1593.547 -179.81007 0.86799812 0.27787191 0.41154161 0.028273728
2461.6023 -1621.4937 -178.54594 0.72105789 0.22786207 0.65433508 0.050496288
2423.1526 -1578.031 -126.3407 0.99189562 -0.0059644114 0.12691548 0.10828101
2429.373 -1545.9496 -89.963966 -0.30408838 -0.91800851 0.25454015 0.23460446
2427.5225 -1546.8571 -94.721558 0.7578696 0.19153006 -0.62365848 0.19590142
2424.3547 -1556.0325 -104.73955 0.9370926 -0.0041418732 -0.34905627 0.17892045
2429.0486 -1541.8884 -100.66848 0.93859124 -0.11004621 -0.3270112 0.19784415
2433.3311 -1614.0172 -150.14484 0.6141029 0.0063153966 0.78920072 0.086886503
2442.3306 -1547.028 -71.382507 0.48191181 -0.85789877 -0.17824334 0.26953706
2434.4414 -1603.0034 -151.66661 0.64233327 0.0039644912 0.76641518 0.078977719
2438.1882 -1580.9604 -156.96222 0.73175669 0.013232674 0.68143749 0.076374277
2439.3472 -1567.8917 -159.55 0.78315657 0.019498525 0.62151879 0.08831542
2436.9233 -1593.0073 -155.07808 0.69890016 0.066355795 0.71213448 0.066642456
2425.1384 -1546.4479 -118.48234 0.95102865 0.26270813 -0.1628771 0.14824703
2427.0364 -1585.3055 -140.11571 0.85772324 -0.085534155 0.5069465 0.10766513
2430.083 -1563.3523 -146.7775 0.9039191 0.053809505 0.42430508 0.1312843
2438.8655 -1574.6691 -92.821526 0.69892669 0.26724276 -0.66338736 0.19236954
2431.5845 -1560.864 -92.920052 0.90430355 -0.027847471 -0.42598072 0.16859666
2428.7183 -1572.5409 -142.3485 0.87292016 -0.093599394 0.47880018 0.11778041
2424.0242 -1593.9619 -133.66302 0.92251426 -0.0088303741 0.38586199 0.12501949
2425.8684 -1559.8397 -117.47572 0.98796207 -0.14097275 -0.063699633 0.12735398
2433.8916 -1548.3597 -72.812386 -0.17034531 -0.9774422 -0.12485658 0.24442285
2443.1997 -1583.9673 -164.85207 0.79650313 0.1305804 0.59036559 0.056514941
2448.5125 -1612.1123 -165.40752 0.75562191 0.17408812 0.63144982 0.055081196
2422.0627 -1571.7788 -117.84328 0.994205 0.027277337 -0.1039824 0.12623505
2433.8447 -1548.8308 -86.557129 0.82332784 0.16491085 -0.54307985 0.20280237
2425.3606 -1570.2363 -136.88731 0.90086448 -0.090170965 0.42463204 0.11490715
2422.5103 -1586.2673 -136.49429 0.84300894 -0.040896177 0.53634268 0.091796294
2435.198 -1567.2104 -91.326805 0.79297256 0.19576402 -0.57694972 0.16102192
2423.4905 -1546.0048 -133.96213 0.98259848 -0.00084510411 0.18574053 0.15803942
2407.9978 -1535.7808 -127.09248 -0.12027542 -0.9479602 0.29479709 0.23890239
2412.947 -1531.4561 -125.18794 0.72473788 0.66338938 -0.18619759 0.17959532
2441.7737 -1586.1406 -161.98094 0.77777684 0.089159891 0.62218463 0.068109326
2424.3503 -1573.8988 -113.26055 0.97924191 0.073421314 -0.18893 0.13420568
2431.3699 -1545.996 -83.797188 0.089443788 -0.97910446 -0.18263148 0.22183141
2439.1589 -1547.8644 -78.437096 0.83130246 0.052237026 -0.55336022 0.23368788
2424.6541 -1548.286 -122.95004 0.96563286 0.23618804 -0.10848227 0.15361223
2441.9233 -1572.928 -163.30679 0.79819375 0.062281255 0.59917259 0.078075603
2441.6101 -1599.1097 -159.93332 0.7559697 0.024485061 0.65414852 0.059630357
2433.7476 -1601.9797 -151.09714 0.63759452 0.017254231 0.77017891 0.073887497
2426.2034 -1569.6 -116.0743 0.97704077 -0.19877882 -0.076670356 0.12110469
2427.78 -1559.3215 -120.46252 0.9759112 -0.21390361 -0.042924833 0.12826055
2441.1917 -1550.7996 -72.539658 0.026408194 -0.93646193 -0.34977373 0.24319465
2426.1619 -1556.587 -116.42354 0.98156959 -0.17694594 -0.072189137 0.12927496
2421.7131 -1565.2792 -116.10593 0.98871642 0.081800595 -0.1254928 0.13841201
2437.8252 -1604.0336 -155.1263 0.72169203 0.020621946 0.69190699 0.070287071
2426.0471 -1564.5521 -102.74114 0.87610513 0.077734746 -0.47581205 0.18231483
2437.2654 -1586.1316 -155.2093 0.74718225 0.020758836 0.6642949 0.078310549
2431.1626 -1560.113 -146.21895 0.82740188 -0.080438882 0.55581987 0.12553315
2430.2083 -1555.1962 -96.384239 0.93583286 -0.15698066 -0.31555337 0.16384305
2431.8936 -1586.9667 -149.23395 0.75888342 0.028324738 0.65061021 0.081096932
2438.437 -1609.0553 -154.57101 0.70037967 0.068736404 0.71045309 0.071363389
2433.5281 -1578.8157 -101.88405 0.75060415 0.35164735 -0.55940819 0.1956908
2427.9133 -1558.649 -98.595062 0.87228584 0.10509397 -0.47756955 0.18242793
2429.0081 -1566.2106 -144.0466 0.83723694 -0.058618274 0.54368943 0.11192031
2431.5461 -1548.4989 -92.12944 0.91706401 -0.10317016 -0.38516167 0.18979923
2429.2202 -1561.8013 -145.92038 0.96645349 0.21184254 0.14522539 0.14767702
2434.2209 -1573.907 -150.65157 0.76385224 -0.091238424 0.63890946 0.10172945
2440.8787 -1614.8936 -156.15875 0.71959859 0.087140307 0.68890089 0.055936046
2429.9604 -1577.7534 -105.88114 0.80517161 0.36466923 -0.46766979 0.18390036
2427.9766 -1563.9603 -99.566299 0.92013997 -0.03568612 -0.38996017 0.17106777
2430.8489 -1548.9041 -96.189941 0.9456116 -0.16848741 -0.27826372 0.17576809
2441.999 -1603.2651 -159.72478 0.77380133 0.029308837 0.63274992 0.048391093
2427.551 -1557.4974 -107.2195 0.96402091 -0.17143857 -0.20315625 0.14692731
2440.4775 -1550.5581 -64.80294 0.76032901 -0.63437188 -0.13954243 0.24840592
2426.5686 -1540.1052 -112.13938 0.95591289 -0.17698161 -0.2343248 0.16232245
2428.1362 -1587.8937 -144.50978 0.78288066 0.026542185 0.62160546 0.083021507
2421.155 -1591.3024 -136.41565 0.81155139 -0.026803659 0.58366597 0.094045326
2431.3169 -1579.1364 -103.40742 0.81435168 0.30354542 -0.49466303 0.1898026
2433.3215 -1582.007 -150.72972 0.76547688 -0.016560972 0.64325029 0.083107993
2434.6648 -1567.1758 -151.78667 0.75141603 -0.036032755 0.65884417 0.1080139
2425.1206 -1563.1532 -105.84841 0.96388936 -0.047326848 -0.26206395 0.15109363
2424.7268 -1540.8918 -89.973282 0.80093122 -0.048500359 -0.59678888 0.2103692
2460.9651 -1632.8568 -172.67987 0.7334922 0.30883965 0.60548097 0.10218518
2426.5474 -1571.6012 -133.98146 0.96513581 -0.051648237 0.25660345 0.12434337
2455.4978 -1603.2526 -178.85977 0.85880035 0.14441517 0.4915345 0.048001282
2426.4766 -1553.9425 -135.106 0.9744873 -0.10695908 0.19731753 0.15232012
2418.7366 -1541.969 -136.50677 0.88335782 0.41872257 -0.2105954 0.18706475
2454.5273 -1634.7294 -164.31139 0.7645573 0.27540332 0.58275646 0.10108709
2424.8745 -1592.014 -124.0087 0.99142402 0.11119313 0.06866245 0.11413539
2424.605 -1578.9811 -128.06223 0.98670757 -0.047383562 0.15544437 0.11384356
2460.835 -1621.0002 -177.87216 0.72105789 0.22786207 0.65433508 0.050496288
2426.0173 -1567.2178 -104.01187 0.70281577 0.37881014 -0.60212362 0.17385726
2427.8901 -1558.3495 -97.898109 0.75606549 0.25518411 -0.60269898 0.18829022
2422.2454 -1605.4351 -141.11324 0.6566239 -0.13467079 0.74209756 0.12519132
2433.2498 -1590.0911 -150.27763 0.74303055 0.014252118 0.66910577 0.083144881
2428.7341 -1598.9865 -145.03923 0.73205376 -0.0030259774 0.68124014 0.094412416
2427.8557 -1568.9214 -101.37868 0.9112606 0.083752044 -0.40322414 0.17118822
2434.0681 -1576.854 -150.64606 0.75990701 -0.057432767 0.64748961 0.099517092
2428.8401 -1551.677 -88.674423 -0.62141168 -0.39930192 0.67409605 0.14521337
2437.6406 -1550.1416 -73.087135 -0.048258256 -0.95873147 -0.28018767 0.23594783
2429.7361 -1612.0892 -148.96834 0.57939404 -0.070259735 0.81201363 0.082037225
2431.363 -1579.1401 -114.62988 -0.40000528 -0.81228906 0.4244788 0.14610305
2439.3311 -1609.2212 -155.52682 0.73433727 0.097298913 0.67177504 0.06438531
2424.8342 -1576.0162 -113.97038 0.97985572 0.096013226 -0.17511202 0.14116961
2423.7673 -1550.0728 -121.0915 0.99781871 -0.04110169 -0.051657207 0.12703192
2442.6672 -1601.0787 -161.02167 0.75545245 0.025488425 0.65470749 0.053296018
2424.8359 -1567.6316 -117.53654 0.99541968 -0.059483223 -0.074842222 0.12905662
2441.0811 -1585.8899 -161.11263 0.77055222 0.078451604 0.63253033 0.065738946
2440.8762 -1543.7051 -75.686836 0.89466298 -0.16262704 -0.41608962 0.24717869
2443.9597 -1610.808 -160.23431 0.75996971 0.12183148 0.63843805 0.052291118
2448.4751 -1628.3602 -160.25117 0.76052272 0.17965917 0.62396139 0.06812463
2434.0918 -1582.9796 -151.78728 0.7555424 -0.016908141 0.65488148 0.081006072
2431.9363 -1555.4052 -147.93741 0.98117161 0.026391057 0.19132629 0.1526335
2430.0188 -1578.7603 -109.46152 -0.61205858 -0.63132048 0.47625488 0.12738051
2428.3215 -1570.7885 -101.64056 0.89068204 0.14258292 -0.43168923 0.17464568
2427.4104 -1564.6742 -98.958458 -0.57948452 -0.41646624 0.70053804 0.13664751
2434.1738 -1537.9849 -95.799889 0.86364883 -0.39129287 -0.31780595 0.22929031
2437.0176 -1586.0767 -154.88121 0.72508645 0.028056556 0.68808609 0.074299037
2432.5251 -1594.0155 -149.44406 0.73025197 0.023794916 0.6827634 0.079299688
2440.4775 -1550.5581 -64.80294 0.76032901 -0.63437188 -0.13954243 0.24840592
2422.4526 -1609.959 -141.6698 0.63210559 -0.047388572 0.7734319 0.12413101
2431.073 -1605.8976 -148.4967 0.64171648 -0.022461042 0.76661301 0.095035315
2396.8342 -1547.9908 -108.41874 -0.53061831 -0.62183255 0.57599348 0.23557147
2435.5352 -1550.2 -85.215599 0.73257655 0.23118623 -0.64022225 0.20293151
2427.9001 -1582.0226 -140.98943 0.87298304 -0.093763821 0.47865325 0.11245099
2427.8354 -1607.5878 -145.90643 0.63218099 -0.10935451 0.76706505 0.11144577
2426.6267 -1558.0262 -137.09731 0.98739624 0.10810593 0.1155933 0.15885743
