# .PCD v0.7 - Point Cloud Data file format
VERSION 0.7
FIELDS x y z normal_x normal_y normal_z curvature
SIZE 4 4 4 4 4 4 4
TYPE F F F F F F F
COUNT 1 1 1 1 1 1 1
WIDTH 477
HEIGHT 1
VIEWPOINT 0 0 0 1 0 0 0
POINTS 477
DATA ascii
2608.6299 -1209.0214 -38.358932 0.79847324 -0.57034534 -0.19273484 0.081034362
2585.6223 -1247.6864 -78.893021 0.97227585 -0.22131248 -0.075501494 0.10201477
2635.7761 -1185.4237 -40.7691 0.43243679 -0.7933144 -0.42854488 0.078774743
2592.9302 -1237.4269 -36.641331 0.8419922 -0.48655972 -0.23304237 0.10145081
2600.7231 -1222.4541 -38.466831 0.86364466 -0.44098571 -0.24423246 0.083597735
2579.2502 -1292.2148 -74.399857 0.97492051 0.21095169 0.070918247 0.1182452
2587.5178 -1228.604 -80.777718 0.96297902 -0.16536051 -0.21290199 0.13843141
2618.5562 -1197.9575 -40.584446 0.5943746 -0.77717143 -0.20669648 0.083556257
2583.094 -1263.764 -78.091286 0.96316266 -0.25080377 0.097031981 0.09596239
2580.4265 -1279.4542 -75.44725 0.97888768 -0.12978075 0.15791103 0.11366247
2590.1289 -1240.5704 -43.947681 0.89556491 -0.44166672 -0.053796206 0.10671066
2582.6357 -1252.5314 -42.00803 0.93183333 -0.36288604 -0.00064311357 0.12904176
2598.2017 -1226.5842 -44.311211 0.87153488 -0.4409197 -0.21451515 0.087331198
2612.9934 -1199.1621 -48.972866 0.78389966 -0.56620759 -0.25477487 0.087976508
2603.6084 -1212.3597 -48.39732 0.8593536 -0.44002169 -0.26056147 0.081463918
2583.4448 -1300.052 -83.559921 0.95692962 0.26332766 0.12224662 0.099924751
2580.8875 -1283.3815 -85.241798 0.9769851 -0.095869616 0.19054966 0.10955827
2583.9114 -1269.1857 -86.87648 0.97133988 -0.19790109 0.13165885 0.10970454
2591.1545 -1318.0293 -81.895134 0.86627036 0.49926457 0.017623823 0.068089984
2580.5588 -1258.0121 -55.735298 0.93882316 -0.29991716 0.16929488 0.11920177
2594.8853 -1224.1277 -59.085613 0.88703859 -0.41208023 -0.20821248 0.097584225
2588.2974 -1241.8982 -57.975502 0.93129402 -0.36413297 0.0099317208 0.11194916
2602.219 -1206.5215 -58.419609 0.83979857 -0.39695171 -0.3703616 0.10125466
2609.7092 -1214.2882 -27.751972 0.73783451 -0.59467089 0.31932238 0.17563349
2616.0854 -1204.4956 -24.578442 0.66643691 -0.70501459 -0.24252069 0.11160298
2591.3447 -1308.545 -107.46178 0.83199513 0.47012189 0.29456669 0.14874077
2583.8232 -1293.6857 -111.06839 0.95337522 0.30029729 0.029953416 0.15188485
2583.4758 -1282.0902 -98.103035 0.98051667 0.01600931 0.1957825 0.14084896
2584.0088 -1298.3807 -96.289116 0.94295651 0.30483183 0.1338305 0.13519455
2602.0791 -1209.4844 -55.834328 0.81802803 -0.29733109 -0.49236611 0.09248285
2588.0325 -1241.4408 -60.034317 0.9416635 -0.3364605 -0.0080134002 0.11115878
2594.4197 -1225.0359 -61.282841 0.88961428 -0.42069471 -0.17777054 0.094790123
2577.5662 -1255.4474 -57.2593 0.92055029 -0.33787492 0.1960298 0.11899813
2598.2268 -1214.5074 -60.469112 0.87127858 -0.36039501 -0.33315024 0.088844366
2591.8074 -1230.8286 -60.934975 0.91278076 -0.39678967 -0.096897967 0.11252561
2606.1179 -1199.5468 -58.516598 0.79953021 -0.41079137 -0.43818024 0.093834601
2610.2734 -1183.3645 -51.810127 -0.51379114 0.087619498 0.85342926 0.10739614
2588.9917 -1228.7925 -78.836731 0.97664422 -0.19469523 -0.090883546 0.12172958
2585.2371 -1249.7603 -77.924973 0.9732666 -0.22856794 0.022558132 0.10793758
2621.7363 -1199.1217 -30.751974 0.6107837 -0.74631035 -0.26450729 0.1045068
2607.6777 -1213.3622 -32.482746 0.83700573 -0.47556436 -0.27066579 0.1021261
2582.7905 -1273.6576 -85.53611 0.96084327 -0.22642408 0.15972586 0.11055113
2585.4954 -1240.3975 -82.357979 0.96986187 -0.16673876 -0.1776686 0.11015287
2610.2415 -1209.4327 -33.567112 0.81155837 -0.53150654 -0.2426393 0.10440962
2601.907 -1222.9769 -33.982346 0.87062943 -0.44055042 -0.21890569 0.082638368
2625.5789 -1196.4321 -30.778206 0.56840235 -0.76637304 -0.29931766 0.10310727
2588.7019 -1311.5873 -88.601677 0.87871444 0.45943531 0.12953816 0.092117913
2644.6323 -1186.34 -29.703108 0.45288408 -0.81310892 -0.36571828 0.12155621
2584.2522 -1254.913 -83.757812 0.97377139 -0.22572666 0.0285779 0.11305608
2594.3416 -1236.9644 -33.495129 0.81201518 -0.57912195 -0.072450556 0.10235471
2579.2312 -1285.4121 -83.918709 0.97349113 -0.03031981 0.22670631 0.11876796
2591.989 -1227.3925 -68.842621 0.92589712 -0.3232072 -0.19558015 0.11131206
2614.8203 -1207.45 -25.60005 0.75742441 -0.60330099 -0.24967213 0.13571198
2579.6589 -1295.5734 -66.756355 0.95951521 0.26889762 -0.083812751 0.11578352
2585.8521 -1300.0629 -115.00363 0.92009926 0.39103448 0.022569504 0.15191361
2587.0444 -1244.9789 -67.917343 0.9516775 -0.30601043 0.025837639 0.1190892
2581.8433 -1261.8451 -66.533661 0.94692367 -0.28145397 0.15530351 0.094919927
2578.4126 -1278.8759 -65.253181 0.98427045 -0.13443115 0.11462955 0.12236181
2596.9993 -1224.1376 -49.11459 0.8743608 -0.45727921 -0.16244671 0.093607314
2616.6133 -1194.8761 -49.919556 0.67958349 -0.70658213 -0.1972511 0.091986381
2604.3987 -1207.4697 -51.184406 0.82175714 -0.51126277 -0.25164571 0.084855914
2586.343 -1250.1832 -71.396988 0.97014272 -0.23018616 -0.076402701 0.098097637
2591.2463 -1216.4788 -75.547928 0.86362243 -0.33170107 -0.37964544 0.12919323
2589.075 -1235.1012 -70.597168 0.94586492 -0.20122971 -0.25464913 0.10572688
2582.2153 -1264.5181 -70.259483 0.95604241 -0.25818422 0.1390103 0.097065173
2579.3018 -1278.4283 -67.625145 0.98546255 -0.12785518 0.11187761 0.11937878
2585.489 -1304.3192 -112.66328 0.9419663 0.29085556 -0.16763826 0.14548458
2605.3911 -1217.355 -33.571789 0.85177732 -0.48268691 -0.20368803 0.08572235
2584.489 -1256.8644 -75.053947 0.96153915 -0.25522465 0.10150287 0.092218369
2580.7056 -1274.1459 -73.839958 0.9559949 -0.19760551 0.21685444 0.11066423
2630.6731 -1191.1169 -35.527252 0.47853178 -0.79404896 -0.37482476 0.073582679
2616.8474 -1203.0707 -33.283722 0.72279 -0.64786035 -0.24052359 0.10643806
2587.623 -1238.6649 -75.530495 0.96691012 -0.24307682 -0.077449463 0.12733363
2576.2327 -1273.1868 -49.989422 0.97338897 -0.2080204 0.096132107 0.14789045
2605.7881 -1208.6151 -49.848751 0.83675021 -0.48472792 -0.25473112 0.08599925
2598.001 -1224.4545 -49.291885 0.88005 -0.39957321 -0.25661895 0.08400812
2587.5139 -1305.7385 -99.834259 0.87114924 0.43644363 0.22497994 0.11799838
2589.3774 -1241.1509 -50.00481 0.92849189 -0.37116414 -0.011831057 0.10081442
2621.9602 -1192.2577 -45.71373 0.67419732 -0.64100552 -0.36683777 0.073954076
2582.3113 -1283.0984 -94.995003 0.92856485 -0.17225751 0.32877761 0.12665571
2580.6602 -1257.4249 -49.338955 0.91894454 -0.35776481 0.16596784 0.10227494
2585.9421 -1301.6068 -107.68721 0.97295207 0.22936188 -0.027521743 0.15209149
2589.6135 -1318.2568 -105.00801 0.98832488 0.11959825 -0.094393514 0.12156951
2597.7532 -1213.2931 -62.307537 0.87102115 -0.33889082 -0.35563341 0.095231071
2577.6565 -1282.6404 -61.754486 0.99743932 0.030768467 -0.064560413 0.13487414
2585.8931 -1250.5742 -62.156239 0.94408506 -0.32774004 0.035914995 0.098650068
2585.2646 -1298.691 -103.72769 0.87527674 0.39867002 0.27377522 0.13311747
2616.3376 -1207.2734 -17.070347 0.76708913 -0.62130105 -0.15987258 0.17190106
2579.6064 -1267.9705 -61.488956 0.95673174 -0.25745595 0.13557577 0.10687795
2592.3699 -1231.7672 -61.8895 0.92561275 -0.34190688 -0.1622981 0.092351951
2590.4587 -1235.829 -63.93185 0.94672763 -0.29915947 -0.11920743 0.096696027
2580.2097 -1271.5577 -66.259064 0.96137094 -0.2375154 0.13911289 0.11100037
2584.929 -1306.6981 -68.378807 0.87230378 0.48577788 -0.055730861 0.091761641
2579.3413 -1290.0312 -67.066933 0.99377024 0.04718956 0.10096443 0.12012192
2584.3586 -1252.7966 -65.048264 0.95074981 -0.30158645 0.071556859 0.10119835
2610.343 -1213.1345 -18.822325 0.81718826 -0.57377422 -0.05464869 0.16559978
2625.2302 -1196.9296 -28.851551 0.48725426 -0.83187377 -0.26564875 0.079775974
2591.6331 -1226.3307 -70.563896 0.92094356 -0.32359621 -0.21713702 0.11994778
2587.1064 -1244.0844 -67.8181 0.94601262 -0.32290241 0.028180294 0.12087871
2616.3005 -1206.3407 -24.819433 0.71517235 -0.6741218 -0.18463017 0.12942009
2581.8433 -1261.8451 -66.533661 0.94692367 -0.28145397 0.15530351 0.094919927
2578.6318 -1279.5447 -66.435471 0.98595905 -0.11595212 0.12016606 0.11632712
2578.0239 -1291.4027 -67.501282 0.95801246 0.26460728 -0.11043137 0.11955865
2580.7085 -1261.2045 -56.519936 0.92371172 -0.32066882 0.20959058 0.10181936
2588.6394 -1243.1554 -55.886097 0.94056898 -0.33655649 -0.045384381 0.1015785
2576.5684 -1280.2668 -55.400429 0.96887219 -0.10065874 0.22617351 0.13494886
2605.0598 -1206.5167 -54.754971 0.8351205 -0.42131582 -0.35364768 0.10282791
2595.98 -1224.4346 -56.259094 0.88855416 -0.39406237 -0.23491788 0.085517995
2587.374 -1314.0522 -57.400383 0.91123199 0.40427184 0.078870028 0.11013612
2579.4282 -1280.1913 -73.735519 0.97372496 -0.15616074 0.16575141 0.11935738
2632.6243 -1194.3127 -25.742432 0.45575216 -0.83349031 -0.31238413 0.099389911
2586.9954 -1246.6476 -72.934799 0.96184337 -0.20560963 -0.18050471 0.09681166
2615.0984 -1207.3513 -25.546061 0.74357134 -0.64466614 -0.1775029 0.12510623
2582.3284 -1299.877 -75.593056 0.94631433 0.3174684 0.060851905 0.093264647
2592.3269 -1240.4465 -27.936598 0.79364258 -0.55777949 -0.24292697 0.14849982
2603.6243 -1223.3195 -27.062136 0.87560308 -0.43917367 -0.20111136 0.10010669
2585.2395 -1253.9979 -76.049484 0.97850549 -0.20596984 0.010172298 0.08922711
2602.9666 -1225.015 -27.485319 0.83271164 -0.55256027 -0.035615999 0.1145395
2631.166 -1194.6766 -26.353563 0.52237749 -0.79688662 -0.30346903 0.11057129
2588.7878 -1240.4929 -28.781782 0.74499685 -0.66044629 0.093757018 0.16021949
2581.6541 -1274.4926 -76.445953 0.96095055 -0.20785804 0.18267217 0.10470555
2612.2446 -1209.7246 -27.625032 0.79717582 -0.57923353 -0.1702915 0.10903533
2581.1941 -1294.7723 -75.848625 0.97477156 0.1858784 0.12357016 0.11148914
2595.9431 -1330.1997 -77.267509 0.91592473 0.39841479 0.048451349 0.072101429
2587.5317 -1243.2264 -52.67231 0.93282133 -0.35276219 -0.073506512 0.11665443
2605.0154 -1209.978 -50.793472 0.84791094 -0.42815417 -0.31261963 0.087516427
2583.2664 -1301.7867 -53.507004 0.91828537 0.38592318 -0.088404149 0.10775041
2578.3203 -1260.2283 -50.257935 0.91276932 -0.3218016 0.25158685 0.11250306
2575.0007 -1279.2448 -51.473396 0.96262318 -0.17115684 0.20990936 0.15213473
2594.5059 -1226.9272 -53.399475 0.88033164 -0.45630968 -0.12960602 0.10398737
2627.354 -1195.1074 -30.989378 0.46284974 -0.84285027 -0.27454242 0.07591936
2598.1504 -1230.8177 -32.654156 0.83232558 -0.5319919 -0.15562387 0.095235907
2588.9861 -1243.1781 -35.118229 0.8438676 -0.53629494 0.016590239 0.12480699
2606.7144 -1216.2579 -31.727251 0.8518011 -0.49170595 -0.18072104 0.092803478
2577.7795 -1254.5175 -38.744976 0.76225537 -0.57878423 0.28978544 0.13537
2616.1592 -1204.0959 -31.417059 0.70303327 -0.66465801 -0.25293079 0.10282384
2580.8398 -1282.4486 -85.319038 0.97818601 -0.11427028 0.17347737 0.12049575
2605.4714 -1215.2175 -40.598392 0.86676568 -0.44368845 -0.22772311 0.090525582
2614.8784 -1200.319 -42.351521 0.73311806 -0.64906508 -0.20310695 0.091756873
2594.4751 -1232.8478 -40.831154 0.83349866 -0.53039229 -0.15480314 0.10440557
2586.2969 -1307.1332 -85.709465 0.92910612 0.35064244 0.1175232 0.093012564
2632.9639 -1186.6829 -41.832127 0.45673925 -0.79743516 -0.39431766 0.076966025
2585.2537 -1248.2838 -42.4277 0.88841075 -0.41712782 -0.19165252 0.13074879
2614.2058 -1205.6494 -31.141649 0.74331796 -0.61433232 -0.26471543 0.10789189
2628.1729 -1194.9138 -30.187349 0.46917623 -0.84507293 -0.25636974 0.077542223
2582.8787 -1268.0265 -82.427902 0.95704252 -0.25326675 0.14115803 0.1036313
2586.2585 -1246.7759 -33.453133 0.88179487 -0.46547216 -0.075983703 0.1416138
2585.2402 -1251.8655 -81.986374 0.98452425 -0.17435677 -0.017656891 0.090281226
2580.3516 -1283.6055 -83.723114 0.97613096 -0.093053564 0.1962381 0.11994155
2586.5676 -1235.1772 -79.758568 0.96441513 -0.14605564 -0.22038876 0.11554269
2597.7161 -1328.2744 -88.527847 0.83511025 0.53057873 0.14517963 0.049191985
2595.626 -1233.6698 -33.422249 0.81940275 -0.5344817 -0.20714334 0.10357165
2605.3486 -1218.2565 -31.555647 0.86316901 -0.46177706 -0.20420884 0.086920433
2583.5991 -1301.0028 -86.135353 0.93206614 0.33246937 0.1439333 0.10159319
2578.9839 -1261.458 -48.670567 0.87496221 -0.38661414 0.29149717 0.11342458
2586.2009 -1247.6127 -48.785759 0.91753685 -0.37771702 0.12432216 0.10974731
2587.8215 -1276.3761 -96.157097 0.8867144 -0.27804947 0.36935896 0.12923931
2589.6194 -1313.1588 -90.296005 0.89357686 0.43494356 0.11110571 0.095434986
2600.8203 -1218.8273 -49.171524 0.87686384 -0.36781973 -0.30954561 0.083488286
2582.1484 -1288.8612 -91.880646 0.98753411 0.11933776 0.10263947 0.11242641
2594.3845 -1233.5342 -48.695698 0.89931858 -0.40927082 -0.15402451 0.10549109
2607.1572 -1204.7225 -53.387699 0.81591368 -0.50946188 -0.27337423 0.089840196
2622.9316 -1200.2039 -25.456369 0.58626813 -0.75751358 -0.28716347 0.11180897
2610.2954 -1212.8077 -26.29649 0.81680048 -0.49402508 -0.29795346 0.13035849
2639.7068 -1190.3269 -27.673824 0.42905688 -0.80538577 -0.40897918 0.093397863
2590.0186 -1235.1562 -67.455475 0.94768089 -0.26821887 -0.17308845 0.098183595
2586.054 -1252.6541 -66.146393 0.9472385 -0.31990734 0.019963015 0.093204074
2586.5339 -1300.1453 -108.07936 0.94237006 0.29358563 0.16045609 0.17042683
2577.7686 -1278.9672 -62.903561 0.99595159 -0.089447372 0.0089193396 0.13447896
2581.6692 -1268.9734 -66.813812 0.95062041 -0.23126318 0.20697397 0.10958272
2601.2349 -1215.3081 -52.776466 0.87453318 -0.39297506 -0.28418717 0.087772533
2583.0818 -1296.2758 -95.990372 0.94798493 0.25615808 0.18896446 0.14794284
2575.4126 -1264.7432 -49.423721 0.89543456 -0.32189468 0.30753979 0.13133222
2584.3464 -1281.519 -96.805748 0.93192977 -0.14455235 0.3325831 0.1362769
2585.4395 -1248.9083 -53.902946 0.93648976 -0.34871009 0.037258483 0.11331565
2607.0657 -1198.5454 -58.103012 0.79580951 -0.4867889 -0.36017191 0.11689927
2593.3474 -1231.7505 -53.551575 0.8942489 -0.42126465 -0.1511787 0.10188758
2594.9177 -1224.2292 -62.035641 0.89369583 -0.30637416 -0.32778448 0.097571842
2582.3174 -1264.561 -67.113541 0.96373391 -0.24276045 0.11083452 0.098797195
2586.1438 -1310.3827 -67.081444 0.90952277 0.40654799 0.086527474 0.095296971
2580.1963 -1289.0416 -67.947769 0.9841271 0.0037903297 0.17742458 0.12029459
2588.2532 -1244.7205 -64.732323 0.95830023 -0.24974209 -0.13888669 0.089234129
2596.9807 -1219.2145 -59.276447 0.88399863 -0.34383774 -0.31673658 0.08440388
2578.6985 -1276.7758 -61.300243 0.96096838 -0.16553913 0.22166763 0.11032008
2590.2634 -1237.3853 -59.886745 0.94089347 -0.33309758 -0.061363328 0.10363552
2579.512 -1291.6672 -62.50174 0.9599995 0.23543385 -0.1515646 0.1134642
2583.614 -1257.0508 -61.60915 0.93504441 -0.33839065 0.10575312 0.090747759
2578.1294 -1283.8375 -57.26469 0.99953032 0.016028823 -0.026118686 0.13606901
2591.3298 -1234.5522 -55.547165 0.89807898 -0.43006235 -0.09219832 0.10677629
2599.9556 -1218.2823 -52.480797 0.88501513 -0.3414323 -0.31649989 0.087103039
2590.761 -1320.9319 -58.285069 0.90825653 0.41393137 0.061081011 0.085507765
2584.4229 -1251.2423 -55.75243 0.93784297 -0.34036654 0.067832403 0.1115078
2577.9006 -1266.2483 -54.254845 0.9408161 -0.26772577 0.20781711 0.11943787
2580.6716 -1277.8094 -80.334953 0.96206903 -0.2007471 0.18472628 0.1081523
2580.5435 -1291.965 -82.322166 0.97010702 0.1872419 0.15437877 0.1152681
2583.1511 -1264.8021 -81.071167 0.9706586 -0.22626862 0.081390493 0.10225873
2586.4521 -1286.4331 -103.04139 0.91173291 -0.088692658 0.40109447 0.17713669
2588.8289 -1242.2719 -63.215939 0.95582938 -0.26766139 -0.12143969 0.095251203
2582.7644 -1256.2634 -61.916718 0.94045138 -0.32412216 0.10245013 0.091170073
2586.6125 -1302.3585 -102.94839 0.92111158 0.32779881 0.21000324 0.1438738
2638.0737 -1193.3234 -22.244041 0.44979793 -0.81419784 -0.36710182 0.086951815
2594.1125 -1225.8677 -63.07106 0.89856559 -0.32543594 -0.29439998 0.093484282
2618.0974 -1205.0424 -22.271742 0.7136398 -0.67785525 -0.17672154 0.14120798
2581.5662 -1279.5626 -85.276138 0.99758762 -0.058700852 0.037056256 0.11058341
2584.2627 -1243.3961 -86.330116 0.9720971 -0.15706389 -0.17423591 0.10386886
2584.1475 -1261.1578 -86.018677 0.97692162 -0.21354555 0.0047362093 0.097719945
2593.8748 -1232.6586 -43.657032 0.87184113 -0.47548336 -0.11750992 0.10135134
2610.4167 -1204.5996 -45.841766 0.80451208 -0.55237323 -0.21827544 0.081799224
2621.1716 -1192.4271 -47.584618 0.60494334 -0.73683822 -0.30184934 0.081617206
2601.9673 -1218.9839 -43.990135 0.86635023 -0.42561325 -0.26132476 0.080320068
2579.1924 -1287.6588 -80.022736 0.98430783 0.030001832 0.17389087 0.11836307
2606.8247 -1212.4392 -41.222523 0.85865384 -0.45720965 -0.23167413 0.089964926
2580.0356 -1297.9032 -88.152084 0.90171975 0.39169508 0.18296567 0.096741408
2587.7075 -1244.4016 -41.526936 0.91840649 -0.38644528 -0.084791109 0.12221779
2620.6201 -1196.4532 -40.028431 0.6576882 -0.70381552 -0.26849568 0.095581502
2576.4922 -1260.8157 -42.759888 0.87209713 -0.41184902 0.26424789 0.12519281
2583.7839 -1296.5721 -91.4907 0.96664697 0.24448021 0.076309197 0.10820638
2596.8716 -1229.1642 -41.982128 0.8522414 -0.4763869 -0.21619467 0.093580574
2586.7693 -1246.2528 -63.005867 0.94821954 -0.31760591 0.0024944181 0.11335682
2579.0249 -1282.075 -63.889492 0.991624 -0.072470218 0.10691103 0.11457861
2592.28 -1322.1656 -66.889183 0.88470238 0.46596178 0.0134664 0.065995008
2583.3245 -1303.8763 -64.976997 0.93241638 0.35528967 0.066097982 0.095002279
2581.0579 -1264.1545 -63.498867 0.94858825 -0.27259925 0.16084158 0.10796477
2613.2512 -1210.1884 -18.552877 0.75580817 -0.62729877 -0.18775049 0.15546781
2593.8813 -1231.0171 -58.195374 0.91037911 -0.2992034 -0.2858097 0.10485149
2611.1448 -1213.6316 -16.439606 0.88088375 -0.4570336 -0.12314252 0.18958825
2583.2529 -1303.3254 -66.094185 0.93027377 0.36628705 -0.020602509 0.10020428
2585.4453 -1250.4545 -62.018875 0.9435305 -0.33108747 0.011455904 0.10569057
2579.4902 -1286.8903 -65.239784 0.9971897 -0.031170625 0.068125911 0.12289959
2581.2229 -1268.9655 -65.535339 0.95026886 -0.24858861 0.18759738 0.10876835
2591.7524 -1233.1019 -61.244129 0.92523378 -0.37041643 -0.082061552 0.10223217
2582.9033 -1286.2366 -84.226212 0.99243766 0.023249313 0.1205278 0.11116137
2592.4573 -1322.0615 -79.154831 0.92135864 0.3846432 0.056105983 0.057099734
2608.0151 -1202.4343 -53.810268 0.83508003 -0.438014 -0.3328439 0.092005283
2586.9939 -1246.3065 -51.070431 0.94460785 -0.32652152 0.033161476 0.1123817
2583.02 -1294.4177 -93.113953 0.97690618 0.20613834 0.056225684 0.11421379
2599.9973 -1217.1346 -53.401218 0.88523847 -0.38249674 -0.2646679 0.086082034
2590.0417 -1313.4673 -91.862488 0.8842504 0.45219043 0.1167262 0.09833923
2593.4639 -1231.7728 -52.653732 0.89343005 -0.43232137 -0.12198763 0.10008152
2578.6021 -1259.9517 -50.857952 0.87067181 -0.38064733 0.31150964 0.10560121
2593.9912 -1230.4408 -56.184441 0.91412926 -0.36114934 -0.18422496 0.10215791
2586.8506 -1291.7582 -62.209728 -0.2419447 -0.19028403 0.95144874 0.13536027
2589.5525 -1241.9681 -60.964111 0.95616889 -0.2608698 -0.13299641 0.09370549
2595.9077 -1221.7814 -61.015469 0.89204073 -0.3515631 -0.2840189 0.094246335
2580.321 -1294.4932 -61.877987 0.96398216 0.22980526 -0.1338951 0.12384963
2585.4575 -1299.896 -106.98875 0.9698261 0.24379347 -0.0014471852 0.15235254
2593.5994 -1313.668 -105.50806 0.83767122 0.49848646 0.22319977 0.13378324
2582.7812 -1259.5269 -62.729435 0.95380384 -0.26923135 0.13331418 0.087499298
2577.908 -1274.3762 -61.104366 0.97704148 -0.21284406 -0.0093483673 0.13229921
2615.5537 -1208.9999 -16.659994 0.77148825 -0.60419351 -0.1993894 0.18197528
2579.1458 -1279.0203 -64.979507 0.98097658 -0.13650556 0.13802615 0.11628316
2592.9512 -1227.6646 -62.65974 0.89229405 -0.41124105 -0.18625815 0.11265114
2582.0232 -1261.4513 -64.280403 0.95468968 -0.26500928 0.13541673 0.099459842
2581.0557 -1298.0771 -65.976494 0.95726913 0.28910488 0.0073629902 0.10741522
2587.3699 -1244.454 -62.984253 0.9491787 -0.31454843 0.010910879 0.11144973
2595.5981 -1234.0967 -39.130955 0.82970947 -0.54962933 -0.097415492 0.094089016
2605.8948 -1218.2349 -37.931149 0.86857903 -0.45455691 -0.1973538 0.086372994
2583.6335 -1271.1477 -88.44059 0.97670162 -0.19063501 0.098550893 0.11558586
2591.7952 -1317.5803 -88.899139 0.87886089 0.46387056 0.11147912 0.090929568
2583.3062 -1296.2346 -88.600464 0.97214049 0.21079086 0.10251871 0.10235312
2617.9136 -1204.1931 -25.226801 0.65618563 -0.69352937 -0.29738432 0.1182026
2607.1414 -1218.0901 -23.030069 0.83021694 -0.52874714 -0.17653988 0.11624563
2579.468 -1267.77 -64.193298 0.95763135 -0.26206234 0.11943851 0.10664824
2579.114 -1287.071 -66.73584 0.99616408 -0.02273204 0.084500767 0.12043793
2591.052 -1234.6958 -63.856548 0.94243038 -0.30246925 -0.14260893 0.093238473
2584.5657 -1250.1338 -64.400238 0.959665 -0.27065766 0.076075673 0.10758325
2610.6257 -1213.5292 -19.405926 0.85653234 -0.49881727 -0.132415 0.15580513
2588.0579 -1242.7369 -58.982338 0.94142097 -0.33713678 0.0080809155 0.11194307
2606.3506 -1201.6117 -21.644011 0.34478742 -0.22564834 0.91115558 0.18719661
2582.9006 -1259.9603 -61.07098 0.93549383 -0.31284088 0.16426179 0.09064997
2588.6282 -1302.9666 -109.73531 0.88815993 0.39021811 0.24269673 0.15996613
2579.1995 -1289.7758 -63.05909 0.98486888 0.13106465 -0.11338162 0.12740634
2594.0757 -1226.3978 -59.389614 0.88764793 -0.42625305 -0.17432597 0.10798638
2577.8931 -1274.2928 -60.431908 0.966488 -0.24917717 0.061739009 0.12849519
2592.4392 -1318.4279 -89.285912 0.85698217 0.49656552 0.13785575 0.10077986
2608.2573 -1213.9609 -32.58065 0.84115326 -0.50149119 -0.20240499 0.092360169
2599.0537 -1228.0314 -34.01078 0.85074276 -0.49703863 -0.17084904 0.08738558
2582.4446 -1295.9713 -87.260422 0.97397745 0.18402211 0.13230193 0.10462697
2621.5334 -1199.3751 -30.733891 0.67011034 -0.70074731 -0.24475558 0.11542904
2583.6584 -1263.6562 -85.086174 0.96683407 -0.2477392 0.062106088 0.098851323
2585.1174 -1245.7085 -82.790268 0.98228383 -0.15212722 -0.10943411 0.094653659
2640.3091 -1188.9106 -29.513233 0.44234541 -0.80813169 -0.38891351 0.093945824
2589.5728 -1242.3575 -35.288528 0.88010389 -0.46440855 -0.098700814 0.11733157
2581.5217 -1279.5406 -85.438744 0.97638106 -0.14988592 0.15560928 0.1177879
2604.4434 -1216.6355 -42.510319 0.85244775 -0.44234616 -0.27868029 0.090700604
2594.4004 -1233.462 -43.524914 0.85020834 -0.50299597 -0.15537317 0.10036931
2614.4019 -1200.3391 -44.111042 0.74787265 -0.63087136 -0.20661046 0.090417631
2589.4409 -1311.6864 -94.224396 0.9073894 0.39948446 0.130601 0.10731592
2581.9346 -1284.0051 -93.007492 0.99055028 0.077229604 0.11333904 0.11049471
2583.978 -1251.5502 -44.114822 0.91044199 -0.40078738 0.10229788 0.11191335
2599.0645 -1219.5563 -50.671272 0.87391353 -0.43992227 -0.20674512 0.085581347
2577.3279 -1266.0695 -54.134495 0.87654287 -0.30523896 0.3721582 0.10947063
2593.2983 -1316.3892 -104.78293 0.89467424 0.4209345 0.14957321 0.1207665
2592.7415 -1236.0457 -49.243038 0.89894861 -0.42434677 -0.10872518 0.105551
2584.7195 -1251.0333 -51.207249 0.91749954 -0.38889873 0.08338061 0.11224831
2577.5271 -1285.0104 -53.915028 0.98706806 -0.019341493 0.1591306 0.13662457
2585.208 -1306.9025 -56.014061 0.9037782 0.42361668 -0.061105207 0.10039326
2606.5938 -1205.2208 -50.586983 0.82769382 -0.50283408 -0.24916013 0.087934978
2586.988 -1303.6283 -104.42388 0.97630984 0.2136168 0.034451976 0.13813262
2585.4011 -1248.9027 -55.896759 0.93527412 -0.351632 0.040215489 0.11156693
2608.6294 -1202.3949 -53.226704 0.81012475 -0.50844681 -0.29185575 0.084664695
2580.2083 -1265.5171 -59.218861 0.92828524 -0.2872833 0.23612462 0.1015234
2592.5828 -1233.3752 -54.808285 0.90808392 -0.40036479 -0.12284788 0.10146596
2588.5645 -1304.1934 -105.94805 0.83276838 0.46736872 0.2967546 0.16185957
2599.8652 -1216.9404 -53.964367 0.88902998 -0.39297655 -0.23493655 0.08790005
2580.0923 -1279.1864 -75.92791 0.96723849 -0.18835546 0.17021152 0.11040569
2589.7268 -1230.9225 -72.934982 0.93774426 -0.26613027 -0.22318238 0.11470944
2582.3928 -1262.3152 -73.780663 0.94269478 -0.29521537 0.15548131 0.10799336
2585.9253 -1245.0706 -73.847343 0.9739936 -0.22596222 0.016658908 0.1102192
2591.6628 -1212.4248 -71.885078 0.86111277 -0.21999028 -0.45835471 0.12283575
2620.9734 -1202.8673 -21.659275 0.65543765 -0.72323757 -0.21755205 0.12171615
2612.4221 -1209.4918 -24.776369 0.72453052 -0.63372105 -0.27102244 0.143315
2584.8574 -1283.9928 -102.58914 0.9642089 -0.0032194061 0.26512414 0.14856097
2602.5042 -1210.2484 -55.200001 0.84509224 -0.4164657 -0.33522454 0.093388371
2586.8059 -1245.3322 -54.970695 0.94599169 -0.32416523 0.0040734522 0.11820792
2612.2805 -1193.452 -56.124859 0.77880174 -0.49588612 -0.38414165 0.095401965
2587.6724 -1305.3108 -101.65883 0.90853977 0.37443012 0.18535799 0.13908304
2595.0222 -1227.5986 -55.756283 0.90144676 -0.37000632 -0.22469763 0.090948977
2591.7546 -1233.9086 -60.971161 0.93140393 -0.34713164 -0.10948224 0.10011645
2597.6616 -1217.4933 -59.511749 0.88511109 -0.33513972 -0.32289273 0.08742816
2586.0505 -1247.7156 -71.924858 0.95519644 -0.28615776 -0.075587533 0.10619451
2582.5767 -1262.4492 -70.759743 0.95155787 -0.2711316 0.14500111 0.099780604
2610.4592 -1212.6655 -27.170015 0.81934202 -0.54017889 -0.1920557 0.11298601
2584.1904 -1304.958 -69.755173 0.9477216 0.23760538 0.21299647 0.095965073
2579.7395 -1279.094 -68.88192 0.9798125 -0.12446883 0.1564448 0.11368407
2589.178 -1231.5581 -73.558388 0.9459396 -0.22942765 -0.22926225 0.11230155
2586.7024 -1293.1122 -112.26229 0.9461357 0.14730278 0.28832132 0.21574874
2625.2507 -1198.0304 -27.229927 0.62466383 -0.73760808 -0.25637743 0.11894722
2591.4534 -1214.9558 -72.616875 0.87846929 -0.24314547 -0.41130516 0.12131808
2584.8628 -1257.085 -72.678604 0.96178937 -0.25806743 0.091446012 0.09078595
2571.9409 -1291.0304 -111.08501 0.58394301 0.58064872 -0.567325 0.19424289
2588.7258 -1236.2122 -71.296082 0.95167661 -0.22901419 -0.20460737 0.098861411
2652.3506 -1185.774 -27.88521 -0.28563386 0.63082582 0.72143751 0.096267059
2582.9331 -1301.1732 -72.291199 0.95855486 0.27651694 0.068636566 0.10934058
2626.1128 -1197.2842 -27.178627 0.51798183 -0.80511296 -0.28894284 0.085568912
2611.8167 -1210.3888 -27.607578 0.78899759 -0.55510473 -0.26332787 0.11911102
2579.9446 -1273.6411 -70.65934 0.97092265 -0.21140584 0.11232428 0.10789736
2626.1084 -1190.1639 -45.06543 0.52329564 -0.79147714 -0.3157936 0.076953374
2592.8494 -1236.8273 -43.672913 0.87024367 -0.47450909 -0.13235213 0.10473063
2610.9954 -1203.9967 -44.998882 0.7913993 -0.57917684 -0.19555385 0.083244778
2582.8721 -1247.0355 -87.492577 0.95990688 -0.15107383 -0.23612605 0.11258243
2602.4519 -1220.8485 -42.866688 0.86458105 -0.41612151 -0.28167796 0.083386719
2580.1257 -1282.5074 -86.552879 0.98265398 -0.061369445 0.17499992 0.11851896
2583.7375 -1264.3568 -86.810349 0.95725739 -0.2582072 0.13033535 0.11722343
2582.2078 -1299.6859 -85.58255 0.94294101 0.30613393 0.13093626 0.10138887
2596.0347 -1225.7433 -54.265877 0.89770514 -0.38044053 -0.22223982 0.085254937
2586.9714 -1299.0912 -107.38966 0.89358884 0.34310353 0.28944594 0.16676067
2589.1189 -1241.6683 -55.960495 0.9350757 -0.35196054 -0.041919526 0.10124578
2613.3975 -1196.2882 -53.140118 0.77853513 -0.56443292 -0.27440578 0.085445985
2582.0828 -1255.5338 -55.939999 0.93235022 -0.33354548 0.13953657 0.10309345
2603.5713 -1209.7896 -53.071045 0.84675705 -0.42202741 -0.32387558 0.095218755
2582.6992 -1283.7048 -94.407616 0.95635259 -0.11827158 0.26721072 0.12561013
2602.0303 -1210.5305 -56.632504 0.85185456 -0.41243225 -0.32286751 0.091388531
2608.5249 -1194.736 -58.720673 0.77743208 -0.4320668 -0.45707515 0.10602832
2589.8113 -1239.7004 -54.086521 0.93176764 -0.36031681 -0.044506423 0.099676646
2596.0042 -1225.157 -55.484478 0.89617682 -0.37853155 -0.23147562 0.085960895
2583.0437 -1297.608 -92.776733 0.94849128 0.28206012 0.14424433 0.10966532
2610.335 -1205.3256 -42.786011 0.80535442 -0.56158507 -0.18980634 0.081893697
2583.1875 -1230.937 -86.813416 0.95470393 -0.015781304 -0.29713872 0.1296135
2582.2473 -1269.3369 -85.342659 0.93501204 -0.27740273 0.22090764 0.10326508
2626.4709 -1190.6447 -43.256363 0.56171417 -0.76876807 -0.30573323 0.075047046
2582.7993 -1249.96 -87.962601 0.96467429 -0.1925413 -0.17980927 0.097295903
2579.4326 -1273.7128 -66.496201 0.96916056 -0.20123453 0.14224076 0.12063862
2588.5735 -1313.5051 -70.323517 0.8461951 0.5306046 -0.049118299 0.087236911
2619.3953 -1204.5269 -20.866369 0.6675992 -0.70427573 -0.2414684 0.1342636
2583.3391 -1257.4718 -66.243919 0.94377738 -0.30012181 0.13860442 0.092715502
2607.5657 -1216.2673 -20.071178 0.8512547 -0.52457476 0.013663729 0.15153688
2589.1047 -1238.4618 -65.055695 0.94196832 -0.33545834 -0.012780135 0.11495916
2581.6924 -1297.8672 -68.35556 0.96212041 0.25224364 0.10342867 0.11082626
2610.9116 -1210.351 -18.32053 0.808496 -0.57617825 -0.11980323 0.13058034
2592.1499 -1322.4243 -68.064552 0.89272308 0.4454788 0.0677801 0.060020868
2579.4727 -1276.585 -65.2976 0.98018432 -0.16098748 0.11542004 0.11686485
2582.3298 -1300.422 -67.961838 0.95709568 0.24001949 0.16235293 0.10443948
2615.0132 -1207.5736 -18.89904 0.71577018 -0.67090094 -0.19381697 0.15597568
2588.425 -1241.1433 -63.015347 0.94702739 -0.31932688 -0.034197029 0.10630888
2595.1255 -1227.3307 -58.425175 0.89661175 -0.27706042 -0.34543434 0.102309
2583.3274 -1259.9083 -65.580986 0.96222621 -0.26232043 0.072861247 0.089279696
2583.5403 -1275.9033 -82.631721 0.99488032 -0.087571725 0.050441228 0.10528784
2593.6428 -1324.014 -83.132812 0.91736645 0.39467329 0.051689826 0.060672272
2578.5496 -1273.178 -66.942635 0.96216702 -0.24510166 0.1189949 0.12048186
2617.23 -1203.4695 -28.803957 0.65962666 -0.69696486 -0.28130537 0.10757743
2592.1079 -1220.1307 -71.177666 0.88528466 -0.32209143 -0.33545229 0.12153453
2639.1094 -1190.1981 -28.094055 0.44603512 -0.80849606 -0.38390982 0.092142701
2588.2507 -1238.572 -70.286865 0.96187872 -0.24446033 -0.12259056 0.10974699
2583.7444 -1286.2203 -113.24266 0.94769645 0.17308247 0.26816773 0.1708758
2583.7266 -1256.8364 -68.543449 0.94400471 -0.28960019 0.15807217 0.097105846
2602.2642 -1222.1317 -36.055954 0.87925291 -0.43842509 -0.18627343 0.082591899
2626.4854 -1193.4042 -36.882328 0.50172132 -0.81206703 -0.2980316 0.073238626
2580.0771 -1293.8612 -83.93718 0.97103959 0.17196867 0.16585803 0.10792772
2591.4153 -1238.5758 -37.269882 0.86070645 -0.47974795 -0.17037095 0.10940547
2613.0447 -1205.8375 -34.995869 0.77828568 -0.56950998 -0.26444244 0.10707711
2583.5317 -1260.0123 -83.599045 0.95367837 -0.27277142 0.12685953 0.11025938
2642.2588 -1187.4648 -30.236382 0.44454929 -0.79842752 -0.40606579 0.10986049
2607.9504 -1214.972 -29.988066 0.85299182 -0.47995463 -0.20505723 0.10087069
2621.0332 -1200.0383 -30.014648 0.6277054 -0.72729391 -0.27754197 0.10574824
2586.8945 -1238.3875 -78.28653 0.96913409 -0.1982255 -0.14658038 0.10695599
2580.7554 -1282.5176 -79.608978 0.98920566 -0.090987831 0.11486246 0.11605161
2597.5889 -1330.4854 -79.652626 0.8574006 0.50162679 0.11504232 0.056976445
2584.5164 -1303.8214 -78.952126 0.94145495 0.32564142 0.087294281 0.1026269
2584.7463 -1259.9294 -79.033821 0.95549011 -0.26607436 0.12744837 0.087397255
2592.3806 -1228.7053 -62.115379 0.90646631 -0.41089198 -0.097399302 0.11972636
2578.5322 -1282.2155 -62.656452 0.98742044 -0.083997957 0.13395993 0.11919228
2580.8066 -1264.366 -62.410408 0.94551361 -0.27331957 0.17691925 0.11146949
2581.7129 -1299.5321 -65.036385 0.928877 0.34149909 -0.14340822 0.096268989
2586.7751 -1245.9377 -60.968166 0.94732034 -0.3201032 0.01086695 0.11271533
2613.4458 -1210.663 -17.649536 0.74024504 -0.6338467 -0.22422223 0.16386279
2596.0503 -1229.3518 -51.191257 0.89003354 -0.40845063 -0.20250516 0.094466336
2582.2144 -1256.561 -50.016182 0.90963078 -0.38346678 0.15976565 0.097952701
2601.2932 -1214.2169 -53.452465 0.87256998 -0.40033761 -0.27991322 0.086654507
2574.9077 -1270.9675 -49.101299 0.89864212 -0.30002427 0.32004333 0.12985562
2583.4194 -1295.0195 -94.057449 0.96627039 0.25742558 0.0073225372 0.13570677
2588.6658 -1310.5756 -92.170258 0.91198707 0.3933669 0.11637031 0.10016714
2584.5652 -1247.6056 -44.066078 0.91517806 -0.37818027 -0.13938731 0.13108532
2604.2126 -1216.1147 -42.514671 0.87070692 -0.43124798 -0.23642053 0.084965616
2628.8916 -1187.7463 -45.222355 0.53256899 -0.77325177 -0.34416845 0.071088962
2594.6748 -1232.9697 -43.328297 0.85320961 -0.49402356 -0.16725463 0.10024817
2615.2688 -1199.3889 -43.76046 0.74421293 -0.62187189 -0.24376714 0.089394383
2581.5742 -1280.0646 -86.930489 0.98662239 -0.11093354 0.1194571 0.10800765
2583.356 -1299.1763 -85.559105 0.96336585 0.23644879 0.12656289 0.10167322
2580.6384 -1269.6796 -65.177147 0.9656924 -0.22727689 0.12563223 0.10673738
2590.3303 -1235.2095 -63.060226 0.91601735 -0.401068 -0.0075261761 0.12366141
2584.6553 -1251.5477 -63.899612 0.94780165 -0.31363595 0.057485126 0.10575801
2585.0378 -1306.7367 -67.265717 0.87088573 0.4881331 -0.057307471 0.08754956
2579.3689 -1287.9836 -65.882751 0.99628234 0.01188237 0.085324965 0.1227674
2609.5173 -1214.0422 -17.916155 0.83902812 -0.54201531 -0.047447328 0.17886798
2600.3923 -1218.1345 -49.739353 0.87025654 -0.41269806 -0.26894963 0.080465339
2592.4617 -1234.2227 -51.043343 0.89750582 -0.43287417 -0.084280737 0.10177992
2609.7261 -1203.8253 -48.916618 0.81674767 -0.5206905 -0.2486054 0.08469142
2576.2 -1282.9313 -54.222359 0.96020263 -0.082425825 0.2668649 0.13700068
2579.0815 -1265.8588 -54.645344 0.90977621 -0.32914898 0.25291935 0.10357959
2580.3481 -1301.1639 -55.57663 0.92876601 0.33068633 0.16745219 0.11022963
2585.8652 -1249.8815 -52.12117 0.94121349 -0.33584753 0.036381762 0.10893837
2584.2568 -1305.4894 -66.997269 0.92644346 0.3764286 0.0020155217 0.10188274
2591.8823 -1231.975 -62.490711 0.92302608 -0.37338477 -0.092772342 0.10911147
2578.7559 -1282.2676 -64.497093 0.98869234 -0.070432186 0.13238855 0.12308767
2612.0464 -1212.1606 -18.061783 0.87568355 -0.45774555 -0.15377679 0.16501044
2581.1479 -1266.2539 -64.346542 0.96082461 -0.25136867 0.11674687 0.10233641
2585.803 -1248.9326 -63.007404 0.94558936 -0.32341707 0.035526667 0.10757066
2609.5305 -1208.0984 -40.588364 0.8290413 -0.50868392 -0.23223089 0.091126002
2601.7671 -1222.3577 -39.142857 0.86764902 -0.44075999 -0.23003432 0.083658688
2581.8933 -1294.1799 -81.16124 0.97698879 0.158842 0.14234506 0.10761974
2621.3159 -1195.0812 -41.717487 0.6440357 -0.70036614 -0.30774221 0.087585352
2590.2571 -1316.7356 -79.155159 0.91822505 0.38753179 0.08174289 0.080103919
2593.8164 -1236.2512 -37.791061 0.83582258 -0.52880031 -0.14754945 0.11207328
2581.4802 -1278.1826 -82.319328 0.99106216 -0.12425625 0.048540615 0.11696555
2584.0645 -1249.1799 -36.873085 0.86695415 -0.49552968 0.053299509 0.12545218
2606.7195 -1218.076 -24.424112 0.8455283 -0.52827168 -0.077529982 0.12486319
2591.4575 -1320.7625 -63.992668 0.8874675 0.46065086 0.01422031 0.063893646
2616.8555 -1204.7875 -27.13747 0.68816406 -0.67177582 -0.2741304 0.12096581
2581 -1295.7428 -65.008713 0.9684484 0.24907124 -0.0084396247 0.1169076
2588.2083 -1240.3311 -67.080345 0.95328283 -0.30153039 -0.01820112 0.11753852
2583.1831 -1258.0552 -66.970413 0.94626695 -0.28497478 0.15286668 0.091834672
2579.2002 -1276.2185 -65.854744 0.97693306 -0.17782533 0.11823671 0.11516397
2632.4421 -1193.8573 -26.913982 0.43326247 -0.85841924 -0.27459058 0.087412842
2610.6924 -1212.4485 -26.13343 0.80740792 -0.53540987 -0.24784835 0.12920332
2623.7417 -1199.9563 -24.355421 0.58804357 -0.75815326 -0.28179502 0.11413131
2604.2578 -1223.5773 -26.807028 0.84519523 -0.5342772 -0.013889978 0.11504576
2584.114 -1296.0109 -94.292137 0.97952288 0.1992413 0.028945884 0.14032464
2589.1858 -1311.8589 -92.538971 0.92782742 0.35825422 0.10387562 0.099617094
2587.3284 -1311.364 -60.977863 0.87884343 0.47623038 -0.028962439 0.084445849
2590.9023 -1236.1727 -56.228058 0.92471677 -0.37365642 -0.072661921 0.10557353
2578.7683 -1269.3799 -58.663807 0.92621017 -0.25737068 0.27549049 0.11453912
2585.0388 -1252.5836 -57.647102 0.92209953 -0.37378174 0.10009833 0.099888667
2579.0386 -1290.0713 -60.606014 0.99252176 0.014249532 0.12123325 0.13964599
2582.3696 -1299.7296 -69.23053 0.96020341 0.26632249 0.084152818 0.11259004
2591.7974 -1321.0535 -68.908012 0.8838957 0.46549079 0.045240626 0.057820667
2639.6562 -1190.3547 -27.672312 0.42905688 -0.80538577 -0.40897918 0.093397863
2584.0737 -1259.2632 -70.68026 0.96559793 -0.24212992 0.094835311 0.091834038
2609.1604 -1214.6759 -26.105515 0.82360119 -0.55933046 -0.093970895 0.13305405
2619.1111 -1202.1558 -28.409266 0.67150372 -0.69850206 -0.24734098 0.10719246
2587.9861 -1239.2179 -71.150284 0.96581894 -0.21338482 -0.1471758 0.098300926
2580.8887 -1278.6571 -71.339668 0.97372812 -0.16121517 0.16082059 0.11337191
2603.5718 -1222.4025 -22.823717 0.85013765 -0.52617383 -0.020174941 0.11752643
2584.9429 -1308.1461 -64.287888 0.93274486 0.34967449 0.087833762 0.097706482
2632.7869 -1194.796 -24.173136 0.45806813 -0.83227468 -0.31223777 0.097222142
2598.3398 -1240.6263 -28.698719 0.69387251 -0.34281689 -0.63325942 0.13819449
2615.1423 -1207.7037 -23.293909 0.75299001 -0.6434356 -0.13782848 0.1370142
