# .PCD v0.7 - Point Cloud Data file format
VERSION 0.7
FIELDS x y z normal_x normal_y normal_z curvature
SIZE 4 4 4 4 4 4 4
TYPE F F F F F F F
COUNT 1 1 1 1 1 1 1
WIDTH 471
HEIGHT 1
VIEWPOINT 0 0 0 1 0 0 0
POINTS 471
DATA ascii
2678.5593 -1502.8938 -107.2044 0.96655351 -0.11428727 0.22959261 0.13040105
2672.0442 -1524.0145 -56.594261 0.98405051 -0.16516972 0.066057362 0.12527628
2670.5674 -1535.9841 -56.151039 0.99508464 0.0013690986 -0.09901841 0.15035617
2676.1555 -1536.4747 -157.11226 0.4833833 -0.87304723 0.064258397 0.17616692
2693.8857 -1553.8729 -105.43208 0.73991448 0.65548366 0.15122083 0.083888344
2677.5344 -1519.027 -104.99079 0.99114203 -0.0035454605 0.13275863 0.097954139
2672.6785 -1508.0391 -59.730938 0.98713475 -0.022981323 0.15823039 0.15622963
2690.4309 -1541.2042 -7.8394747 0.90969342 0.32648966 -0.25663662 0.021044292
2667.1382 -1546.4095 -57.446182 0.93908894 -0.31986931 0.12568052 0.1791646
2671.7507 -1534.068 -60.889046 0.98530537 -0.089286871 0.14560638 0.11636475
2680.395 -1508.0592 -16.793839 0.94252384 0.092248611 -0.32115263 0.02261713
2674.7014 -1512.7977 -70.32029 0.96197855 0.13004422 0.24017864 0.10726766
2673.1482 -1516.3811 -63.382328 0.98503721 -0.090487868 0.14667526 0.13107213
2675.1428 -1532.8706 -161.91325 0.71391088 0.46739948 -0.52141052 0.19986159
2682.3196 -1511.0696 -123.40849 0.91884714 0.26407278 0.29323277 0.10718568
2680.822 -1517.99 -117.05972 0.94674265 -0.053525105 0.31751126 0.13329627
2695.6089 -1556.6155 -112.05431 0.75774133 0.65205348 -0.025580311 0.12484445
2680.1304 -1532.9739 -113.73714 0.97376782 0.022473605 0.2264314 0.15189707
2679.0496 -1534.0463 -154.93312 0.34778589 -0.93754083 -0.0078835944 0.17797324
2678.448 -1537.2717 -160.42122 -0.59094512 -0.54431772 0.59540075 0.20067292
2680.8257 -1516.9951 -116.78175 0.94102615 -0.0020987086 0.33832735 0.12792665
2699.6648 -1573.4498 -102.17137 0.1039094 0.39866656 0.91119033 0.23104519
2682.2385 -1535.3842 -113.50692 0.94057041 0.2050942 0.27067268 0.163491
2705.1477 -1565.4615 -111.5873 0.76178664 0.60111374 0.24154383 0.15410516
2687.322 -1535.3417 -11.675298 0.92650425 0.26265809 -0.26944503 0.017222472
2685.3721 -1521.3591 -7.4013028 0.91906053 0.20272633 -0.33797893 0.024376467
2657.0579 -1513.8381 -68.437729 0.20968337 -0.94892657 -0.23573551 0.1638902
2670.4797 -1527.5916 -63.394283 0.97783798 -0.04634646 0.20416874 0.11873811
2684.8713 -1532.174 -15.849029 0.92442256 0.26594594 -0.27334166 0.020992044
2681.3804 -1507.8318 -14.833842 0.94167602 0.066560663 -0.32987261 0.021966839
2677.5542 -1516.9719 -93.817848 0.99268746 0.092362225 0.07772243 0.09544836
2678.6272 -1544.056 -87.091263 0.96109378 0.14458787 0.23535725 0.093879096
2684.4451 -1531.6716 -141.5378 0.87259948 -0.48660913 -0.042210259 0.13287975
2677.7715 -1529.1837 -90.249565 0.99047142 0.081627533 0.11092018 0.085995391
2694.5667 -1543.1014 4.6481099 0.89069694 0.37031063 -0.26368356 0.049568649
2673.4399 -1513.1616 -61.796272 0.984079 -0.11046989 0.13922976 0.13792959
2671.2957 -1534.2192 -60.477318 0.98553067 -0.065561816 0.15630381 0.11634477
2677.3232 -1525.9585 -107.81813 0.99205095 0.0044175433 0.12575938 0.11516988
2678.3657 -1502.9529 -107.59717 0.9639594 -0.09807834 0.24731128 0.13737997
2698.1917 -1562.2948 -110.66653 0.75334179 0.63853395 -0.15732293 0.16667078
2683.6938 -1522.1948 -13.336563 0.92119086 0.20077978 -0.33330905 0.018981634
2672.2839 -1528.9932 -50.813004 0.95703322 0.00070739089 -0.28997752 0.13182141
2683.7498 -1527.1497 -148.57191 0.95968145 -0.25106767 -0.12639816 0.16355193
2677.752 -1511.7954 -98.931061 0.99293596 0.077072777 0.090210639 0.0927573
2675.8997 -1520.4563 -95.503159 0.99863535 -0.035327028 0.038463049 0.091157436
2702.2573 -1572.3373 -101.05711 0.78884053 0.39043915 0.47464502 0.2207872
2692.1033 -1581.4719 -102.77579 -0.24377441 0.41535732 0.87638593 0.16758282
2709.1199 -1573.1749 -106.7478 0.8110348 0.57583362 0.10314184 0.25055167
2680.3643 -1528.7816 -106.21992 0.97698456 0.11507635 0.17960665 0.095216714
2674.4656 -1535.2789 -156.48317 0.19455853 -0.97897595 0.061262608 0.18524569
2673.9653 -1518.2434 -75.033752 0.96984726 -0.059547864 0.23632687 0.1336216
2683.9575 -1512.0016 -127.0172 0.92662722 0.034034483 0.37443778 0.11994691
2682.271 -1532.2112 -127.68886 0.95890772 -0.1593191 0.23476236 0.16507043
2673.3584 -1540.1423 -76.830894 0.96537352 -0.031523921 0.25895983 0.12394274
2681.4609 -1535.1372 -28.820311 0.92217314 0.23474582 -0.30739403 0.04224968
2674.5559 -1513.0269 -82.06057 0.98905498 0.059762374 0.13490245 0.11002856
2684.781 -1526.8101 -135.76007 0.96529835 -0.22008181 0.14058132 0.14866249
2696.3391 -1544.012 10.326386 0.84661192 0.50406146 -0.17079304 0.062489923
2676.3162 -1533.955 -84.284264 0.98570287 -0.026399747 0.16641182 0.097569153
2674.3762 -1513.1145 -37.849464 0.95698339 0.17566191 -0.23092347 0.074703336
2695.7563 -1542.6493 9.5994301 0.89598233 0.3801761 -0.22952509 0.060359608
2675.2495 -1531.2544 -42.737461 0.91051829 -0.028074985 -0.41251448 0.11193925
2675.7715 -1514.6896 -89.553612 0.9964847 -0.070327342 0.04552263 0.10693941
2675.5046 -1536.342 -89.580124 0.98908472 0.061953612 0.13369037 0.095665239
2700.9436 -1561.0999 -116.8766 0.72037375 0.6871587 0.094204962 0.12292245
2679.8137 -1530.9756 -112.55453 0.97105426 0.013072954 0.23850106 0.12738127
2671.3142 -1538.1793 -62.464439 0.98578918 -0.053338293 0.15929446 0.12999922
2673.2102 -1521.8649 -61.087852 0.97979134 -0.16771911 0.10899171 0.10950443
2679.1582 -1513.0592 -110.1835 0.97476113 0.068563238 0.21246144 0.102337
2679.8577 -1511.3038 -115.14227 0.9359749 0.090511046 0.3402333 0.10834084
2685.7092 -1545.5038 -160.39572 0.74517417 0.52138096 -0.41578525 0.19461791
2682.6062 -1533.1891 -114.00774 0.95363605 0.1533678 0.2589528 0.15148246
2690.5166 -1549.3397 -109.09274 0.80827641 0.56801122 0.1550885 0.11494109
2679 -1517.0287 -111.26793 0.97145164 -0.0092831375 0.23705606 0.11685865
2672.7468 -1516.1166 -58.218815 0.98487729 -0.14196235 0.09931495 0.13540323
2668.9214 -1530.6964 -58.867939 0.99784452 -0.041069172 -0.051181886 0.15429561
2688.698 -1546.8778 -111.24355 0.81939399 0.55236274 0.15326068 0.12998998
2687.6272 -1535.8185 -11.188304 0.92295551 0.26713091 -0.27711767 0.017659901
2675.9097 -1533.1176 -152.42021 -0.0080308076 -0.81086785 0.5851742 0.18656735
2675.2175 -1528.1525 -43.223232 0.96183455 0.052684698 -0.26851189 0.12881579
2674.7629 -1540.5793 -48.354073 0.93577355 0.10461426 -0.33672506 0.13872573
2691.6609 -1541.3978 -2.5603042 0.91436446 0.27166235 -0.30022866 0.030413732
2674.6865 -1510.2754 -55.788204 0.94450903 -0.31936812 -0.07685516 0.1537191
2671.3643 -1529.6365 -55.47311 0.99643332 -0.0677213 -0.050343025 0.13688326
2674.2239 -1513.1384 -46.532417 0.97074252 -0.06042102 -0.23239686 0.16026057
2692.8813 -1557.9326 -91.389275 0.74207067 0.61859727 0.25820243 0.054253008
2678.031 -1519.5116 -97.687401 0.98985159 0.084847338 0.11399465 0.089250498
2678.1543 -1530.9026 -92.882515 0.99137282 0.083658293 0.100902 0.086617827
2681.8186 -1521.3367 -145.77634 0.90359336 0.20737991 -0.37485015 0.16510007
2675.686 -1533.9205 -41.888779 0.9682349 -0.017844699 -0.24940488 0.11938739
2668.9504 -1538.4904 -60.175591 0.97241372 -0.039898727 0.22982521 0.13319629
2677.3757 -1529.0133 -111.60715 0.9689396 -0.0013752267 0.24729362 0.12829219
2672.9468 -1523.9913 -62.006641 0.97958809 -0.15956341 0.12225689 0.10533556
2678.9067 -1508.783 -110.90866 0.95150167 -0.10786896 0.28811264 0.1233441
2676.8193 -1528.0447 -87.284821 0.99137336 0.020303061 0.12948626 0.083398625
2679.3303 -1546.3271 -84.471222 0.94573385 0.18532433 0.26691273 0.097392708
2686.9207 -1521.5544 -141.91049 0.99156386 -0.12937129 -0.0080108223 0.15601163
2682.2449 -1530.0828 -137.70694 0.89455128 -0.43144155 0.11677442 0.1509686
2676.7632 -1514.1799 -90.37986 0.99679458 0.034248814 0.072302327 0.093601145
2694.1982 -1540.4231 7.1650882 0.89069694 0.37031063 -0.26368356 0.049568649
2676.634 -1536.5895 -153.53265 0.59818935 -0.66438079 0.44807106 0.20604742
2686.0317 -1543.9796 -109.32054 0.88588578 0.44089904 0.14427227 0.12889138
2677.9966 -1510.2523 -106.36354 0.97940832 -0.12269247 0.1603304 0.1146446
2670.6123 -1538.4744 -58.408138 0.99348557 -0.071263634 0.088926353 0.13899876
2673.0911 -1517.4784 -59.551636 0.98740023 -0.11545888 0.10821313 0.12563051
2682.6133 -1509.2192 -11.217955 0.94668889 0.086980827 -0.31018451 0.016893847
2676.8962 -1519.0125 -33.974693 0.96487665 0.11640609 -0.23550515 0.060574528
2697.4731 -1545.3137 12.106284 0.84661192 0.50406146 -0.17079304 0.062489923
2685.2275 -1521.7737 -133.40628 0.96726149 -0.12350959 0.22169933 0.16539507
2675.2141 -1529.0082 -82.968658 0.98875058 -0.037941359 0.14468171 0.099673405
2681.3901 -1545.545 -35.125889 0.93017 0.19424464 -0.31153291 0.089307249
2672.5947 -1505.8887 -80.928787 0.97619748 0.18269646 0.11687814 0.14036714
2682.5903 -1514.4086 -12.138413 0.92984605 0.15764953 -0.33246499 0.02018014
2674.5203 -1498.1981 -113.76162 0.92590851 0.31878516 0.20265612 0.12206748
2671.3416 -1515.6926 -60.020958 0.95041537 -0.31098023 -0.0013887746 0.13965155
2698.3887 -1557.1012 -112.61269 0.75244612 0.64616424 0.12765811 0.099565506
2669.8792 -1532.5767 -57.931549 0.99923921 -0.038728602 0.0045970017 0.14459811
2679.2727 -1518.0184 -111.65841 0.96571749 -0.013989298 0.25921807 0.12337583
2673.0251 -1521.8129 -59.106735 0.97643232 -0.18748826 0.10690239 0.11506835
2679.387 -1515.1703 -111.41103 0.96399802 0.10179789 0.24565215 0.10775076
2670.4651 -1540.3868 -58.327602 0.99665821 -0.040736608 0.070802376 0.15328658
2699.7654 -1557.2941 -113.1162 0.77275997 0.60112619 0.20368931 0.083421201
2676.1851 -1537.2493 -159.53848 0.37220916 -0.89413822 0.24895209 0.20857914
2676.2224 -1523.3934 -36.937771 0.9394353 0.069307305 -0.33564529 0.087837934
2677.2483 -1537.0409 -86.134758 0.98290128 0.053400196 0.17622006 0.094173118
2672.8152 -1504.0601 -82.466072 0.97980422 0.10447767 0.17049377 0.14435948
2672.8323 -1507.0292 -79.022675 0.97663474 0.16960864 0.13197555 0.14376111
2682.2151 -1530.2607 -127.61696 0.94123507 -0.22753279 0.24961036 0.1650445
2684.1206 -1506.0972 -126.62232 0.90685964 -0.017201174 0.42108157 0.11630277
2674.3533 -1531.162 -78.431877 0.9699055 -0.06674093 0.23415583 0.10660298
2677.1399 -1517.1859 -29.669287 0.94048643 0.14895624 -0.30544609 0.041138545
2672.6804 -1511.2031 -59.727551 0.95572799 -0.29363528 0.019033493 0.16046144
2669.644 -1529.4221 -59.47197 0.99419159 -0.028657982 0.10373914 0.14982249
2683.6636 -1513.8762 -8.2331028 0.92919374 0.17337467 -0.32640508 0.020418512
2673.2461 -1514.6765 -64.061005 0.97652191 -0.12591583 0.1747859 0.13357522
2673.3652 -1551.994 -70.839188 0.91516072 0.014882922 0.40281433 0.13152577
2672.0725 -1532.4139 -66.865929 0.97282636 -0.079394951 0.21749789 0.1085838
2695.311 -1540.7969 10.468976 0.89258647 0.37024814 -0.2573047 0.055258222
2675.7881 -1516.0472 -87.711777 0.99814457 -0.0098568071 0.060085129 0.092836305
2677.9275 -1541.3073 -87.171188 0.96419853 0.17005926 0.20347257 0.096867211
2685.8169 -1515.0968 -136.62622 0.97815567 -0.052093036 0.20124049 0.17263487
2675.6812 -1522.9136 -39.582195 0.94382346 0.048492808 -0.32687265 0.094137773
2688.1768 -1533.181 -6.7169871 0.92585176 0.20366302 -0.31830782 0.020827757
2679.4702 -1526.0125 -111.37597 0.97106975 0.0079067461 0.23866504 0.11356334
2673.3904 -1513.6119 -57.499874 0.98418266 -0.13717142 0.11210912 0.14460568
2698.6912 -1557.1099 -115.39071 0.74366963 0.63061208 0.22199973 0.11726698
2671.8877 -1533.0927 -60.870792 0.9843331 -0.10275282 0.1432835 0.11526877
2667.3066 -1548.6876 -63.319244 0.92214727 -0.27490252 0.27216348 0.15538622
2678.1294 -1505.0026 -107.79041 0.98321068 -0.0022787666 0.18245962 0.10539635
2681.8804 -1529.9183 -121.7419 0.94323438 -0.036341004 0.33013365 0.15779075
2674.0671 -1528.5464 -72.142517 0.97032636 -0.089222692 0.22473542 0.10483321
2682.7766 -1511.9818 -123.69701 0.93140668 0.021810953 0.36332616 0.11883486
2674.0999 -1512.2739 -74.775963 0.97845912 0.068712607 0.19466969 0.1244982
2685.3154 -1541.3796 -116.5799 0.87224048 0.42999044 0.2330337 0.19319698
2671.8677 -1542.6046 -68.721184 0.96721357 -0.12209895 0.22268765 0.13158669
2677.0662 -1510.3101 -94.820412 0.99614078 -0.075945973 0.043996729 0.10303446
2682.9172 -1530.7372 -145.93478 0.93290246 -0.3587285 0.031731959 0.18758485
2690.822 -1531.0396 2.0658655 0.9180479 0.20432244 -0.33976522 0.031963184
2674.231 -1517.0283 -47.036972 0.98026347 -0.12023968 -0.15692641 0.14903371
2675.0652 -1533.8417 -45.0616 0.94380599 0.048755579 -0.32688403 0.13075572
2681.2847 -1519.0258 -143.97188 0.86576337 0.30056584 -0.40014246 0.16387683
2677.0396 -1525.6058 -92.416107 0.99502957 0.055720154 0.082531691 0.087527245
2691.0684 -1556.9524 -90.976044 0.78829712 0.54971433 0.27640873 0.058723226
2671.9973 -1533.6744 -52.939148 0.95892996 0.031222954 -0.28191927 0.12624963
2682.1614 -1532.2473 -150.92851 0.87979078 -0.47512078 0.015113328 0.19030152
2688.1968 -1528.1743 -3.466521 0.92814612 0.18261971 -0.32433754 0.024335986
2673.6365 -1514.5493 -52.279289 0.9670862 -0.19620597 -0.16201094 0.1535037
2677.8164 -1507.8558 -98.778839 0.99169648 -0.12451021 0.032175999 0.10613115
2676.3838 -1527.5499 -97.611198 0.99836367 0.043273129 0.037382577 0.092789121
2674.7732 -1530.0081 -72.815155 0.97577989 -0.10490362 0.19196065 0.095473535
2684.8777 -1532.3115 -123.86686 0.93705219 0.20073004 0.28572822 0.16117105
2672.8115 -1550.0009 -70.684456 0.93201709 -0.0010411703 0.36241281 0.13389465
2682.0527 -1540.8015 -118.8138 0.90262711 0.34287035 0.26020038 0.24306893
2673.3125 -1515.8185 -64.374527 0.98822099 -0.066738516 0.13771427 0.13071783
2671.4729 -1539.0437 -63.914227 0.97989029 -0.090634987 0.17776486 0.12312736
2680.1062 -1537.6146 -158.72246 -0.56749541 -0.46219715 0.68141234 0.16769606
2680.3616 -1532.9891 -115.60127 0.95966494 0.0076432284 0.28104234 0.16513002
2687.8716 -1548.9783 -116.48795 0.77550662 0.63017464 -0.038332622 0.14936014
2680.115 -1507.9934 -115.96214 0.94852191 0.05473819 0.31194532 0.12301578
2672.1379 -1507.9683 -66.872574 0.96480101 0.0073931725 0.26287705 0.15345228
2681.8833 -1527.0322 -21.964127 0.9242686 0.25492984 -0.28414482 0.022416117
2672.6663 -1533.1915 -69.642014 0.97157079 -0.11170929 0.20873715 0.10918905
2680.5833 -1521.3027 -119.17822 0.92753607 -0.061257668 0.36867923 0.14033003
2676.8169 -1497.5587 -118.38495 0.92308652 0.22421804 0.31247011 0.11875676
2675.1514 -1535.5383 -117.35941 0.944121 -0.15816735 0.28916892 0.14636885
2673.7639 -1517.3702 -74.603081 0.96997881 -0.062294047 0.23507564 0.13650393
2672.2158 -1506.2531 -75.146751 0.94236714 0.24681851 0.2258867 0.135061
2674.7095 -1539.0226 -78.79615 0.96065629 -0.030550141 0.27605468 0.1181514
2679.574 -1519.5897 -118.57639 0.91377866 -0.13738054 0.38227621 0.13434191
2672.1436 -1502.5698 -75.357513 0.97105974 0.13287373 0.19846286 0.17055073
2673.4575 -1526.2557 -73.778603 0.96297771 -0.055250075 0.26385862 0.10475031
2677.624 -1538.9359 -120.35107 0.98204261 -0.062850498 0.17788219 0.20299758
2679.4087 -1497.3945 -122.05573 0.90783322 0.12467977 0.40036705 0.099718533
2674.7363 -1550.4613 -72.641464 0.89055002 0.10128056 0.44346687 0.127776
2677.3528 -1514.1135 -26.79455 0.94006819 0.16495116 -0.29843417 0.033622611
2673.0107 -1531.514 -58.313942 0.99536645 -0.080768526 0.052173994 0.11819188
2669.543 -1539.4766 -58.550426 0.99137527 -0.040930316 0.12449832 0.15572304
2678.7356 -1518.9763 -107.86897 0.98400533 0.031706721 0.17529474 0.10044224
2669.7817 -1556.9934 -59.116512 0.89522541 0.20455812 0.39588812 0.13555065
2673.7197 -1508.4497 -54.759258 0.99072754 -0.1197822 0.064118378 0.14896311
2679.9666 -1536.5511 -110.45546 0.97285378 0.14718983 0.17857963 0.12720717
2675.8494 -1500.3521 -105.3031 0.97745723 0.15999898 0.13775969 0.11439472
2676.2725 -1515.9586 -90.658333 0.99787635 0.0078321751 0.064664565 0.090137683
2695.2302 -1543.1515 6.8199415 0.89069694 0.37031063 -0.26368356 0.049568649
2677.0295 -1509.5273 -94.895752 0.98923647 0.12622038 0.07402461 0.11253235
2684.7354 -1523.693 -143.37117 0.97423208 -0.20324576 -0.097790822 0.15895194
2677.8018 -1537.907 -88.840332 0.9744606 0.11299845 0.19405632 0.091784857
2675.5588 -1527.2371 -42.146446 0.96842575 0.066707648 -0.24021171 0.11430519
2679.3125 -1515.4023 -113.1452 0.95765227 -0.061045844 0.28138155 0.1318831
2666.6125 -1550.105 -58.612656 0.95352179 -0.18772846 0.23569947 0.19470754
2671.564 -1535.1771 -62.427891 0.98617333 -0.049009643 0.15830414 0.11905801
2673.3428 -1521.8044 -66.244362 0.98263127 -0.11594598 0.1448871 0.10773993
2678.9739 -1532.7305 -111.15474 0.98446196 0.053343792 0.16729943 0.12901448
2699.2217 -1564.9781 -106.32664 -0.16057017 0.21084008 0.96424252 0.16111591
2682.8142 -1544.189 -165.86079 -0.62045997 -0.63143164 0.46510595 0.14817932
2676.8396 -1532.8459 -103.17686 0.99290895 0.096780635 0.069031246 0.10677174
2673.0754 -1531.9969 -52.01144 0.98787361 0.03993082 -0.15003757 0.13665999
2671.6057 -1543.4045 -57.424904 0.91113549 0.25988305 -0.31983265 0.21864161
2676.9778 -1513.3782 -102.06857 0.99378932 -0.041858964 0.10310476 0.09413667
2674.7515 -1522.9912 -79.045578 0.98299634 -0.034599286 0.18033601 0.11063585
2684.9348 -1510.9287 -127.18188 0.89443731 -0.13996701 0.42472473 0.12306716
2676.2742 -1546.0551 -81.215538 0.95609415 0.07253518 0.28394115 0.12520224
2680.1606 -1536.1962 -32.735481 0.93089283 0.21763341 -0.29338416 0.066234343
2682.1326 -1533.7877 -132.13116 0.96100628 -0.23525789 0.14532959 0.16207743
2675.7012 -1517.994 -83.28167 0.9963727 -0.0017991435 0.08507783 0.091012239
2677.0901 -1536.9935 -85.981781 0.97780418 0.0696619 0.1976012 0.093198523
2675.0066 -1538.4099 -136.39476 0.95871377 -0.28173181 0.038666785 0.14222288
2684.5042 -1530.4803 -136.57851 0.9566918 -0.28372025 0.065142766 0.13727276
2683.4604 -1553.7416 -36.717716 0.88407373 0.14441723 -0.44447413 0.10759977
2700.4807 -1552.7617 8.9067507 0.88270825 0.43761906 -0.17121831 0.083890356
2684.0984 -1539.6161 -110.1923 0.92534256 0.30508667 0.22508503 0.13665225
2691.1602 -1587.7535 -101.62985 0.76327622 -0.49570391 -0.41435134 0.15492135
2672.99 -1514.8959 -61.478355 0.98703039 -0.034140084 0.15686147 0.12865081
2697.5764 -1560.3102 -106.94024 0.8016538 0.58699721 -0.11307288 0.14376615
2673.1716 -1544.9679 -55.105072 0.99563199 0.027269859 -0.089293256 0.17020211
2685.2903 -1542.6467 -161.81407 -0.65334958 -0.66586602 0.36021769 0.18403067
2681.2039 -1522.953 -115.00969 0.94121468 0.10198051 0.32204798 0.11453041
2672.9885 -1532.5505 -58.376778 0.99527478 -0.074408919 0.062381692 0.11795405
2681.1382 -1533.3381 -121.88477 0.937451 -0.10100926 0.33314073 0.16457142
2682.2244 -1539.5182 -115.77325 -0.65544868 -0.67595762 -0.33685058 0.20597358
2674.4961 -1518.9833 -76.105331 0.97833139 -0.032373726 0.20449851 0.12200968
2671.4968 -1549.0859 -68.678139 0.92109549 -0.014407665 0.38907006 0.14190538
2673.2183 -1536.584 -73.7911 0.95206243 -0.1423627 0.27075824 0.11366769
2682.9983 -1517.1868 -124.23724 0.9307192 -0.086992502 0.35523808 0.14178148
2676.5718 -1531.4365 -79.994949 0.97667038 -0.058370806 0.20665866 0.098665036
2673.8154 -1554.9194 -71.126831 0.90045041 0.039984707 0.43311694 0.13640581
2689.355 -1543.4447 -127.579 0.8892765 0.36447713 0.27630368 0.19544698
2674.1614 -1540.9749 -75.286148 0.94603223 -0.02841376 0.32282451 0.12168887
2685.3003 -1528.5741 -132.39444 0.96880454 -0.072383299 0.23701976 0.14160453
2675.9949 -1516.7821 -81.399109 0.99683231 0.070840925 0.036150668 0.10497249
2691.0684 -1551.6248 -108.63728 0.7873342 0.60946047 0.093073919 0.11141367
2675.5251 -1548.6864 -59.346653 0.94132745 0.33376902 -0.050008204 0.20468412
2677.9338 -1535.7853 -162.67088 -0.28779477 -0.92484856 0.24865499 0.20977716
2678.4377 -1522.0164 -108.21307 0.98463261 -0.0036219263 0.17460096 0.10422467
2671.9985 -1527.6035 -59.542557 0.98253518 -0.14828824 0.1124064 0.10835928
2675.1641 -1537.6527 -151.02733 0.6165188 -0.74462223 0.255817 0.18542399
2696.0518 -1543.251 9.7552767 0.89598233 0.3801761 -0.22952509 0.060359608
2674.8115 -1515.1515 -38.693455 0.9610073 0.12252187 -0.24789792 0.077796713
2675.751 -1531.981 -42.283039 0.93550164 0.023691591 -0.35252714 0.1188201
2677.1667 -1545.5981 -47.663002 0.86410117 0.2344618 -0.44537264 0.14474228
2697.4709 -1546.1243 9.7032528 0.84661192 0.50406146 -0.17079304 0.062489923
2675.5803 -1513.0194 -82.227791 0.99777293 0.0056684366 0.066460691 0.10634275
2675.9453 -1531.9988 -84.007736 0.98986512 -0.022361653 0.14023893 0.09477745
2676.4595 -1539.5953 -136.86171 0.83801705 -0.54360533 0.047123928 0.1560939
2679.26 -1545.1978 -37.296188 0.92192632 0.10480683 -0.37291744 0.099242732
2686.5945 -1528.8822 -136.45793 0.97346586 -0.22640321 0.033253551 0.13241318
2695.77 -1542.5416 11.844678 0.84661192 0.50406146 -0.17079304 0.062489923
2681.479 -1544.9441 -34.485817 0.93017 0.19424464 -0.31153291 0.089307249
2673.0537 -1507.6224 -81.32563 0.97273195 0.20551233 0.10750449 0.12918581
2685.9922 -1520.7858 -133.84383 0.96057147 -0.068422154 0.26948255 0.14463264
2675.343 -1528.9795 -83.081223 0.99196786 -0.030993594 0.12263421 0.096961908
2673.3428 -1508.197 -79.86187 0.96765083 0.2047409 0.14742124 0.14238492
2686.7112 -1524.7592 -134.14429 0.98493195 -0.019303916 0.17186159 0.12512767
2673.3196 -1532.6466 -63.199654 0.98299259 -0.13742532 0.12181883 0.11283723
2670.7261 -1546.0829 -64.832504 0.96843308 -0.11054477 0.22342172 0.15278628
2679.3596 -1519.9985 -112.16635 0.96787357 -0.0021734713 0.25142795 0.12090278
2673.1653 -1514.3466 -60.927338 0.98967177 0.050189938 0.13427868 0.12034084
2677.9751 -1538.0171 -118.08949 -0.60791427 -0.79122162 0.066397481 0.2164754
2683.374 -1538.1366 -114.28461 0.90421933 0.32885718 0.27247089 0.15825541
2680.573 -1522.8032 -112.84805 0.95419914 0.11925502 0.27437615 0.10760042
2684.1819 -1540.4614 -109.87744 0.91313398 0.34950101 0.209846 0.12764353
2710.1375 -1574.4524 -107.61837 0.8110348 0.57583362 0.10314184 0.25055167
2679.0598 -1536.7349 -158.31976 0.91809887 -0.061770488 -0.39150849 0.19462299
2684.6704 -1526.9553 -146.42296 0.96033692 -0.17331399 -0.21843819 0.14405125
2677.5842 -1521.7808 -97.719894 0.99511158 0.060870826 0.077766873 0.088208005
2699.3191 -1564.9861 -100.44265 0.83196068 0.44890499 0.32607624 0.14709963
2674.8833 -1535.0586 -44.92572 0.96750563 0.013774523 -0.25247398 0.13786656
2674.5923 -1513.4342 -75.340836 0.98237824 0.057574917 0.17781474 0.11846559
2683.1665 -1520.0562 -125.55668 0.93381852 -0.044939164 0.35491329 0.14273754
2683.7275 -1540.004 -128.68053 0.98332489 -0.0022701467 0.1818434 0.20010453
2676.4519 -1548.9722 -78.81736 0.92566484 0.056936663 0.37403581 0.12376517
2675.3342 -1532.3997 -77.736481 0.96404856 -0.086826824 0.25114036 0.10103897
2674.8457 -1529.9918 -80.030769 0.97933584 -0.052128196 0.19540726 0.10423484
2677.0784 -1547.0291 -80.322098 0.93424582 0.17861265 0.3086783 0.13704781
2678.874 -1539.3905 -133.05121 0.87873369 -0.47563672 0.039960541 0.15656537
2675.1482 -1514.189 -78.625481 0.99548399 0.027446266 0.090875149 0.11954275
2683.29 -1519.6665 -128.19156 0.93958384 -0.1183749 0.32120028 0.15819377
2697.3403 -1544.2019 14.729582 0.84661192 0.50406146 -0.17079304 0.062489923
2680.6794 -1536.8096 -104.92044 0.9568429 0.26813787 0.1120436 0.10999717
2673.136 -1545.9973 -55.012043 0.99590147 0.020061076 -0.088191725 0.18259291
2672.6848 -1528.7533 -52.856136 0.99631029 -0.074139126 -0.04323452 0.13919887
2678.1086 -1516.9921 -101.98766 0.99100375 0.072206177 0.1126845 0.084307462
2672.845 -1539.0441 -59.043289 0.99958903 0.020458071 0.020079913 0.13376856
2693.0544 -1546.4254 -6.746944 0.88595021 0.3985948 -0.23709582 0.027880847
2673.3374 -1523.3793 -56.348618 0.99218941 -0.10876006 0.061085328 0.12423743
2673.2922 -1550.9517 -61.148296 0.96894127 0.19192877 0.15593624 0.19195148
2681.5686 -1540.1276 -105.21608 0.91385698 0.37453729 0.15680331 0.11328839
2673.1401 -1522.3276 -57.450264 0.9864192 -0.13647248 0.091391347 0.11912635
2672.1025 -1541.0219 -56.379025 0.9972434 -0.004273905 -0.074076653 0.1583214
2681.0767 -1534.9275 -151.22736 0.80621403 -0.5220027 -0.27844596 0.15906635
2677.9272 -1516.0878 -105.53068 0.99269044 -0.022195546 0.11862975 0.10060716
2691.1963 -1542.2388 -4.7361088 0.91436446 0.27166235 -0.30022866 0.030413732
2675.3257 -1538.0249 -44.791019 0.95458978 0.035330784 -0.2958211 0.14281382
2683.7617 -1520.746 -146.00447 0.98130268 -0.047591317 -0.18649431 0.16319099
2679.9966 -1539.5157 -95.426331 0.97606897 0.16761073 0.13854983 0.098308481
2694.0977 -1541.6921 5.1372628 0.88632309 0.38433501 -0.25829828 0.04446936
2681.7502 -1532.576 -144.70782 0.76399672 -0.64381748 -0.042521607 0.16245106
2677.98 -1520.0995 -98.108208 0.98977363 0.096546605 0.105009 0.086544275
2673.8547 -1521.9033 -47.333012 0.99152988 -0.018634554 -0.12853482 0.15004452
2670.0251 -1544.3248 -65.966599 0.92731196 -0.030049305 0.37308127 0.13600938
2673.22 -1528.0162 -70.949921 0.97254819 -0.071951032 0.22129869 0.10863787
2680.2678 -1540.9204 -116.62865 0.96927875 0.10191768 0.22385597 0.20896398
2679.8318 -1519.9012 -117.23251 0.9199906 -0.12136286 0.37267724 0.13810711
2687.7068 -1522.3627 -137.98528 0.9800936 -0.060682692 0.18903491 0.14766796
2686.1694 -1537.52 -125.62128 -0.54288226 -0.7462005 -0.38530988 0.2220912
2687.5454 -1538.9395 -133.55589 0.98944795 0.12469357 0.073785141 0.153174
2682.9785 -1537.006 -25.99284 0.91691053 0.25456598 -0.30736175 0.033327751
2680.9531 -1532.9742 -139.0058 0.87143999 -0.47853813 0.10767335 0.15456372
2675.511 -1520.9518 -39.157684 0.95166385 0.08983165 -0.29371113 0.085131675
2674.3721 -1530.228 -84.197334 0.98171973 -0.023886273 0.18882734 0.096803077
2675.8643 -1511.0405 -86.852859 0.9985835 -0.014124349 0.051298145 0.096010171
2687.0813 -1511.3792 -137.28593 0.95497513 -0.18598481 0.23115388 0.19511288
2695.2571 -1541.1378 9.7907257 0.89258647 0.37024814 -0.2573047 0.055258222
2675.5078 -1521.9967 -80.367226 0.99451578 -0.00092946971 0.10458254 0.099827252
2675.8948 -1539.9784 -81.754669 0.96415007 0.023272719 0.26433516 0.10709814
2682.9072 -1531.9564 -132.63562 0.95820719 -0.2443229 0.14881285 0.16480048
2682.8762 -1527.0758 -125.69215 0.94032556 -0.08142288 0.3303909 0.14940159
2674.7749 -1528.8356 -77.5383 0.96946281 -0.071638018 0.23454168 0.10712211
2687.1011 -1520.5968 -133.21033 0.96941966 0.044855446 0.2412748 0.11735425
2675.5879 -1515.3883 -80.507164 0.99630755 0.052192196 0.068170801 0.10294264
2685.7754 -1539.3629 -121.45763 0.83654338 0.44906583 0.31390291 0.22154403
2672.9355 -1542.0625 -73.065727 0.9527055 -0.020299511 0.30321637 0.1256725
2672.0151 -1506.8212 -41.198772 0.96702564 0.17032325 -0.18934478 0.10028153
2677.6624 -1504.1791 -90.955322 0.99389309 -0.10706519 0.026712699 0.10889496
2685.3467 -1504.3373 -141.12888 0.95527649 0.22596502 0.19075276 0.13913786
2676.4458 -1522.9746 -37.119534 0.96441483 0.054847464 -0.25864223 0.078756355
2675.0781 -1531.1504 -84.445808 0.99023247 -0.036501635 0.13456336 0.096852928
2674.8191 -1512.009 -83.016914 0.9944157 0.049914513 0.092983909 0.10756977
2684.2827 -1525.3569 -136.24612 0.92816395 -0.34758365 0.13303107 0.15132765
2681.4104 -1549.6538 -36.685585 0.92558706 0.16858646 -0.33892071 0.09559337
2700.0801 -1551.4561 10.178428 0.88270825 0.43761906 -0.17121831 0.083890356
2680.3818 -1550.1506 -82.244377 0.9069643 0.22100593 0.35856959 0.10626793
2681.1851 -1534.1613 -131.48409 0.95686573 -0.2655054 0.11796127 0.15584573
2675.7524 -1511.4414 -79.224091 0.98828942 0.11630838 0.098774195 0.12476698
2674.7244 -1524.0424 -79.883888 0.98575962 -0.057582222 0.15799455 0.10680259
2685.9834 -1520.0747 -132.67073 0.96347117 0.011953616 0.26754513 0.12635455
2695.9978 -1543.4252 9.2567158 0.89598233 0.3801761 -0.22952509 0.060359608
2686.3662 -1522.2665 -137.14615 0.97204763 -0.12655878 0.19775303 0.14398769
2697.2788 -1569.1981 -93.374428 0.82107747 0.39524248 0.41184363 0.16486658
2678.375 -1540.3511 -37.993359 0.92650175 0.12391043 -0.35530367 0.08725211
2676.1355 -1527.0005 -84.982681 0.99192482 -0.0039389813 0.12676585 0.085706361
2675.7954 -1511.271 -83.279335 0.99854428 0.037556242 0.03871572 0.10429134
2675.9031 -1517.1342 -36.749538 0.96805274 0.11837535 -0.22104561 0.064759739
2673.2456 -1536.5839 -72.75573 0.95427966 -0.14419843 0.26183417 0.11365451
2678.4031 -1539.5791 -120.42249 0.95372087 -0.12142039 0.27508831 0.20143335
2684.0361 -1531.6674 -123.40992 0.93054157 0.15666373 0.33098164 0.1677095
2673.0276 -1516.9606 -69.234589 0.97136199 -0.039441921 0.23430789 0.12874623
2686.5095 -1516.007 -140.75575 0.99328828 0.0010626899 0.11566021 0.19024859
2676.7986 -1516.3707 -89.482986 0.99644446 0.051304366 0.066830687 0.091734856
2680.9143 -1543.1174 -90.233864 0.95038378 0.20881319 0.23058131 0.093907304
2673.5303 -1512.3829 -60.998524 0.97524345 -0.17910206 0.12970234 0.14627834
2680.1606 -1513.9989 -114.94186 0.94026333 0.0065093692 0.34038579 0.12080857
2681.177 -1534.7653 -112.72167 0.9553178 0.19059499 0.2259236 0.14934729
2671.127 -1531.7697 -60.091427 0.98632836 -0.10651656 0.12574017 0.11838035
2673.5225 -1539.257 -51.404282 0.89534891 0.16388585 -0.41411564 0.12887827
2695.3867 -1548.2549 0.18152227 0.89069694 0.37031063 -0.26368356 0.049568649
2673.3557 -1520.405 -47.790039 0.94599807 -0.071549527 -0.31617767 0.13359186
2676.3757 -1524.7428 -97.533272 0.99890447 0.022587074 0.040983472 0.096497193
2677.5759 -1507.6595 -96.742653 0.99203449 -0.11735073 0.04578609 0.10487958
2684.4165 -1537.3698 -117.85697 0.92418671 0.22672476 0.30736762 0.16906144
2698.7988 -1558.1941 -114.06014 0.70327848 0.67907763 0.21036382 0.12718605
2682.1235 -1517.2626 -120.28165 0.94749463 0.064168081 0.31326732 0.11615514
2682.0493 -1531.7832 -143.51753 0.85530376 -0.50014335 0.1353225 0.17384709
2702.5364 -1554.2397 15.084665 0.87673873 0.45352292 -0.16014414 0.11282354
2678.1321 -1525.8457 -33.322765 0.95351452 0.13000689 -0.27186075 0.05511798
2679.4014 -1529.6815 -30.476126 0.92566222 0.21034089 -0.31449357 0.051532973
2674.3269 -1538.1837 -80.634277 0.96813154 -0.033378854 0.24820784 0.11211558
2675.0601 -1517.03 -82.098579 0.99404186 0.031763107 0.10426807 0.10166613
2685.4846 -1518.9834 -132.71419 0.96195418 -0.0063692429 0.27313656 0.13162728
2686.3672 -1522.1522 -131.96497 0.96315962 0.013784884 0.26857689 0.12762772
2676.9624 -1549.1835 -80.092453 0.93948138 0.056744769 0.33786792 0.12511133
2681.5916 -1533.3265 -128.62309 0.94621503 -0.22447221 0.23300073 0.16009055
2673.1777 -1508.1926 -77.930534 0.93679827 0.26258919 0.23120537 0.13001844
2675.0029 -1525.8865 -78.610733 0.97918785 -0.037100717 0.19953632 0.10812538
2684.1138 -1508.1476 -128.76585 0.92412311 0.072278291 0.3751964 0.11677978
2672.6948 -1540.9801 -70.769379 0.95134115 -0.15387572 0.26696873 0.11952199
2685.7998 -1530.2501 -127.57979 0.94397831 0.14390722 0.29697749 0.15205757
2675.1201 -1527.444 -73.550491 0.98322743 -0.06156718 0.17167802 0.094366387
2675.5969 -1513.7452 -76.289467 0.99157816 0.064807974 0.11212789 0.11234831
2685.4192 -1538.5049 -121.40328 0.87756056 0.30615112 0.36899722 0.2003939
2672.8179 -1501.2621 -85.524117 0.98379534 0.15067799 0.097174563 0.14910029
2685.0122 -1505.999 -137.99733 0.97377121 0.080543518 0.21279661 0.1600014
2683.4265 -1527.7253 -138.07649 0.89541405 -0.42891312 0.11944539 0.14781439
2673.9316 -1511.6304 -38.475925 0.95462835 0.18267383 -0.23519139 0.077240117
2675.0374 -1525.2954 -84.115936 0.99134213 -0.041612014 0.12453593 0.097548656
2674.5002 -1503.4332 -82.257126 0.99379027 0.095687665 0.056787539 0.11753093
2686.4048 -1552.6829 -87.526451 0.84533471 0.39570928 0.35891983 0.077372409
2675.7722 -1520.9987 -83.922401 0.99498677 0.0017372455 0.099991404 0.08737129
2685.5986 -1514.0726 -134.36523 0.96646458 0.050104003 0.2518647 0.13295802
2677.5618 -1533.0897 -36.521275 0.9471522 0.059128325 -0.31528813 0.089925714
2683.7012 -1519.9664 -126.47522 0.93883097 -0.024271416 0.34352192 0.13695233
2672.9224 -1508.7957 -74.803696 0.96362776 0.18801282 0.18992807 0.13245007
2681.5044 -1552.8007 -80.631493 0.88725483 0.20323065 0.41409677 0.13085841
2678.4412 -1498.9691 -125.1071 0.8669014 0.32831815 0.37508556 0.11482939
2699.6858 -1547.1971 19.422709 0.87673873 0.45352292 -0.16014414 0.11282354
2680.4636 -1531.9545 -125.22659 0.95888329 -0.16348243 0.23198336 0.16560535
2674.7163 -1527.8657 -76.607849 0.9647975 -0.056750648 0.25679788 0.10674688
2683.1921 -1527.2328 -136.19427 0.91605484 -0.38878345 0.098442532 0.16027457
2686.1621 -1512.999 -135.92247 0.95329422 0.13927557 0.26801583 0.13454427
2675.6941 -1517.9958 -83.196899 0.9963727 -0.0017991435 0.08507783 0.091012239
2678.5654 -1541.3365 -86.821289 0.96819496 0.094862267 0.23151591 0.087988406
2680.6003 -1533.3485 -109.57355 0.96304709 0.13986413 0.23017028 0.13203304
2679.8391 -1517.1924 -112.88589 0.96125084 0.058507644 0.26939496 0.11569056
2708.4988 -1567.2433 -109.32972 0.49420625 0.40929946 0.76696426 0.1958378
2672.9109 -1533.4856 -59.426502 0.99403262 -0.08397375 0.069624759 0.11942843
2680.0791 -1532.3292 -150.97487 0.62794578 -0.64352381 0.437677 0.17037599
2677.698 -1506.3513 -116.32684 0.88340539 0.41323534 0.22097838 0.11589608
2672.7444 -1545.0013 -56.077484 0.99901474 -0.00074590661 -0.044373047 0.18174429
2673.9937 -1517.4479 -62.990509 0.98715413 -0.077789143 0.13955505 0.10887663
2678.8203 -1526.0046 -106.8641 0.98653805 -0.0055632815 0.16343731 0.098490961
2708.0227 -1569.6655 -108.18916 0.71818322 0.66189378 0.21473114 0.19761975
2672.6255 -1527.9615 -55.003162 0.99472445 -0.10223826 0.0084037753 0.1314413
2672.4612 -1542.1843 -55.289898 0.96112192 0.092653759 -0.26011521 0.16012144
2678.1648 -1503.9935 -108.76995 0.98103249 0.0054700058 0.19376621 0.1117018
2672.0691 -1510.6842 -58.041077 0.9786455 0.11288849 0.1717824 0.1231984
2672.3213 -1511.527 -57.883358 0.98398888 0.091304772 0.15306658 0.12541723
2670.4431 -1537.5096 -61.552155 0.97939092 -0.067065425 0.19051421 0.12997313
2672.7593 -1528.4777 -60.440521 0.987266 -0.121607 0.10255499 0.11183429
2682.5112 -1532.4209 -154.05913 0.64303958 -0.76187211 0.07778804 0.1977994
2695.0039 -1540.5835 9.7105865 0.89258647 0.37024814 -0.2573047 0.055258222
2676.0146 -1535.943 -41.110497 0.95820576 -0.018286096 -0.28549486 0.12002444
2674.9089 -1517.2004 -38.723545 0.95434856 0.17530592 -0.24184009 0.07316719
2684.4712 -1543.9502 -118.46419 0.75239426 0.65025729 -0.10520631 0.18220028
2672.6277 -1538.0093 -70.391205 0.95299715 -0.1757583 0.24679041 0.1200542
2674.7009 -1511.2737 -76.484314 0.97858775 0.13404082 0.15620206 0.11953396
2683.0823 -1528.6942 -124.53819 0.95272571 -0.059244994 0.29799968 0.15072113
2668.8767 -1551.9517 -67.645912 0.90388751 -0.22980687 0.3607994 0.12879983
2673.8809 -1523.7815 -72.974945 0.97182065 -0.051564109 0.2300126 0.1108415
2687.2158 -1541.7844 -119.81326 0.79359728 0.43537885 0.42502773 0.19572677
2684.1311 -1512.4408 -127.87632 0.92979777 0.084172398 0.35831711 0.11525613
2676.6035 -1538.7714 -131.78723 0.94636363 -0.30759102 0.098912627 0.15515871
2699.6985 -1549.0278 13.732362 0.85988671 0.49217233 -0.13550347 0.085134551
2685.322 -1530.1425 -133.53606 0.97474134 -0.10886747 0.19500552 0.1468292
2676.1633 -1536.8281 -81.920708 0.97147113 -0.043508276 0.23313268 0.10407501
2686.1255 -1551.8168 -34.237183 0.85892826 0.37425792 -0.34953287 0.043278739
2675.3472 -1517.0472 -79.527687 0.99357927 0.010099297 0.11268644 0.10687745
2684.0503 -1529.424 -16.61537 0.92489141 0.25985003 -0.27758566 0.021758851
2680.5129 -1515.0154 -115.81212 0.93860918 -0.028218804 0.34382629 0.12475167
2673.2097 -1513.6827 -62.259842 0.9542895 -0.25075108 0.16265139 0.14626022
2679.9758 -1534.4877 -113.90075 0.97155929 0.10003166 0.21463037 0.15741265
2670.9958 -1533.6465 -61.02314 0.98626912 -0.091147751 0.13771465 0.12035295
2681.1958 -1542.0778 -113.4637 -0.68427819 -0.72867018 0.028340677 0.15472998
2680.5308 -1524.0531 -114.8705 0.946154 0.0091949692 0.32358629 0.13126248
2711.96 -1569.7546 -104.66239 -0.01126709 0.34956345 0.93684494 0.22696663
2687.6536 -1544.7054 -110.82231 0.87034869 0.44356757 0.21387132 0.13203302
2679.0559 -1517.035 -108.18412 0.98085928 0.036420256 0.19128166 0.10096364
2673.1636 -1514.7622 -56.13905 0.96491152 -0.26224312 -0.013201234 0.14808796
2680.9841 -1537.3799 -106.73393 0.94675416 0.29587251 0.12694873 0.12652151
2671.9907 -1536.1085 -55.360786 0.99716252 -0.021688247 -0.072087057 0.12788738
2686.8489 -1531.375 -8.9740658 0.9264679 0.20326661 -0.31676486 0.020397803
2700.1985 -1570.3005 -104.03406 0.094650924 0.33370131 0.93791503 0.20213474
