# .PCD v0.7 - Point Cloud Data file format
VERSION 0.7
FIELDS x y z normal_x normal_y normal_z curvature
SIZE 4 4 4 4 4 4 4
TYPE F F F F F F F
COUNT 1 1 1 1 1 1 1
WIDTH 464
HEIGHT 1
VIEWPOINT 0 0 0 1 0 0 0
POINTS 464
DATA ascii
2859.1968 416.32776 -78.654343 0.73157293 -0.64013803 0.2345728 0.13699308
2878.6575 437.64337 -81.365341 0.74195957 -0.60727596 0.28409851 0.10729732
2889.0122 450.54245 -79.266327 0.63460618 -0.69099694 0.34611872 0.089812025
2877.323 445.04172 -122.48501 0.28797036 -0.85443836 -0.43244439 0.060152996
2870.3123 432.53345 -71.196594 0.81593335 -0.46670669 0.34122965 0.13323157
2858.7488 417.49725 -71.353584 0.73026496 -0.62756711 0.26994917 0.12282379
2884.6995 450.52106 -72.113075 0.70192099 -0.61083466 0.36631671 0.088557079
2859.0251 407.35968 -74.602539 0.6462298 -0.51259977 0.56535697 0.15400928
2857.6221 333.23349 -23.42832 0.85006529 0.38217086 -0.36240101 0.13341342
2853.3069 348.25641 -21.861179 0.87814349 0.22531338 -0.42201641 0.12583928
2884.8765 442.12387 -99.031891 0.70705587 -0.70712084 0.0072193146 0.13033243
2855.0007 409.60724 -50.899567 0.72752464 -0.6562255 -0.20018986 0.16112792
2880.03 437.4202 -97.953941 0.63123417 -0.7754519 -0.014758095 0.13010837
2836.2395 372.73724 -51.2085 0.93423498 -0.075771563 -0.34851632 0.10165504
2852.4465 328.87509 -48.065105 0.77813745 0.53401339 -0.33065358 0.10748839
2835.9663 359.08704 -50.411148 0.91701871 0.082607128 -0.39019579 0.074850269
2837.1865 385.70868 -52.917793 0.91336006 -0.22740455 -0.33772862 0.097203314
2837.9299 345.59106 -52.385555 0.90027249 0.24154864 -0.36216521 0.083820984
2895.6826 453.29092 -88.164726 0.68838614 -0.63119453 0.35737652 0.084513716
2872.5645 430.60822 -85.858345 0.78694659 -0.58478308 0.19683433 0.1311772
2825.3215 360.12961 -71.622574 0.89617944 0.015865406 -0.44340801 0.074659906
2828.0417 373.0863 -70.458031 0.96042109 -0.097055666 -0.26109675 0.083567068
2866.2239 320.883 -26.471966 0.75333929 0.63789976 -0.15988681 0.18225411
2827.8154 332.77643 -71.703232 0.80494314 0.16380057 -0.57029462 0.11301139
2827.0889 346.15619 -69.667999 0.84609556 0.12136489 -0.51903075 0.083063573
2831.9424 387.01807 -69.40493 0.9438765 -0.26946291 -0.19101538 0.093281858
2841.3208 400.72806 -68.090363 0.82846463 -0.5599162 -0.011843614 0.10499297
2855.135 415.77356 -66.807228 0.73451602 -0.62574869 0.26253527 0.11219463
2886.5508 446.10303 -118.81963 0.25753212 -0.88701355 -0.38325471 0.056375187
2870.8396 435.82278 -67.441765 0.82027584 -0.46511784 0.33288574 0.11985116
2890.823 457.17526 -69.067497 0.68588239 -0.679093 0.26153019 0.096827775
2837.7212 380.36984 -47.763954 0.90490836 -0.16914633 -0.39055139 0.088188335
2837.1296 355.4938 -47.591057 0.91999644 0.15052797 -0.36186719 0.078433089
2841.8728 342.87601 -46.273647 0.89374238 0.28549159 -0.34600443 0.095675804
2851.5024 333.71936 -44.727661 0.74823773 0.65812558 -0.083731867 0.099681735
2882.436 440.41486 -93.231903 0.73713267 -0.66684997 0.10930038 0.11014789
2836.2012 368.15637 -47.69804 0.92774802 0.015766939 -0.37287402 0.078365989
2875.5588 436.1629 -102.07452 0.25303599 -0.90646935 -0.33806226 0.12483707
2860.1765 425.05206 -98.684517 0.47570738 -0.85122019 -0.22164533 0.13520171
2874.5037 433.08023 -100.00112 0.65092474 -0.75914222 -0.00029243974 0.14232907
2833.074 385.25244 -65.695801 0.91970414 -0.2507183 -0.30213344 0.13284956
2830.7263 371.12277 -65.553642 0.93983728 -0.090608574 -0.32938734 0.10239331
2830.6738 342.14328 -67.371231 0.86110163 0.18308404 -0.474325 0.098148733
2829.7388 356.78741 -63.858059 0.85803783 0.034672361 -0.51241481 0.079647988
2863.1365 427.23172 -63.365883 0.8002916 -0.49144632 0.34353146 0.13143037
2867.6033 434.92239 -116.04808 0.52592671 -0.82375377 -0.21173288 0.092344835
2852.9702 412.5177 -64.814079 0.73352551 -0.64337623 0.21910578 0.11160583
2838.4421 396.34506 -66.648087 0.85172468 -0.50904286 -0.12425964 0.1233745
2885.6555 444.68668 -116.14373 0.30968857 -0.84926081 -0.42760849 0.052705538
2859.6074 421.6319 -65.469536 0.74397027 -0.6044246 0.28491953 0.12427062
2842.8469 402.90369 -66.541283 0.82268173 -0.5668996 0.04265641 0.0949241
2835.8145 392.99365 -67.724792 0.91427279 -0.38100031 -0.13763735 0.11015693
2829.7 337.6723 -69.082344 0.83520758 0.20846429 -0.50889188 0.10118914
2828.5432 351.23752 -66.784752 0.88311327 0.13590823 -0.4490433 0.086835712
2828.5371 365.1344 -67.266823 0.94083947 0.035745323 -0.33696201 0.095571898
2831.2446 379.3815 -66.724464 0.95950472 -0.18290171 -0.21423726 0.088595733
2893.0962 450.66708 -99.134247 0.75127983 -0.65785408 0.052976992 0.12148549
2867.6636 428.12625 -97.094437 0.60257518 -0.79344106 -0.085758165 0.14985302
2880.6121 450.57037 -126.17764 0.12221618 -0.80965769 -0.57403624 0.052632317
2827.3992 329.62305 -71.588661 0.72386378 0.075777411 -0.6857689 0.12043703
2819.855 370.76224 -78.839294 0.80417776 -0.049600698 -0.59231567 0.07670024
2827.6016 386.84296 -76.256432 0.89449972 -0.23349352 -0.38124928 0.081110887
2816.0713 357.00735 -75.103065 -0.56798989 -0.058546964 0.82095051 0.052863788
2824.0725 343.81799 -72.3675 0.74279243 0.046181373 -0.66792721 0.072064288
2838.8962 372.70453 -45.337276 0.90402198 -0.092231102 -0.41741782 0.090874046
2882.6611 438.90698 -92.291527 0.79204035 -0.57962042 0.1916045 0.13145652
2841.4639 345.91733 -45.237179 0.90992808 0.26990432 -0.31493261 0.085337609
2838.6533 358.47003 -45.075764 0.90939182 0.091858685 -0.4056704 0.076733872
2852.5706 332.17633 -43.412689 0.78324622 0.58665597 -0.20581575 0.12261266
2838.5156 384.70041 -47.889225 0.88335991 -0.23854816 -0.40344778 0.085069925
2873.3411 440.42865 -66.386086 0.75242651 -0.48941556 0.44082507 0.11549681
2860.6831 421.82288 -65.192436 0.76261979 -0.53339219 0.36592868 0.12435252
2859.6021 412.00018 -69.593262 0.75548702 -0.41990405 0.50291145 0.13485122
2888.2051 455.79462 -65.919594 0.68079728 -0.68207049 0.26701114 0.089723818
2850.8132 347.70078 -24.614353 0.8154605 0.14985898 -0.55907643 0.091146126
2873.021 439.5769 -115.69916 0.29102898 -0.92489892 -0.24467134 0.087206118
2853.4299 336.53479 -26.462469 0.79378593 0.37764114 -0.47675049 0.11252537
2851.2454 361.02789 -22.888798 0.81383681 0.018225733 -0.58080757 0.078750551
2867.1824 319.65164 -22.401291 0.79081613 0.58662528 0.17458716 0.20305923
2840.1382 354.49884 -43.357872 0.90815884 0.14435938 -0.39294767 0.072646223
2845.3496 340.82974 -42.890377 0.88794011 0.3135803 -0.33649629 0.11020792
2892.5911 450.12918 -91.684837 0.83277833 -0.46412361 0.30177727 0.098584414
2839.0222 368.07004 -43.690269 0.9217881 0.016050806 -0.38736162 0.078023791
2838.2583 379.55392 -45.577145 0.90599585 -0.15864219 -0.39243361 0.086730123
2872.8728 426.44531 -87.713593 0.81334245 -0.51694584 0.26691025 0.15462543
2850.1326 400.215 -42.06456 0.77283531 -0.50283694 -0.38714409 0.12992786
2900.2576 457.86792 -87.65593 0.66721618 -0.63010913 0.39722168 0.08266253
2858.9834 323.71417 -38.358646 0.81465948 0.47758427 -0.32900327 0.142057
2855.5225 337.52179 -22.468397 0.73474002 0.28407326 -0.61600286 0.11503091
2862.8625 327.3284 -20.228157 0.74040538 0.57488626 -0.34828955 0.16672613
2856.2446 363.97449 -18.26161 -0.70221817 0.014397288 0.71181625 0.0767354
2853.4629 349.63971 -20.731617 0.76256949 0.10930227 -0.63760549 0.096075922
2850.6812 381.57376 -28.320538 0.77122474 -0.19553214 -0.60578841 0.10835733
2900.3154 451.7821 -123.56745 0.22862105 -0.88243437 -0.41114718 0.074602753
2877.03 439.97845 -72.984077 0.74621803 -0.53547806 0.39550212 0.10445359
2851.8042 340.12878 -28.569822 0.82328016 0.33138368 -0.46086296 0.10426445
2863.74 421.82715 -72.210403 0.77608526 -0.52312624 0.35217983 0.14119451
2847.2334 352.44662 -28.971914 0.84787577 0.11712017 -0.51709718 0.085170761
2844.2358 365.93997 -31.565252 0.84572196 -0.0070154597 -0.53357768 0.068644233
2884.0435 449.96902 -70.719704 0.67428839 -0.67260396 0.30485916 0.087196663
2865.9636 322.10574 -28.941626 0.85053539 0.49951419 0.1645453 0.20181061
2879.0244 444.80792 -69.869659 0.73011678 -0.60917467 0.30957335 0.083630256
2871.4954 433.68631 -70.760727 0.78225851 -0.4953216 0.37779382 0.1343338
2858.2852 416.94095 -70.553398 0.7454161 -0.61422026 0.25901422 0.11492908
2880.3931 443.92206 -118.53094 0.31091502 -0.85262567 -0.41995391 0.051683176
2845.2756 373.01929 -29.69688 0.79804432 -0.076166444 -0.59776574 0.068383433
2849.1875 348.15991 -26.584339 0.83540529 0.13481705 -0.53284371 0.086022817
2857.7917 334.90457 -21.879927 0.80522251 0.36891705 -0.46423799 0.13317439
2845.6294 360.10526 -28.949501 0.8108514 0.0088634184 -0.58518499 0.072171807
2844.7891 380.19574 -35.451023 0.82661337 -0.17546101 -0.53471839 0.088813521
2877.5891 429.48459 -85.514519 0.8322137 -0.50187838 0.23566596 0.16336043
2847.8499 393.1683 -36.203804 0.79580647 -0.30055535 -0.52569813 0.08797022
2845.1577 367.00296 -32.480118 0.85097414 -0.0030040843 -0.52519906 0.09000507
2845.0569 353.16681 -33.560936 0.87483782 0.13807595 -0.46432087 0.082272142
2879.3521 441.20215 -77.937485 0.70213765 -0.64920157 0.29247239 0.076515384
2881.4966 438.80609 -83.836075 0.80206364 -0.49976206 0.32700434 0.11598134
2865.8657 429.69391 -65.983719 0.76951689 -0.31529129 0.55536938 0.1356446
2845.2935 405.70645 -62.488407 0.79022616 -0.60618645 -0.089892216 0.097350493
2873.2766 441.19971 -62.243061 0.75900018 -0.60019618 0.25235555 0.08804372
2855.2776 345.79269 -19.822159 0.73866391 0.13688798 -0.66002822 0.10561226
2840.3242 395.89206 -61.590889 0.86291087 -0.45935151 -0.21066816 0.12940212
2860.4036 333.78052 -18.009315 0.78515428 0.41072708 -0.46350408 0.15030223
2842.1069 360.16858 -38.066242 0.88998276 0.071214676 -0.45039886 0.085616536
2842.4368 373.80872 -38.767071 0.87611866 -0.11665469 -0.46776891 0.097448952
2842.0947 386.01682 -41.573193 0.86652589 -0.24221936 -0.43642032 0.088467211
2870.4709 423.45795 -85.665428 0.80811912 -0.5517717 0.20613459 0.16209887
2877.833 434.88272 -84.418228 0.76682425 -0.58004487 0.27482462 0.1217642
2845.2349 346.62561 -37.951782 0.89096558 0.24940945 -0.37944075 0.093037285
2875.9385 430.61902 -87.310547 0.79599041 -0.56914109 0.20610106 0.14324412
2851.3572 400.2872 -37.720722 0.80116862 -0.42081851 -0.42548868 0.13029261
2845.6702 384.8287 -37.394344 0.84167343 -0.21514738 -0.49527514 0.10620627
2857.2051 409.31003 -42.259682 0.54868698 -0.70520878 -0.44902474 0.092240781
2843.2329 370.98196 -36.131638 0.86863357 -0.067309566 -0.49086168 0.086511053
2838.3936 364.07117 -45.610512 0.91495222 0.046725158 -0.40084809 0.080123588
2837.1995 376.06079 -47.943867 0.93575537 -0.10718702 -0.33596554 0.094458491
2885.7048 443.21161 -94.856285 0.77644062 -0.61755556 0.12555897 0.13161863
2840.2595 389.76602 -48.862865 0.86498398 -0.30870417 -0.39560643 0.095111094
2846.4968 403.86246 -48.598675 0.79921776 -0.50897831 -0.31967497 0.068938456
2892.3267 456.58972 -76.400085 0.68678766 -0.60149509 0.40807649 0.082283087
2867.5164 424.28104 -75.205116 0.81176484 -0.47171134 0.34427646 0.14821441
2854.2073 340.6756 -24.553848 0.85296559 0.29187483 -0.43273407 0.11227795
2848.645 370.02664 -27.765486 0.8327713 -0.06252563 -0.55007499 0.094723739
2875.2585 437.33264 -73.882568 0.74747491 -0.551826 0.36982337 0.10741986
2848.9041 382.31027 -30.029842 0.80453777 -0.1910719 -0.56232595 0.099663913
2847.4719 356.04599 -28.286932 0.8515262 0.082994521 -0.51770169 0.078383341
2878.9695 444.36404 -71.169983 0.74885023 -0.50304252 0.43147609 0.10058315
2851.1782 377.77499 -25.956905 0.76781887 -0.14665455 -0.62365586 0.082790226
2849.0325 363.99927 -26.02313 0.81495279 -0.018393209 -0.57923537 0.080642022
2867.7229 427.64072 -70.717377 0.79881293 -0.40073624 0.44867402 0.13632458
2852.334 337.66946 -28.976259 0.80017543 0.40046138 -0.44648626 0.11121652
2851.6396 349.33307 -24.096607 0.85742795 0.17016974 -0.4856537 0.10507179
2854.5793 392.15771 -27.194935 0.73906702 -0.24134341 -0.62891442 0.085804269
2850.5388 338.39359 -34.37569 0.85915083 0.35654575 -0.36706269 0.11194173
2846.3796 391.7359 -37.679161 0.77971935 -0.32815126 -0.53324896 0.088946849
2845.5396 380.6723 -34.939301 0.83990002 -0.17877994 -0.5124507 0.094001763
2862.6233 321.53601 -32.591396 0.84348381 0.49151811 -0.21666798 0.1525884
2844.8931 352.15024 -34.44212 0.88614964 0.14910395 -0.43875596 0.081688553
2844.3582 367.008 -33.604004 0.85101289 -0.010597652 -0.52503783 0.088259704
2854.3003 419.42545 -86.734612 0.43607941 -0.87638718 -0.2044021 0.16861984
2876.354 436.64114 -86.71981 0.73363698 -0.65558714 0.17883588 0.10579428
2869.5659 427.38876 -88.594933 0.69664735 -0.70893478 0.10997236 0.13932869
2852.8108 410.3692 -70.815475 0.69781137 -0.65313053 0.29407451 0.12226795
2828.259 351.69138 -66.719604 0.85174882 0.070270956 -0.51921666 0.074404478
2828.3972 367.03479 -68.080566 0.88253498 -0.0085186353 -0.47016954 0.090472333
2830.1497 380.96957 -70.04335 0.94277436 -0.19150479 -0.2729513 0.096897461
2839.2087 396.85953 -71.027 0.82494575 -0.55505466 -0.10667132 0.15169856
2889.6289 453.8291 -77.13031 0.73562974 -0.52443993 0.42873257 0.088058911
2870.0178 430.42056 -72.526497 0.80571586 -0.45864302 0.37479132 0.14973901
2831.7979 337.36227 -67.407036 0.78882176 0.22843456 -0.57059431 0.090609469
2882.9443 444.90292 -118.53687 0.30884057 -0.84933215 -0.42807987 0.056193229
2866.9514 433.74316 -59.547157 0.78675008 -0.59496742 0.16443254 0.093927376
2857.7485 337.14584 -20.858185 0.73237622 0.33095908 -0.59505558 0.12663803
2858.3184 377.74857 -18.351393 -0.69219303 0.13202015 0.7095347 0.071117833
2852.2656 362.80145 -21.605402 0.75241172 -0.028372722 -0.65808177 0.069752209
2863.6221 427.59616 -63.103146 0.78789049 -0.37228823 0.49054059 0.12924677
2860.2571 414.0535 -66.337898 0.78307146 -0.30881411 0.53984529 0.14513738
2853.9189 349.54553 -20.293251 0.76127326 0.10596858 -0.63971376 0.097365372
2849.2537 360.96024 -25.821465 0.82876295 0.018871298 -0.55928153 0.075859465
2854.0657 344.51974 -22.318998 0.88230777 0.280826 -0.37771645 0.12523746
2850.1262 374.97308 -27.098814 0.77672756 -0.16553424 -0.60769457 0.090119697
2856.585 400.89587 -31.539499 0.64036733 -0.43353984 -0.63401335 0.069117457
2870.9907 428.09366 -75.208351 0.80185539 -0.35391134 0.48142982 0.14354283
2889.1494 455.86636 -70.924126 0.69690251 -0.62364036 0.35411814 0.077953704
2873.4119 437.36154 -69.866272 0.77096033 -0.52372903 0.3623921 0.11929305
2850.9082 388.12729 -29.47891 0.74193597 -0.22264861 -0.63242286 0.076715544
2845.6011 358.05469 -31.335239 0.87063056 0.079194129 -0.48552111 0.078511313
2850.0835 343.69489 -30.567156 0.86584902 0.28826046 -0.40891492 0.10407202
2866.2905 420.99078 -82.971794 0.75363678 -0.63862956 0.15551163 0.16276115
2844.5686 371.74969 -33.576805 0.84931147 -0.082767248 -0.5213632 0.07569512
2874.0923 431.26605 -81.577515 0.79027021 -0.5310595 0.30569398 0.13489112
2851.8062 390.5069 -29.513096 0.90724963 -0.16684887 -0.38608226 0.12107643
2859.2065 327.59619 -28.68722 0.84293908 0.47631735 -0.25015086 0.14009878
2892.4514 451.85703 -85.38015 0.74039966 -0.53948754 0.40095076 0.11090415
2873.01 436.9892 -70.179153 0.75165731 -0.56437141 0.34131539 0.1141213
2868.8313 427.64871 -72.756699 0.79603797 -0.41419297 0.44132492 0.1424721
2847.8262 354.37161 -27.514044 0.83299434 0.080903687 -0.54733443 0.081153341
2860.4946 327.32059 -25.203583 0.79325885 0.51399767 -0.32641503 0.14723045
2848.9934 341.3822 -29.598658 0.83924389 0.25011039 -0.48281932 0.092316024
2869.6631 415.96509 -77.9254 0.76017338 -0.32282573 0.56384397 0.1650079
2872.5176 313.65875 -24.293247 0.73132479 0.51728213 0.4445034 0.17765568
2850.7217 369.02356 -24.172821 0.83945203 -0.015479819 -0.54321325 0.086763635
2879.1472 434.64087 -94.515045 0.77077341 -0.63447016 0.057930876 0.15528603
2845.6726 400.5347 -46.543816 0.80269527 -0.46714938 -0.37074491 0.087080546
2873.093 431.01413 -88.13887 0.79645503 -0.58101708 0.16756658 0.12911411
2839.0073 386.26791 -47.38644 0.88852417 -0.24257676 -0.38946289 0.081646353
2838.3816 374.40527 -45.69416 0.91788638 -0.085542217 -0.387514 0.089481883
2839.7192 361.97913 -42.874901 0.91134316 0.067752212 -0.40603358 0.076612264
2842.4995 348.13263 -43.207985 0.89660424 0.23811518 -0.37336579 0.083947405
2865.9204 323.3797 -18.042702 -0.68022352 -0.7329883 0.0049062134 0.1950649
2859.3408 359.93442 -14.598972 0.73241895 0.013128623 -0.68072766 0.091260873
2855.1621 333.62469 -24.120953 0.75385994 0.33478561 -0.56534392 0.12399518
2854.5767 344.83005 -21.035696 0.75075376 0.17422439 -0.63719279 0.098305874
2870.021 424.987 -80.99173 0.80696458 -0.49842036 0.31683639 0.14469399
2872.7275 433.47845 -78.287346 0.73796898 -0.60568708 0.2975651 0.10405736
2842.9844 352.80933 -36.872124 0.89491862 0.12102654 -0.4295035 0.078208894
2842.4949 366.04117 -35.925434 0.87581903 0.010320047 -0.48252928 0.075677767
2853.7002 398.05011 -33.573174 0.79220754 -0.3617276 -0.49148792 0.12389258
2888.4395 450.11224 -79.072006 0.63739723 -0.6899308 0.34310386 0.087750815
2844.6169 341.43652 -37.848362 0.90659207 0.31878695 -0.27652434 0.080371559
2843.5801 380.285 -37.285618 0.83117753 -0.16600084 -0.53064829 0.086232699
2900.6455 450.34515 -121.08576 0.21954383 -0.90300363 -0.36930338 0.069675818
2838.3735 358.84338 -43.104115 0.91579473 0.13643125 -0.37776524 0.084665053
2852.6423 332.07367 -38.599953 0.80042005 0.52328628 -0.29240251 0.11990739
2870.4314 425.02261 -83.232124 0.78797317 -0.5294162 0.31435135 0.14841656
2837.3872 371.36411 -43.502998 0.92461264 0.025148593 -0.38007763 0.078283571
2843.5039 345.76242 -40.493362 0.90520936 0.24529397 -0.34702575 0.089225858
2900.2512 458.19049 -83.614571 0.58608162 -0.68672943 0.43001285 0.098013915
2880.7825 439.91531 -84.685349 0.74431205 -0.63571715 0.20460518 0.10880889
2841.001 383.87006 -42.214653 0.86119217 -0.22925484 -0.45364106 0.088951178
2842.6904 383.35641 -44.446388 0.88918972 -0.20856582 -0.4072369 0.13281786
2842.5435 392.99747 -49.971081 0.86377877 -0.35071582 -0.3617799 0.10881261
2889.8025 446.37057 -100.56682 0.80053967 -0.59733981 -0.048180532 0.12327856
2855.0835 415.35883 -52.633755 0.71944427 -0.66713524 -0.19321111 0.10966475
2849.748 405.59882 -51.6441 0.74988854 -0.60109609 -0.27631614 0.13134401
2848.9119 354.10458 -26.543711 0.85476774 0.098022379 -0.5096702 0.083210275
2883.9417 450.65363 -71.182587 0.71146834 -0.57159233 0.40877256 0.10331924
2852.5022 382.87253 -26.392759 0.77248728 -0.19602451 -0.60401803 0.10803889
2848.1001 367.91849 -27.536633 0.80664259 -0.031312093 -0.59020954 0.081915833
2853.9836 395.21738 -29.622034 0.70239288 -0.3143087 -0.63863474 0.079515308
2863.8267 319.46902 -21.206585 0.54294646 0.22260246 0.80972666 0.1771303
2869.7371 380.75119 -8.6658907 -0.67821562 0.22512995 0.69952852 0.1241543
2859.8225 349.52863 -14.927176 -0.69428128 -0.096010521 0.71327102 0.11484379
2856.4541 362.35977 -18.085987 -0.67187673 0.066648915 0.7376582 0.080859795
2839.9626 399.70865 -56.669189 0.84860837 -0.48700392 -0.20661812 0.074240446
2839.1086 381.84363 -51.463772 0.91242528 -0.18919151 -0.36288664 0.1127659
2860.0901 336.85272 -18.384348 -0.60975391 -0.28562212 0.73933768 0.13410538
2869.4214 442.41138 -54.276234 0.75949895 -0.54004717 0.3626436 0.082725756
2857.9351 426.47815 -54.70771 0.78012502 -0.35024709 0.51839364 0.12236207
2883.865 440.95227 -102.56409 0.61914968 -0.78053999 -0.086087354 0.12895623
2841.0737 380.59604 -45.179432 0.89872986 -0.13643391 -0.41673785 0.1000056
2840.0378 365.94101 -43.732815 0.90524715 0.007668844 -0.42481619 0.10276718
2841.0928 351.14035 -45.290752 0.89810371 0.19759907 -0.39289221 0.092685185
2858.4998 419.02103 -48.985443 0.73488218 -0.6652894 -0.13167478 0.11287711
2843.9509 401.31525 -50.265762 0.80674762 -0.51236737 -0.29434329 0.077125512
2845.8066 396.06128 -46.050293 0.83871746 -0.40580592 -0.36314538 0.11542064
2846.457 404.89346 -59.308079 0.78532112 -0.59640491 -0.16604786 0.12465023
2855.8035 418.73245 -58.043156 0.75148326 -0.60785019 0.25649753 0.10987353
2866.6343 341.09894 -19.544254 -0.18639651 -0.12533045 0.97444785 0.14199562
2865.345 434.24039 -58.159454 0.79483986 -0.50483578 0.33670527 0.11082372
2856.854 353.34155 -16.672913 0.71749049 0.041862845 -0.69530922 0.10373769
2838.0493 390.97919 -59.015022 0.88673103 -0.37493241 -0.27043268 0.12618798
2842.1377 379.66681 -41.059708 0.88734424 -0.13830388 -0.43987748 0.098526262
2848.8547 396.54984 -39.375534 0.80902386 -0.38842013 -0.44114649 0.10858002
2854.3665 406.99835 -41.892242 0.68828243 -0.61367911 -0.38686594 0.094915427
2879.7871 436.90067 -88.264137 0.79083645 -0.58729374 0.17223181 0.13471431
2880.2297 432.397 -90.372154 0.75006372 -0.65442556 0.095559776 0.15185469
2851.9978 354.4491 -22.001249 0.85388893 0.094040744 -0.51188868 0.095811933
2876.7415 441.76328 -116.65485 0.29496896 -0.8706305 -0.39369509 0.052756462
2845.1206 406.0589 -66.181847 0.77898198 -0.61123049 0.1399443 0.094561465
2861.158 326.43317 -25.691961 0.79376918 0.53440678 -0.29041332 0.14740096
2840.8308 398.78033 -68.165085 0.82991421 -0.55284971 -0.074830502 0.13817564
2853.3408 370.54974 -21.665874 0.8095094 -0.095516972 -0.57928497 0.096308537
2854.688 339.73453 -23.99449 0.81308043 0.31065938 -0.49233222 0.1171443
2841.5188 340.82413 -49.801414 0.87571353 0.3201201 -0.36145389 0.095788047
2872.1245 432.25238 -95.996399 0.3569929 -0.90037864 -0.24874562 0.13460998
2856.7449 417.02994 -49.031429 0.77289164 -0.63424277 0.019354749 0.12763429
2836.96 354.99576 -49.983669 0.92184436 0.097604856 -0.37506837 0.079842865
2850.3557 331.55316 -51.036663 -0.67167014 -0.71119905 0.20749739 0.10256
2839.9111 384.48459 -48.158718 0.90683907 -0.21037687 -0.36521837 0.10141873
2840.677 395.22308 -51.548634 0.8708325 -0.36216664 -0.33239442 0.079834022
2836.1023 369.01691 -50.773926 0.93840438 0.0075505162 -0.34545648 0.088370472
2884.2314 441.80627 -98.074341 0.68841958 -0.72224885 0.066596173 0.12092803
2880.5898 439.2113 -79.699867 0.79750663 -0.45323801 0.39819399 0.11172865
2865.3013 418.74432 -76.41362 0.76873207 -0.49688593 0.40268525 0.15238418
2851.5476 408.87329 -66.210297 0.33577985 -0.66919732 -0.66289282 0.14672065
2879.083 444.56653 -120.72957 0.30498779 -0.85351348 -0.42248923 0.057507414
2851.2351 328.32608 -55.626701 0.6769672 0.65471262 -0.33625409 0.096674681
2838.5781 342.57468 -54.664295 0.8927561 0.23468715 -0.38458875 0.10074893
2863.6409 430.41745 -102.03617 0.3788766 -0.87004638 -0.31539157 0.10497413
2861.7407 422.18082 -62.703262 0.74390221 -0.286497 0.60376233 0.11818565
2836.7151 386.06155 -55.900867 0.92538995 -0.19993588 -0.32199234 0.11698047
2846.0635 402.70468 -55.651287 0.76589251 -0.57626945 -0.2851705 0.13761579
2834.4092 356.80212 -54.847572 0.91146529 0.069616921 -0.40544361 0.08212027
2835.5144 372.36276 -54.733597 0.93542123 -0.097358458 -0.33986533 0.11947654
2855.7549 416.22452 -58.032669 0.7338205 -0.67226374 0.097820826 0.12556086
2856.0703 327.01102 -54.727974 -0.67155623 -0.7144205 0.19650853 0.092676289
2841.5342 397.49524 -57.689747 0.83721048 -0.4971422 -0.22787765 0.11412957
2834.5125 369.04083 -55.416016 0.93054444 -0.025538851 -0.36528733 0.11407799
2836.9233 384.37128 -55.263805 0.92942935 -0.16615871 -0.32947287 0.10569185
2836.7036 354.31784 -52.739895 0.91337478 0.11763843 -0.38975334 0.10110506
2866.2979 432.65146 -105.61099 0.39942265 -0.856866 -0.32594818 0.11219424
2839.0415 340.72015 -54.576698 0.88379681 0.25802928 -0.39028713 0.10551437
2882.3523 440.68167 -108.43387 0.53196889 -0.84396017 -0.068849944 0.11646877
2854.7114 330.28363 -50.469818 -0.63286942 -0.76645315 0.10966247 0.099154018
2837.6626 381.45221 -51.066235 0.91184926 -0.1876014 -0.36515296 0.10042223
2846.2097 399.73297 -49.925678 0.80740118 -0.50145972 -0.31087214 0.11627425
2839.9639 352.98175 -47.766293 0.89889318 0.18174753 -0.39869657 0.09680514
2840.8467 339.55927 -50.683086 0.90220368 0.27323055 -0.33372685 0.095673256
2862.6516 422.25604 -95.998688 0.6948939 -0.71911222 0.00034460999 0.14193667
2837.1326 368.02853 -49.643764 0.92460042 -0.030415708 -0.37972215 0.10361944
2871.7444 430.76035 -75.578773 0.79575384 -0.48189455 0.36681536 0.13005686
2843.9468 357.44507 -33.133091 0.85809308 0.054976951 -0.51054263 0.078455828
2846.5212 344.23819 -33.154449 0.87480915 0.22977927 -0.42650962 0.08649046
2845.3928 370.70911 -32.173256 0.8398847 -0.072004713 -0.53796744 0.079738595
2857.4888 330.08249 -28.405584 0.81022936 0.4919019 -0.31868619 0.12793805
2880.207 443.31107 -74.828148 0.73177248 -0.55996251 0.38852414 0.092076011
2865.896 419.30042 -77.67878 0.76946712 -0.54211342 0.33768824 0.1668653
2870.304 320.09793 -29.300537 -0.59497088 -0.79999161 0.077608854 0.16847658
2839.7454 348.77032 -47.984074 0.91013122 0.25538585 -0.32625028 0.084532693
2837.7188 361.97626 -46.87059 0.90579933 0.076502271 -0.41674325 0.078316577
2873.9487 431.10583 -94.925949 0.72657979 -0.68473792 0.056707643 0.13299747
2840.9033 378.69058 -44.629303 0.89994484 -0.12193776 -0.41860536 0.10225138
2847.1082 335.06662 -48.042774 0.80720657 0.49667343 -0.31895617 0.11420561
2866.7932 418.84467 -84.208199 0.84748596 -0.46158528 0.26211944 0.1687161
2878.5845 436.80984 -86.268158 0.74571294 -0.63192177 0.21115662 0.11577641
2890.9351 449.21298 -85.50502 0.61655742 -0.72297937 0.31170142 0.099586345
2826.9294 390.57837 -81.41993 0.81177831 -0.41278985 -0.41306239 0.1242279
2831.3855 361.91183 -60.987377 0.91647345 0.017511662 -0.39971215 0.090498418
2831.0652 374.13806 -64.389938 0.95162386 -0.16193366 -0.26113129 0.095646329
2873.8477 440.84195 -66.89859 0.76603454 -0.44759592 0.46135554 0.11895201
2859.2314 421.0379 -63.538502 0.75578243 -0.59041029 0.2832112 0.10800699
2834.5205 387.92566 -63.778641 0.93574727 -0.28555912 -0.20696135 0.1183861
2862.9592 326.80508 -17.441351 0.83983088 0.49175751 -0.22991018 0.17980921
2891.4238 446.15573 -107.6925 0.59569997 -0.76444387 -0.24650979 0.11489688
2840.8755 399.95193 -63.640301 0.82018155 -0.56507814 -0.089380883 0.10481869
2835.0735 346.29678 -59.435555 0.83209056 0.23912832 -0.50044268 0.088042438
2850.9941 333.62454 -38.450459 0.78647041 0.57926744 -0.21427435 0.096356519
2843.0032 381.91626 -39.031025 0.84097648 -0.18216613 -0.50948417 0.098383062
2848.5391 341.51373 -35.372986 0.87874055 0.29250172 -0.37717086 0.10222458
2843.135 368.99289 -36.076622 0.86864114 -0.04577985 -0.49332219 0.08812499
2851.2368 398.40372 -36.718948 0.79798883 -0.38474196 -0.46388295 0.11730433
2845.541 355.42758 -33.767681 0.88836175 0.11404259 -0.44475579 0.084985241
2861.2673 325.93716 -28.363827 0.7001915 0.66331488 -0.26409316 0.15400907
2868.8464 428.16119 -72.30278 0.79603797 -0.41419297 0.44132492 0.1424721
2855.6904 334.34479 -26.357592 0.81174779 0.40536371 -0.42041144 0.12142476
2851.1003 362.02441 -23.997385 0.82280374 -0.0069309324 -0.56828332 0.081148759
2879.0012 443.98911 -71.713005 0.75244248 -0.49909136 0.42981178 0.097764373
2867.8469 415.69965 -76.468361 0.73814893 -0.33494905 0.58561534 0.17902948
2849.1267 348.35782 -27.322037 0.84075212 0.1414496 -0.52261633 0.08591719
2887.4746 453.51828 -70.319977 0.67079818 -0.67404258 0.30934837 0.092178643
2850.6943 345.19193 -27.383059 0.85098952 0.23526908 -0.46953732 0.1014177
2877.6929 440.90579 -73.059494 0.76251513 -0.43941453 0.47485319 0.11371346
2849.8879 359.88373 -24.987597 0.83930993 0.031355474 -0.54274821 0.076735094
2853.0564 387.61847 -27.896879 0.73494697 -0.26545477 -0.62400854 0.10665223
2865.5564 423.7981 -71.633896 0.816908 -0.4516423 0.35872072 0.14610243
2854.6614 333.72641 -29.143633 0.80229104 0.46925828 -0.36895227 0.11589804
2847.689 372.73776 -28.892563 0.81517076 -0.079494849 -0.57373965 0.084167525
2863.7607 325.77933 -17.754467 0.8192206 0.52797616 -0.22387214 0.18515073
2866.9646 311.53607 -15.111178 0.62800592 0.49100432 0.60375768 0.17260921
2860.019 337.30145 -15.049455 0.83855945 0.35778171 -0.41086531 0.1346328
2855.9973 365.74799 -19.218807 -0.68037003 0.057204828 0.73063278 0.081902012
2873.0103 441.57169 -59.177135 0.76128244 -0.61411917 0.20810246 0.095547646
2864.373 430.35907 -61.452438 0.79723614 -0.41245645 0.44078809 0.12487116
2880.3218 439.38675 -107.639 0.42774132 -0.87474805 -0.22771308 0.088744581
2856.7966 352.16797 -17.792055 0.70643926 0.066055737 -0.7046845 0.097461186
2855.5996 414.94379 -60.399364 0.77072483 -0.62413102 0.12823285 0.13200806
2872.1455 424.89139 -82.620232 0.8186841 -0.54498744 0.18095581 0.16815883
2874.9639 432.69861 -80.386681 0.7920813 -0.53406692 0.29560059 0.12816429
2891.446 451.90363 -82.603065 0.71618587 -0.53383708 0.44955063 0.10658184
2837.313 392.06497 -64.015472 0.8414889 -0.45350936 -0.29364216 0.16108947
2856.1895 416.3873 -65.763596 0.74099177 -0.60697973 0.28724 0.10838632
2867.8518 431.95181 -66.320213 0.81256491 -0.51048768 0.28131941 0.12680338
2896.3923 448.4256 -118.55637 0.22876251 -0.91785592 -0.32435817 0.060757406
2843.2949 402.04462 -67.106522 0.80295038 -0.59237522 -0.066047281 0.11371551
2857.7771 333.58783 -21.978231 0.71815741 0.42365891 -0.55205345 0.13907547
2863.0532 386.62747 -17.168045 -0.65163064 0.23048303 0.72267216 0.060140047
2856.6289 343.99893 -19.38838 0.71654999 0.19724874 -0.66906577 0.1124231
2853.5374 357.02142 -19.797867 0.76682502 0.0036214823 -0.64184594 0.086410411
2853.9526 370.18057 -20.68478 0.72128844 -0.1193383 -0.68227661 0.066233009
2856.8977 416.19052 -50.868919 0.70622671 -0.69025743 -0.15744363 0.11783411
2843.6938 400.69736 -51.214947 0.81984419 -0.47554246 -0.31892774 0.079024412
2883.2324 439.94461 -96.363075 0.75833285 -0.65011728 0.047736518 0.12830445
2838.5376 387.62277 -51.061573 0.8775534 -0.26634672 -0.39869723 0.10363505
2836.9402 374.63199 -50.169994 0.92291564 -0.11551931 -0.36726287 0.10797105
2840.6675 362.9357 -44.29591 0.91010493 0.0056635309 -0.41433913 0.10257126
2880.8206 436.48846 -92.211601 0.78740656 -0.60194147 0.13288125 0.14994186
2859.4946 424.64014 -57.274513 0.76557404 -0.57229018 0.29390532 0.12467573
2849.6841 393.9176 -51.371918 0.6804018 -0.58816946 -0.43716142 0.15163414
2864.061 335.37549 -17.848316 -0.48876864 -0.28590557 0.82423496 0.15678148
2848.5564 408.11508 -59.128128 0.76077348 -0.64866483 -0.021393297 0.10938331
2842.2617 397.45029 -57.791527 0.82994938 -0.50621742 -0.23436712 0.12238123
2855.1782 347.74518 -19.261736 -0.70114148 -0.072787382 0.70929724 0.10934064
2885.4072 441.72507 -99.670128 0.69819444 -0.71472269 -0.041181851 0.13953613
2842.7563 400.5954 -54.710331 0.83388495 -0.49320254 -0.24776421 0.091190718
2837.8962 389.08481 -54.189999 0.88781834 -0.28054827 -0.36478937 0.11268248
2845.4001 385.92593 -46.579098 0.88490176 -0.31589732 -0.34228319 0.13204981
2853.6802 414.59549 -53.97757 0.71889979 -0.68401408 -0.12372477 0.11602598
2839.4363 370.91977 -41.704632 0.89503723 -0.0096575525 -0.44588685 0.083466291
2845.948 396.85928 -41.859905 0.81299216 -0.36749876 -0.4516508 0.083958484
2844.262 386.09619 -39.760303 0.85499191 -0.23688774 -0.4613817 0.11759414
2873.3167 426.99115 -87.481018 0.83671284 -0.49268535 0.23910823 0.15983945
2858.28 410.50528 -41.939137 0.57076228 -0.70207483 -0.42581841 0.093683288
2856.189 345.7551 -19.371181 0.76874536 0.23209155 -0.59595644 0.11531515
2889.0769 456.94467 -64.346161 0.6760847 -0.69183677 0.25351804 0.09223517
2876.916 440.46304 -113.53276 0.31636515 -0.91425413 -0.25308597 0.095312424
2853.959 373.68018 -21.716555 0.74649674 -0.1218762 -0.65413207 0.072200432
2869.7595 437.55206 -62.65897 0.80332351 -0.47384822 0.36074814 0.11362571
2856.9709 387.99545 -22.84067 0.70210952 -0.2374046 -0.67132801 0.07099779
2852.397 359.02255 -20.995857 0.81421161 0.013147025 -0.5804193 0.082059696
2862.5364 423.84277 -64.847481 0.77458012 -0.44598165 0.44847077 0.12185307
2854.9138 334.20691 -25.462667 0.75398475 0.40080416 -0.52044499 0.12687618
2854.6887 360.97025 -19.631886 0.71906728 -0.012668995 -0.69482499 0.072898984
2860.9084 423.70358 -61.513596 0.78160578 -0.50382233 0.36777097 0.12139381
2856.9458 374.62808 -18.97962 -0.69477975 0.13279775 0.70685631 0.067304678
2865.3757 414.66278 -71.319328 0.69295865 -0.26372796 0.67101109 0.15727885
2857.137 347.03406 -18.12336 0.73095185 0.18157479 -0.65782976 0.10597643
2869.9053 437.71237 -60.371807 0.79924458 -0.54015154 0.2635231 0.10855443
2858.4141 334.21408 -21.569973 0.72438508 0.3633531 -0.58586752 0.14184003
2874.689 414.61951 -82.200783 0.86382705 -0.25396931 0.43508896 0.18377936
2862.9829 420.04059 -74.935318 0.80093545 -0.52610099 0.2858673 0.14209689
2850.1636 367.43521 -25.855228 0.88290828 -0.049032509 -0.46697837 0.10344798
2863.5918 321.92096 -28.814022 0.80056936 0.5591926 -0.21538883 0.17147438
2852.2954 338.13089 -30.14138 0.83752459 0.37118712 -0.40096468 0.11097829
2845.6799 351.56998 -32.016731 0.86896634 0.13459231 -0.47621673 0.086798847
2897.9868 452.05249 -126.9794 0.22631054 -0.90670413 -0.35590893 0.082972683
2877.2607 438.02155 -76.385574 0.73724616 -0.57216889 0.35929209 0.10392528
2892.5591 455.46262 -77.657791 0.659518 -0.63403964 0.40376937 0.093660422
2851.4744 411.69119 -57.840797 0.72375578 -0.68925887 0.033163156 0.12043711
2835.4836 383.33759 -57.13081 0.93596089 -0.17797376 -0.30381331 0.10570136
2841.5342 397.49524 -57.689747 0.83721048 -0.4971422 -0.22787765 0.11412957
2833.1704 369.00085 -56.840706 0.93248451 0.00036116291 -0.36120987 0.095524579
2870.1206 437.29807 -65.428741 0.73703152 -0.30849975 0.6013422 0.11692581
2833.6223 354.97195 -55.831123 0.91078812 0.067651987 -0.4072938 0.089372404
2861.6785 424.79449 -63.051552 0.78017396 -0.5345571 0.32492658 0.11743692
2865.5115 321.4231 -17.899372 0.76185578 0.63016784 0.14988084 0.20686913
2853.1733 411.97052 -63.702271 0.73836595 -0.64785236 0.18735816 0.13165979
2898.3364 450.33832 -114.12603 0.43425092 -0.87142372 -0.22813772 0.10005482
2861.04 334.57843 -17.344326 0.77632898 0.34089777 -0.53019053 0.14502133
2877.0093 444.15399 -64.673088 0.74378794 -0.62348765 0.24092038 0.087265536
2853.9443 348.39865 -20.295095 0.78423703 0.1061813 -0.61130828 0.095636338
2841.8662 399.3978 -63.347683 0.8104226 -0.53088218 -0.24774849 0.14354028
2857.7336 328.82968 -29.893227 0.79813027 0.51047665 -0.32000265 0.12559196
2849.8684 342.60181 -30.881029 0.86838698 0.27970394 -0.409475 0.10251756
2848.6003 384.63922 -31.129932 0.80339408 -0.18111159 -0.56723589 0.099733561
2847.5481 356.78882 -28.5436 0.85742253 0.073852479 -0.50928617 0.076714978
2847.8682 371.10458 -29.246109 0.82984161 -0.076668955 -0.55270672 0.091896109
2853.5811 397.84573 -31.956268 0.75069153 -0.33572769 -0.56898957 0.087578461
2874.9146 440.31152 -69.307381 0.7477569 -0.47024256 0.4687553 0.11659269
2850.907 340.11404 -27.211695 0.82630622 0.28889006 -0.48348793 0.1008692
2866.0793 425.02448 -70.264061 0.79054129 -0.40820882 0.45651951 0.14590837
2851.4448 352.19345 -22.947647 0.83100218 0.11126643 -0.54502767 0.096176989
2862.0359 327.1235 -22.139259 0.78324878 0.54784399 -0.29391885 0.1655452
2893.7197 460.05939 -70.205452 0.70623273 -0.65869343 0.25953472 0.13406453
2849.7964 365.83682 -25.01667 0.78247553 -0.033634417 -0.62177229 0.084199041
2867.1968 409.63156 -72.923111 0.69542134 -0.091434583 0.71276146 0.17215376
2891.9558 444.98557 -106.18941 0.51186997 -0.81033748 -0.28520569 0.10062742
2870.7773 438.74054 -59.2356 0.75861317 -0.61717826 0.20879902 0.080794536
2863.4114 320.4888 -17.654709 0.83637929 0.45771629 0.30160487 0.19343124
2853.6228 362.72134 -20.511896 0.71498215 -0.04309595 -0.69781321 0.073706269
2855.5703 414.72043 -60.620792 0.76137483 -0.63947082 0.10670247 0.13340592
2856.6968 350.22699 -17.559366 0.7327221 0.098031819 -0.67343014 0.098280385
2860.7705 425.14276 -60.118435 0.77759063 -0.48393762 0.4014439 0.12207698
2862.3818 380.35953 -14.442124 0.71134877 -0.15804163 -0.68483996 0.069012165
2857.4868 337.21988 -20.74966 0.7229957 0.29251507 -0.62586915 0.12247474
