# .PCD v0.7 - Point Cloud Data file format
VERSION 0.7
FIELDS x y z normal_x normal_y normal_z curvature
SIZE 4 4 4 4 4 4 4
TYPE F F F F F F F
COUNT 1 1 1 1 1 1 1
WIDTH 621
HEIGHT 1
VIEWPOINT 0 0 0 1 0 0 0
POINTS 621
DATA ascii
2560.3911 -235.83485 -98.499748 0.95037037 -0.034054823 0.30925143 0.20425844
2554.2959 -239.5732 -56.774826 0.93256438 0.3594597 0.033352818 0.1365106
2607.6846 -325.577 -102.3602 0.7217809 0.63739282 0.26974559 0.12305502
2553.1279 -232.98102 -57.945709 0.92934608 0.35192463 0.11164617 0.21588066
2565.1558 -261.91824 -96.950111 0.85186327 0.44709292 0.27283129 0.15751213
2573.3975 -270.4357 -57.692474 0.74879354 0.54150516 -0.38220462 0.086804345
2559.1558 -247.73827 -96.779495 0.95884001 0.21715142 0.18295108 0.17194736
2570.9038 -387.04419 -63.563904 0.93742543 -0.0060008508 -0.34813437 0.11898501
2626.3257 -407.97089 18.778675 -0.60779661 -0.18808296 0.77149731 0.19305612
2605.9543 -329.36014 -143.53987 0.7848745 0.60820377 -0.11857542 0.11443412
2578.9026 -366.34723 -136.15921 0.66124451 -0.36375374 0.65607846 0.12528141
2558.1631 -392.70819 -101.63288 0.90928727 -0.30083254 -0.28756985 0.14559726
2572.3879 -375.00317 -61.167793 0.94541359 -0.00088402635 -0.32587174 0.14506157
2563.0454 -366.99905 -100.00071 0.99965775 0.020989457 -0.015615356 0.18715318
2569.0483 -399.96063 -64.90239 0.93975765 -0.081710018 -0.33193228 0.10713148
2563.3811 -379.62122 -100.81169 0.98720425 -0.14278863 -0.070987128 0.18610692
2585.9451 -394.99954 -23.194384 0.77716619 9.0578847e-05 -0.62929541 0.13609481
2578.3008 -376.10657 -137.44318 0.73930901 -0.11205562 0.66397715 0.15078758
2586.3655 -409.13849 -21.949762 0.77088362 -0.045125458 -0.63537562 0.14245778
2566.7566 -267.00769 -69.368164 0.85653949 0.48385322 -0.17951658 0.077565782
2595.3506 -313.98083 -112.78535 0.74204785 0.66865909 0.047539763 0.12394693
2576.2993 -253.20497 -27.877594 -0.56645346 -0.73441875 0.37384427 0.085992016
2585.6348 -299.63641 -112.26926 0.85337228 0.50941885 0.11067127 0.14860369
2567.2993 -247.79788 -29.28228 -0.66384381 -0.7475611 -0.021537449 0.14055389
2575.3296 -280.32376 -69.904259 0.77419484 0.5570606 -0.30050933 0.08416786
2555.136 -239.48302 -68.058861 0.95898193 0.28325412 -0.010990289 0.12444948
2562.1074 -249.69865 -109.32272 0.95848358 -0.1096431 0.26322538 0.21900126
2573.4082 -267.60165 -111.81461 0.87728405 0.47933701 -0.024673413 0.1687953
2556.5181 -229.00763 -67.871933 0.99932188 0.002188962 -0.036756244 0.18429042
2559.3374 -251.63686 -68.753769 0.90685797 0.40150645 -0.12806718 0.083002478
2565.2341 -366.94968 -111.86388 0.96443969 -0.2283601 0.13307068 0.21215197
2583.8762 -406.88815 -29.220085 0.86843973 -0.031097667 -0.49481854 0.13264701
2569.6553 -398.04605 -70.479073 0.96023554 -0.026717898 -0.27790982 0.13019831
2583.4346 -420.49152 -27.996876 0.83186108 -0.092648245 -0.54719603 0.15087973
2620.9348 -418.60818 13.643982 0.7400437 0.11071905 -0.66338271 0.13230394
2568.7747 -409.80197 -71.565689 0.96462417 0.033082012 -0.26154509 0.15254956
2565.6169 -379.15506 -112.77042 0.91226006 -0.22927183 0.33943489 0.17613755
2583.2219 -393.99307 -30.608337 0.89319867 -0.007960367 -0.44959182 0.11226993
2570.6157 -372.01883 -69.913429 0.97442514 0.047755305 -0.2195794 0.13774143
2555.9353 -392.2251 -113.85481 0.93681943 -0.33813766 -0.089622997 0.19522063
2569.7693 -385.06924 -70.482407 0.96409476 -0.037738413 -0.26286334 0.11984068
2604.8088 -276.42004 -208.60236 0.73306966 0.20053282 0.64991957 0.054494005
2595.0049 -386.0495 -166.5251 0.66969812 -0.6597141 0.34100097 0.12408825
2605.9031 -371.60901 -168.9534 0.76032513 -0.42288792 0.49302277 0.11533279
2607.0068 -291.01547 -206.67297 0.72308975 0.24531299 0.6457265 0.068071343
2574.7195 -268.92474 -163.15387 0.6696279 0.63689703 0.38204801 0.10750578
2603.8447 -358.21658 -163.47774 0.83101004 -0.2130795 0.51382822 0.1450538
2569.6062 -276.52319 -161.56482 0.79284042 -0.1113869 0.59916359 0.16747043
2641.5164 -342.38126 -209.41396 0.65180361 0.51377261 0.55784386 0.13726403
2734.207 -360.92059 -264.23575 0.45754936 0.53121036 0.7130667 0.065888539
2681.3008 -339.67023 -257.77988 -0.52125603 -0.81917757 -0.23924938 0.076468192
2616.7903 -309.25555 -210.67699 0.62977219 0.33742416 0.69966561 0.13432048
2645.6216 -357.16699 -206.80104 0.62138206 0.19743754 0.75822341 0.14419596
2659.9561 -375.54816 -210.44003 0.50731623 0.23976038 0.82773495 0.084635794
2633.293 -328.72452 -210.99257 -0.61301094 -0.61589926 -0.49485931 0.11631788
2693.6943 -345.66 -262.21841 -0.40251985 -0.86905855 -0.28760213 0.12035304
2616.385 -307.67789 -213.82265 0.66931331 0.17349999 0.72243857 0.12602732
2612.1565 -291.89584 -212.50618 0.73009878 0.23001286 0.64346701 0.072292872
2733.1458 -362.79257 -262.01819 0.38697988 0.5784381 0.71809191 0.054600008
2658.8638 -360.50607 -214.02679 0.62063593 0.35486487 0.69920099 0.095229588
2594.3491 -320.41537 -208.55293 0.49650297 -0.59083599 0.63592267 0.11993265
2642.99 -341.13004 -212.11697 0.62401795 0.54840732 0.55664265 0.1245297
2568.574 -266.23141 -64.122231 0.81927729 0.53359753 -0.2099009 0.084148549
2561.7788 -252.69635 -64.495865 0.92223501 0.37060973 -0.11014085 0.11526904
2566.8987 -259.27701 -109.05053 0.85316396 0.47366175 0.21853101 0.19673896
2585.6899 -259.80615 -187.7243 0.76229584 0.054935519 0.64489311 0.17253876
2561.4331 -261.53784 -148.36343 -0.49902356 -0.85729951 0.12654272 0.084095344
2555.4167 -238.31563 -65.150757 0.93799353 0.34439903 0.039464287 0.16321614
2562.7205 -247.39268 -110.02823 0.94373089 0.28385738 0.16969687 0.22867458
2585.6855 -273.21857 -186.80479 0.75482011 -0.044763166 0.65440267 0.13411322
2574.7051 -390.63889 -113.14497 0.88406676 0.25099468 0.39424315 0.16642404
2580.624 -311.68106 -183.89073 0.81431216 -0.064308248 0.57685369 0.23048069
2730.7104 -379.83386 -247.41446 0.33954456 0.55728513 0.75772208 0.032847684
2578.073 -383.95688 -67.222649 0.99627072 0.053177398 0.067947276 0.15632266
2628.8542 -370.2359 -196.19902 0.62747085 -0.41845727 0.65663832 0.103247
2581.3369 -282.90714 -62.316761 0.76594406 0.56408519 -0.30844378 0.10932106
2588.8164 -287.0755 -189.12114 0.69477546 -0.028879166 0.71864671 0.12420429
2713.8879 -366.2897 -248.69722 0.46253377 0.53642058 0.70591468 0.027479012
2645.678 -342.67856 -201.89601 0.85962683 0.43080023 0.2746869 0.17236005
2590.7373 -315.64893 -150.53918 -0.45564345 -0.87885857 0.14140946 0.070094407
2617.2129 -382.38498 -194.67096 0.65415204 -0.51107484 0.55757302 0.12825808
2684.7478 -348.54733 -245.24379 -0.53351808 -0.65921545 -0.52989948 0.047123373
2583.75 -310.50861 -149.56384 -0.44485769 -0.89143986 0.086235739 0.10290232
2640.4058 -359.52875 -201.2616 0.65622348 -0.067312732 0.75155824 0.13198631
2646.4092 -352.72229 -204.85059 0.72601867 0.32371682 0.60671598 0.16409895
2589.4382 -300.02722 -189.51009 0.69448006 -0.01314608 0.71939188 0.15817085
2643.8809 -314.38617 -239.29169 0.68480951 0.47724354 0.55070364 0.058249995
2655.8601 -328.05054 -238.95453 0.54986852 0.57625031 0.60463226 0.039311945
2593.7869 -382.61533 -156.22375 0.83498722 -0.34410125 0.42940733 0.12574959
2628.5952 -296.05807 -234.0564 0.75096512 0.39484981 0.52928722 0.080990151
2597.7725 -371.43625 -155.27232 0.83171719 -0.3424052 0.43704134 0.12859204
2595.7842 -358.96927 -151.13445 0.84254479 -0.11999443 0.52509016 0.17435798
2563.9846 -255.75102 -113.03663 0.82698125 0.53903252 0.15983105 0.21742494
2564.4019 -247.49814 -32.542877 0.71420431 0.66946626 -0.20427229 0.11179243
2565.2056 -255.23738 -112.20156 -0.67348605 -0.71738291 0.17826468 0.22994809
2557.2751 -227.92578 -73.816147 0.99912065 -0.015696017 -0.038878698 0.16694355
2556.4634 -239.67087 -74.034729 0.9753679 0.21936676 -0.023145838 0.11708885
2553.1064 -238.79619 -33.028561 -0.55761725 -0.83008808 -0.0040902523 0.14497888
2560.448 -260.35129 -156.12614 0.91058719 0.41321406 -0.0092282407 0.092501767
2564.1401 -263.81119 -74.596039 0.8769775 0.46364817 -0.12625702 0.076533072
2573.2791 -278.47028 -74.573578 0.8127532 0.54552072 -0.20454666 0.085599899
2558.8564 -251.04776 -74.462257 0.92423809 0.37154305 -0.087975621 0.07977201
2583.7126 -363.9523 -33.903099 0.93607813 -0.1553448 -0.31563535 0.099765152
2570.0881 -365.8223 -117.5127 0.88055229 0.14740781 0.45044267 0.17047542
2567.8792 -300.97015 -157.99518 -0.68935484 -0.71064788 0.14060403 0.15106994
2581.8723 -388.99622 -33.950104 0.93113655 -0.027585136 -0.36362585 0.11051682
2568.1514 -396.04251 -75.339882 0.95847791 -0.035386 -0.28296277 0.1205875
2614.9119 -402.12134 9.0557251 0.71543288 0.079769716 -0.69411284 0.12569045
2568.3413 -382.09308 -76.126068 0.96776092 -0.020745119 -0.25101489 0.092545517
2582.1216 -357.75656 -74.360924 0.85694718 -0.4956848 -0.1412023 0.20876753
2614.2542 -375.17386 9.4266443 0.77206391 0.076885149 -0.6308772 0.09401755
2578.459 -393.91837 -119.03979 0.87638974 0.25702941 0.40727985 0.13820919
2580.7971 -376.02579 -34.532108 0.95875925 -0.013762695 -0.28388613 0.098664038
2571.6147 -309.3732 -159.45767 -0.3951984 -0.910074 0.12483409 0.073341832
2614.6082 -388.90216 9.8659554 0.78803933 -0.032239474 -0.61478013 0.11957788
2567.3086 -369.2605 -76.799057 0.97689253 -0.030626483 -0.21152541 0.078284912
2587.0437 -386.00888 -152.97995 0.87801999 -0.00070545316 0.47862342 0.13624918
2582.6963 -292.65424 -75.624733 0.75270933 0.59714729 -0.27720708 0.088062808
2597.5452 -315.48846 -115.97607 -0.68091911 -0.73148119 0.035839323 0.11429715
2567.1973 -376.03748 -114.93108 0.92913634 -0.17667268 0.32479608 0.17227142
2570.251 -408.72296 -76.482056 -0.66856539 -0.74271071 -0.037431516 0.18072808
2566.79 -388.60068 -117.92728 0.82430428 -0.27660906 0.49397355 0.17684436
2551.4541 -395.95566 -119.08537 0.64135075 -0.76694638 0.021505153 0.2137998
2588.4895 -314.8703 -158.0565 -0.39716339 -0.91660225 0.045843191 0.086793803
2576.5916 -280.71936 -70.102966 0.78326887 0.57682616 -0.2318653 0.099233299
2653.5176 -319.56207 -245.76233 0.59735137 0.58383411 0.54982638 0.039522659
2566.9934 -265.38071 -70.357689 0.86769146 0.48836684 -0.092786774 0.086490415
2580.3853 -320.0238 -199.57837 0.47633019 -0.75646234 0.44819 0.18144855
2593.2256 -280.91617 -194.23616 0.74664718 0.014813281 0.66505533 0.10250147
2554.0151 -232.96497 -70.099228 0.98538673 0.1695545 -0.016255241 0.12535374
2563.3184 -254.11185 -113.83212 -0.5183931 -0.84555823 0.12767121 0.22825511
2596.4915 -296.05124 -197.45325 0.69392467 -0.023845013 0.71965271 0.1050982
2559.3745 -248.59012 -70.882179 0.93779635 0.34046626 -0.067975983 0.10939261
2559.312 -260.18066 -155.03429 -0.50327593 -0.86376172 -0.025080452 0.12181351
2600.7642 -309.24228 -202.40726 0.66314405 -0.22473218 0.71395755 0.1304106
2594.8962 -267.98169 -197.23575 0.76079983 0.015545581 0.64880037 0.11652568
2645.2117 -357.11414 -205.89853 0.65647447 0.095044978 0.74833667 0.1504036
2638.9531 -369.15073 -202.27626 0.58215779 -0.044928767 0.81183356 0.12098999
2562.5273 -397.3909 -120.29667 0.76731879 -0.49932018 0.40236953 0.1981404
2567.7476 -407.48569 -74.603249 0.94385535 -0.11415145 -0.31001049 0.16963014
2569.4812 -394.73068 -74.539467 0.96564412 -0.047123428 -0.25555983 0.14337987
2572.5085 -385.01224 -72.860283 0.97505552 0.068106741 -0.21125396 0.14915019
2593.8779 -371.59323 -156.6647 0.79701591 -0.26032668 0.54497313 0.14653063
2648.05 -347.97171 -210.08595 0.67786944 0.4524911 0.57943493 0.13644512
2607.1445 -359.54599 -165.88818 0.81303692 -0.053843725 0.57971698 0.12686624
2718.7676 -360.36166 -257.3912 0.39998385 0.6221472 0.6730125 0.040109977
2671.1731 -336.4325 -248.95711 -0.61102635 -0.68695217 -0.39337444 0.062190607
2592.2988 -384.9791 -159.02338 0.83128941 -0.24671882 0.49808404 0.13355467
2568.853 -372.32285 -117.29115 0.92186552 -0.16061728 0.35265565 0.16577469
2570.9241 -386.28824 -120.7847 0.84812188 -0.19625852 0.49210966 0.15316381
2619.8643 -383.93024 -198.68544 0.59270746 -0.47889712 0.64757657 0.14443964
2587.4177 -403.11874 -26.524384 0.81487209 -0.067860276 -0.5756548 0.1412444
2569.1628 -361.00305 -115.39763 0.90329242 0.0033025458 0.42901269 0.17110108
2615.3726 -374.29907 13.270852 0.84784329 0.19572495 -0.49280173 0.13187972
2561.1702 -260.58224 -150.93033 -0.46415198 -0.88489801 0.03896765 0.099368095
2636.2722 -343.4158 -203.71619 0.66010076 0.37716752 0.64962423 0.14393315
2629.55 -370.30634 -198.09196 0.64276326 -0.32580319 0.69333088 0.1326329
2588.5083 -364.15973 -32.203682 0.83215171 -0.38476741 -0.39934647 0.11434633
2590.8872 -383.61044 -155.31345 0.84942764 -0.17959681 0.49620321 0.14603145
2594.2161 -370.73761 -155.58922 0.81214839 -0.27032954 0.51704639 0.14987427
2615.3906 -384.15268 -193.49832 0.61557442 -0.34588438 0.70811874 0.13533771
2597.7759 -315.79907 -114.56901 0.73507524 0.67526788 -0.060644064 0.12976611
2591.7087 -310.591 -196.23317 0.67591274 -0.23379247 0.6989156 0.15715905
2577.124 -310.60175 -197.80135 -0.44195136 -0.89687538 -0.017134184 0.19325736
2640.1201 -356.88577 -202.66795 0.64223075 0.065482564 0.76370913 0.13639434
2569.0259 -266.13242 -153.13882 -0.27942589 -0.94723207 0.15707514 0.11541978
2569.6265 -366.09613 -74.720963 0.98047465 -0.025989249 -0.19492051 0.10004341
2586.8625 -268.25305 -188.22684 0.71094817 -0.022882989 0.70287198 0.14784639
2580.9587 -388.16476 -32.996044 0.92722374 -0.030808499 -0.37323847 0.10865615
2561.8628 -257.58578 -70.447876 0.88787848 0.43860802 -0.13890594 0.073044039
2583.7007 -291.5065 -70.971901 0.77283591 0.58713531 -0.24082518 0.094028331
2617.1216 -386.51334 11.922076 0.8903951 -0.11172344 -0.44126454 0.13366503
2589.6689 -282.36725 -191.19475 0.6979354 -0.045213427 0.71473211 0.10641442
2568.8523 -391.98584 -74.960106 0.96126306 -0.09219642 -0.25975588 0.12015326
2583.0544 -312.4216 -154.36086 -0.37541139 -0.91791254 0.12846351 0.077047661
2594.2908 -296.10773 -195.6813 0.7024259 -0.033036742 0.71098971 0.10760558
2593.803 -358.77475 -151.515 0.79951376 -0.38677299 0.45954806 0.16693567
2583.1875 -376.11646 -29.836166 0.92333633 0.038235709 -0.3820838 0.12617235
2573.4043 -276.27765 -70.104408 0.82668209 0.52364242 -0.20590131 0.092786968
2562.3765 -252.7361 -110.27164 0.91798788 0.34363249 0.19802764 0.22101367
2569.2729 -379.09918 -74.78405 0.97206455 -0.029455541 -0.23285797 0.10394681
2566.3784 -374.4465 -113.10554 0.91424233 -0.24588171 0.3220298 0.17288508
2612.8896 -398.97046 8.1891689 0.73882324 0.024537195 -0.67345244 0.14344752
2556.502 -244.42844 -70.357887 0.94147694 0.32866308 -0.074844472 0.10086208
2573.1865 -394.93243 -58.745037 0.95124614 -0.079021178 -0.29813826 0.13826478
2562.7056 -373.67386 -103.29299 0.95368332 -0.2380584 -0.18389222 0.1906333
2584.1995 -413.8653 -23.946209 0.78158164 0.016982293 -0.62357175 0.14808936
2551.3467 -399.431 -105.30162 0.80040139 -0.37379822 -0.46864966 0.16393277
2571.3955 -380.89163 -61.664169 0.94072515 0.01378587 -0.33888966 0.12419742
2583.0203 -423.69415 -25.490629 0.78767627 0.1812568 -0.5888226 0.17860913
2571.8721 -407.10181 -60.492332 0.93281835 -0.02452459 -0.35951144 0.14793807
2561.5723 -385.13348 -102.12685 0.95194036 -0.22201174 -0.21099834 0.18141732
2572.6604 -419.26715 -60.194275 0.9446401 0.10393715 -0.31121075 0.19903573
2583.5566 -401.22974 -24.806093 0.79273522 -0.024099546 -0.60908955 0.13870901
2573.5532 -274.60272 -63.252979 0.74503809 0.55589145 -0.36865023 0.084101558
2560.6731 -245.25179 -104.60913 0.96214646 0.10410756 0.25186473 0.20831573
2555.3457 -239.25783 -61.041954 0.9287442 0.36590844 0.059541702 0.15751466
2569.1133 -266.58603 -60.727955 0.80821997 0.53413242 -0.24795775 0.085330978
2559.3818 -252.82625 -100.64212 0.93452412 0.28568593 0.21224558 0.17958599
2590.2378 -292.81381 -61.752132 0.66119587 0.63358164 -0.40173903 0.10999483
2593.8889 -312.09351 -104.02208 0.75667208 0.63630468 0.15021212 0.14719617
2560.5461 -251.29843 -61.112194 0.90866798 0.41228083 -0.065932259 0.11126306
2702.3081 -374.69202 -234.69878 0.46907339 0.46912858 0.74825698 0.027229181
2636.6704 -317.52466 -227.8718 0.6943776 0.45446718 0.55794203 0.066818818
2674.7671 -363.28635 -277.04657 -0.2143589 -0.478856 0.85132086 0.035795387
2627.6484 -301.88358 -228.21304 0.77831435 0.41937 0.46728534 0.056610059
2635.1831 -326.6785 -220.10187 0.62158179 0.51825517 0.58740753 0.07073269
2719.166 -391.79816 -233.72142 0.43471465 0.52837878 0.72927296 0.059233196
2674.7734 -354.38635 -230.96411 0.4544588 0.51367146 0.72774225 0.027007278
2651.9407 -325.05725 -238.06061 0.57920665 0.55967528 0.59269154 0.044189434
2697.9944 -355.1864 -248.70099 -0.49666902 -0.64308167 -0.58289438 0.025729408
2725.1689 -373.1312 -250.11459 0.43649825 0.50807452 0.74251568 0.029514341
2638.2917 -307.98428 -238.16032 0.74675244 0.43024206 0.50720072 0.061988201
2670.95 -366.60486 -279.99435 -0.66391134 -0.27616104 0.69495094 0.044285409
2566.6096 -366.98825 -111.13409 0.94539261 -0.028454097 0.3246893 0.18288706
2607.9902 -355.68539 -164.68436 0.83133602 -0.026129335 0.55515552 0.12300546
2562.6003 -251.09624 -110.10149 0.94387567 0.22726089 0.23968987 0.23583426
2584.9575 -407.84763 -27.970257 0.85688335 -0.025892224 -0.51485974 0.14043096
2560.0635 -392.02206 -110.99769 0.94419408 -0.32759264 0.034359563 0.22030009
2569.9502 -373.93365 -71.47448 0.97112685 0.033033978 -0.23626544 0.12969947
2601.1877 -330.93256 -155.63191 0.82982641 0.5056988 -0.23591702 0.10727327
2585.345 -387.44058 -148.80992 0.87894821 0.18222843 0.44072992 0.14766783
2567.8843 -399.17371 -73.858849 0.9531759 -0.02813522 -0.30110484 0.12797086
2572.033 -274.41412 -70.004555 0.83527333 0.50831711 -0.20960009 0.095713265
2582.6204 -289.23514 -69.679214 0.78167439 0.5774191 -0.23573796 0.10074741
2565.9106 -379.80527 -112.37534 0.93222368 -0.16666119 0.32122123 0.18002576
2554.5569 -230.43246 -70.044449 0.99479324 0.10160285 -0.0079571065 0.15252648
2585.8955 -395.20926 -27.319487 0.85601491 0.029343838 -0.51611763 0.12834556
2555.8804 -258.19757 -152.99263 -0.51772267 -0.85495502 0.031861097 0.088528767
2561.3645 -255.96368 -70.321892 0.9088642 0.39831999 -0.12372153 0.076170065
2569.1096 -386.11432 -72.823524 0.96606582 -0.03551773 -0.25584245 0.11496178
2570.0938 -307.92297 -154.54172 -0.33038455 -0.92955112 0.16364817 0.076570235
2583.4165 -381.58859 -29.530577 0.91472733 0.15025146 -0.37509787 0.11827785
2556.7974 -243.14011 -70.165894 0.95432663 0.29335573 -0.056595683 0.11531764
2552.811 -238.13586 -53.083237 0.93866926 0.33550581 0.079598345 0.1392841
2574.8069 -270.37802 -55.476887 0.71731544 0.55293101 -0.42394087 0.085216083
2577.6677 -293.01831 -177.70216 0.7576679 -0.005199871 0.6526196 0.13945441
2572.5454 -265.70285 -172.97189 0.42203003 -0.81903881 0.38867223 0.17543298
2586.1294 -311.7403 -137.04395 -0.44076589 -0.88503748 0.14977999 0.080503069
2600.6228 -322.40421 -138.11728 0.69899148 0.69489014 -0.16893367 0.11781884
2557.5549 -240.74268 -91.88842 0.91729772 -0.26330554 0.29872236 0.16520132
2570.9631 -278.94995 -171.91205 0.81483001 0.0040926128 0.57968551 0.14006335
2562.293 -232.16109 -89.585213 0.66445845 -0.56134218 0.49334568 0.14234723
2601.6663 -364.15506 -171.812 0.72666639 -0.28307575 0.6259585 0.13608614
2602.8828 -349.15344 -173.05478 0.65807712 -0.096291661 0.746768 0.16460671
2574.9995 -309.31281 -179.01022 -0.37993252 -0.92022336 -0.094022803 0.17226329
2563.1179 -261.52927 -93.863281 0.88305718 0.42631078 0.19613566 0.15025264
2576.1553 -367.57147 -130.40521 0.71844244 -0.4908253 0.49288025 0.13631417
2573.7124 -286.09134 -93.309731 0.86640817 0.43788347 0.23998949 0.076971583
2566.3164 -270.92685 -92.525185 0.78522825 0.5734235 0.2336708 0.10148411
2558.8821 -249.81366 -94.202766 0.959714 0.23321153 0.15672088 0.16162953
2561.012 -252.80312 -54.643845 0.87901145 0.46741539 -0.094136484 0.10166687
2623.6338 -336.03592 -97.108658 -0.43473923 -0.66124845 -0.6113528 0.13418382
2584.0032 -301.32465 -94.724426 0.83919126 0.51377338 0.17831133 0.13200684
2589.5771 -311.16055 -93.65226 0.7645449 0.60965258 0.209272 0.12908289
2573.0906 -266.14832 -172.02016 0.79310393 -0.012938311 0.60894889 0.17824006
2553.366 -404.21695 -96.192421 0.78372961 -0.46467853 -0.41211858 0.15164125
2598.8296 -435.66104 -7.4287281 -0.66993213 0.1734868 0.72186792 0.10882455
2603.8789 -376.04059 -175.80571 0.80594456 -0.18522687 0.56226718 0.14162084
2570.9492 -410.3663 -58.647171 0.93834209 -0.034546576 -0.34397763 0.14837247
2562.7148 -380.47229 -97.41272 0.94177186 -0.2426253 -0.23280613 0.14074455
2572.5198 -385.02982 -57.662178 0.94266433 -0.0037391488 -0.33372149 0.123322
2578.3057 -386.6384 -132.56189 0.72589612 0.32309744 0.60719258 0.16361502
2594.4197 -409.04611 -13.441396 -0.68699127 0.075510293 0.72273171 0.1507045
2560.7717 -393.50998 -96.662712 0.90433645 -0.26030177 -0.33825806 0.17027827
2563.7144 -367.04501 -96.21019 0.99223047 -0.026044585 -0.1216569 0.17910239
2573.6013 -399.04306 -56.504185 0.95351988 -0.025636159 -0.30023769 0.12917317
2576.1736 -375.48944 -132.36595 0.79816228 -0.063275814 0.59911031 0.15267318
2596.2534 -396.99698 -12.245972 0.71769994 0.0085118525 -0.69630045 0.14888786
2597.9343 -422.61719 -9.6906643 -0.67716002 0.08455807 0.73096114 0.1313075
2713.1997 -369.70224 -245.0956 0.46174383 0.49950227 0.73300076 0.026806269
2631.5664 -298.71173 -236.66194 0.78682017 0.40044805 0.46963328 0.071469262
2588.041 -270.93942 -189.26068 0.76090664 0.022587558 0.64846808 0.12370398
2571.3027 -237.44472 -95.192291 0.02321169 -0.80073398 0.59857023 0.18000898
2563.4661 -243.62929 -107.74525 0.9192037 0.15708634 0.36109343 0.21303327
2646.0188 -346.44281 -203.7986 0.84991205 0.39165807 0.352496 0.1721383
2570.8545 -260.58578 -107.0205 0.85733473 0.42988637 0.28315166 0.18602945
2598.5669 -302.02225 -196.81839 0.75768745 0.0038004562 0.65260655 0.11568435
2628.3921 -328.70972 -203.65623 -0.51961017 -0.60625339 -0.60204828 0.1096993
2591.7473 -285.99609 -191.2654 0.71315485 0.0037309197 0.70099664 0.13503157
2668.9556 -336.42636 -243.91295 -0.5518198 -0.65490276 -0.5163306 0.036967464
2644.3521 -354.85184 -204.30698 0.65171158 0.21368007 0.72774506 0.15152454
2692.1274 -354.15466 -245.96471 -0.50168902 -0.66384518 -0.55463296 0.039584581
2635.293 -311.19849 -231.98085 0.68793333 0.30625156 0.65799522 0.077210039
2581.4099 -261.08029 -192.60255 0.75587398 0.58270591 0.29851013 0.18779054
2643.7878 -368.25113 -204.15947 0.62843901 -0.11173039 0.76979268 0.11291227
2602.4705 -359.43033 -159.45944 0.81101751 0.11017 0.57455474 0.13445288
2591.6646 -287.73267 -108.60055 0.77706242 0.17068292 0.60583943 0.15518765
2594.3411 -316.72165 -148.33461 -0.53617913 -0.83845371 0.097505361 0.077622108
2625.9607 -379.11383 -200.18106 0.57741475 -0.53405821 0.6175549 0.11159853
2596.491 -381.41882 -157.37759 0.77514398 -0.45496002 0.43836415 0.1133494
2601.8191 -370.07925 -157.77777 0.84383702 -0.24208421 0.47888863 0.10566181
2574.709 -422.25427 -46.315792 0.89120924 -0.24730043 -0.3802481 0.12809335
2600.1116 -446.04251 -4.8593287 -0.67502552 0.16622192 0.718826 0.11875522
2597.5627 -432.02155 -9.6800375 -0.63736326 0.024403837 0.77017695 0.12564971
2578.0466 -399.15726 -47.655891 0.96725464 0.016987814 -0.25323871 0.12710726
2553.8892 -408.94199 -89.201477 0.70415413 -0.52380997 -0.47936422 0.13668559
2563.3916 -387.07394 -93.1008 0.95263463 -0.17987424 -0.24521938 0.14485733
2564.2969 -396.52322 -88.346794 0.73119563 -0.51986641 -0.44169208 0.15942985
2576.5195 -410.58847 -48.327679 0.9334172 -0.085732445 -0.34839964 0.13236758
2561.9365 -250.79697 -98.216286 0.92931318 0.31893626 0.18616299 0.19138214
2599.771 -321.84918 -93.05175 -0.65479094 -0.70693105 -0.26738977 0.11998432
2561.0149 -263.73355 -92.009834 0.87724239 0.45752785 0.14530689 0.11913089
2573.2722 -272.17249 -58.355194 0.70500273 0.51911813 -0.48320553 0.088833503
2585.7632 -306.03809 -93.30378 0.81640863 0.55543214 0.15802561 0.10749511
2559.6375 -254.23317 -93.780884 0.92979413 0.33683228 0.14841473 0.16760574
2558.6433 -248.47954 -52.304504 0.8828795 0.46785277 -0.040467236 0.10184634
2569.0017 -263.19962 -53.424324 0.78655243 0.55041927 -0.27995336 0.07884337
2550.9126 -399.60974 -104.53162 0.74829054 -0.50000471 -0.43595484 0.16325156
2563 -365.04053 -107.16072 0.92047602 0.26832151 0.28412586 0.19599995
2597.1384 -315.73734 -107.11001 0.75619751 0.6471808 0.096552499 0.12991475
2564.1365 -388.51746 -105.82355 0.98700827 -0.081224188 0.13862662 0.21202756
2574.4094 -399.25912 -59.292622 0.97190672 -0.062123422 -0.22701995 0.16885796
2570.0378 -415.54733 -58.950329 0.79376125 -0.57884961 -0.18675157 0.22999914
2578.9043 -281.25705 -64.459473 0.71925992 0.59087056 -0.36542746 0.091356978
2565.4382 -377.40186 -106.30635 0.97898924 0.059952799 0.19489932 0.18808129
2593.3574 -417.73688 -14.772774 -0.65940696 0.22465657 0.71743429 0.13361023
2597.4792 -396.26251 -12.762383 0.71447355 0.09474159 -0.69321823 0.14735599
2572.2732 -410.96542 -59.345558 0.93825567 -0.12562814 -0.32232577 0.1773233
2594.0732 -406.91666 -15.621122 -0.68064183 0.009570282 0.73255384 0.13884644
2590.5032 -305.69739 -107.47382 0.86737114 0.4936251 0.063258059 0.19273309
2574.7673 -387.69031 -59.408676 0.97680354 0.055121068 -0.20692153 0.15734564
2569.262 -267.83047 -63.084549 0.81038427 0.52430272 -0.2615034 0.084722519
2556.3511 -241.86975 -63.996693 0.9375031 0.34786496 0.0088291671 0.14394014
2562.0859 -254.96426 -64.012138 0.91578704 0.38032138 -0.12918881 0.097052284
2561.6958 -248.29401 -107.53868 0.96631539 0.12329473 0.2259049 0.22221299
2560.5417 -255.58624 -103.85277 0.93398666 0.3024525 0.19024041 0.17518632
2564.616 -369.51776 -106.35588 0.97511876 0.079081781 0.20709769 0.18155152
2604.2358 -322.72641 -106.19312 0.71293229 0.67769247 0.18016782 0.11912997
2562.3635 -256.37589 -63.171558 0.90338337 0.41349664 -0.11366185 0.085138626
2586.8635 -308.27316 -188.44212 0.7624194 -0.11175169 0.63736033 0.19773182
2592.5027 -309.63486 -106.35381 0.83085346 0.54390037 0.11770663 0.17413938
2618.2759 -338.80725 -193.14105 0.4599494 0.51282102 0.72488695 0.08423692
2555.1025 -240.90598 -62.897602 0.94574457 0.32452336 0.015869169 0.13383859
2570.6995 -270.52521 -64.253136 0.79262203 0.53802484 -0.28684428 0.083580725
2636.2822 -354.54816 -197.27692 0.63480431 -0.10554528 0.76543039 0.12918946
2590.6719 -377.68076 -149.68253 0.82282245 -0.25079504 0.50996572 0.16283672
2561.2239 -251.74522 -103.73825 0.95822787 0.19948697 0.20494951 0.19134326
2616.5203 -379.30826 -191.62636 0.62536442 -0.53816676 0.5650627 0.11187492
2582.4766 -294.13297 -184.32463 0.59654939 -0.022813562 0.80225205 0.13996629
2581.0535 -310.31342 -188.71651 -0.52978849 -0.84776682 -0.024811866 0.25494769
2566.8 -264.39252 -145.93031 -0.22355554 -0.94475251 0.23971987 0.063791052
2628.5981 -365.83441 -194.48926 0.61393839 -0.25306463 0.74768841 0.10699287
2581.3289 -281.66083 -183.08127 0.72825962 -0.076041944 0.68106937 0.12152807
2595.3662 -323.97122 -147.52008 0.78997803 0.54799217 -0.27502608 0.17204149
2591.6953 -366.26782 -146.41411 0.73354733 -0.28254643 0.61812282 0.16480723
2565.7544 -262.98468 -102.76126 0.84605658 0.45415941 0.2791549 0.1610093
2588.0957 -290.98178 -61.333759 0.72247416 0.60958457 -0.32624805 0.10959405
2579.9495 -268.47186 -180.799 0.69365633 -0.047099348 0.7187646 0.15987363
2570.2444 -411.92676 -64.770531 0.95275921 -0.092340201 -0.28934962 0.17150705
2607.1855 -390.79733 -191.15468 0.71413475 -0.4803201 0.50921917 0.15260153
2565.2954 -381.85013 -107.48686 0.97604841 -0.021816889 0.21645686 0.20457679
2586.2058 -391.5835 -147.92889 0.86975491 -0.20190097 0.45029145 0.17783228
2572.4204 -387.02661 -63.676193 0.96065336 0.0055800499 -0.27769396 0.13647792
2594.0874 -422.14008 -13.909212 -0.68993598 0.1621753 0.70546973 0.11932584
2562.2007 -389.88318 -105.4517 0.88534546 -0.46228722 -0.049537513 0.24329849
2572.1929 -399.75372 -63.552353 0.95637214 -0.04899634 -0.2880134 0.15210874
2594.824 -410.41833 -14.92866 -0.65655911 0.061833717 0.75173581 0.14123803
2593.7126 -398.00534 -16.298496 0.74077857 0.00062887231 -0.671749 0.14616391
2632.5061 -422.78659 19.455868 -0.65994316 -0.73738879 -0.14398879 0.15962718
2572.2092 -390.09412 -61.707546 0.95156854 -0.040530954 -0.30475324 0.13121016
2557.4873 -393.66272 -101.67834 0.74296266 -0.54945338 -0.38224003 0.19925652
2599.6755 -319.66989 -103.27995 0.73337221 0.66447198 0.14367409 0.12725207
2588.2451 -301.68213 -102.80049 0.85586363 0.51673269 -0.022018431 0.21520136
2575.2334 -273.82748 -59.11771 0.74519318 0.55085671 -0.37582439 0.087197997
2558.0361 -245.51514 -58.068054 0.90414131 0.42308646 -0.059383165 0.13152313
2587.9807 -305.18134 -102.26969 0.80712235 0.57151252 0.14807747 0.13547209
2553.1206 -234.03738 -58.322594 0.9356215 0.33708295 0.1048215 0.1852898
2566.7017 -264.84225 -100.50589 0.8157655 0.47551101 0.32926574 0.15522525
2562.5862 -371.56741 -104.57851 0.95396376 -0.25549552 -0.15708348 0.19541773
2564.8232 -258.94711 -59.499046 0.84264272 0.48658243 -0.23063131 0.078522049
2572.6895 -403.65375 -59.659725 0.95211035 -0.076478161 -0.2960355 0.15637803
2599.8328 -283.99045 -106.53468 0.5226844 -0.0023047018 0.85252315 0.19390522
2561.2844 -383.59311 -103.52679 0.94466549 -0.24526064 -0.21784019 0.17126776
2559.6521 -240.23024 -99.333946 0.94042879 -0.046541654 0.33679006 0.19552493
2559.002 -251.28293 -98.988991 0.9594596 0.18301427 0.21434318 0.17838313
2544.406 -407.31073 -103.29832 0.68589276 -0.5249297 -0.50398403 0.19690421
2571.0583 -414.56238 -63.409985 0.95677698 0.05195931 -0.28614333 0.18080667
2586.7004 -413.06143 -21.60519 0.75502944 -0.066221535 -0.65233833 0.13765721
2583.5317 -438.72668 -19.892984 -0.56848317 0.10583323 0.8158592 0.20640828
2586.1274 -424.5094 -23.586508 0.7650401 0.12001019 -0.63270152 0.16969271
2734.3989 -367.93283 -258.84552 0.4219926 0.5094105 0.7499488 0.047628768
2641.5649 -346.90356 -206.47623 0.63826621 0.40188211 0.65658742 0.1399035
2656.0745 -322.64304 -245.3027 -0.58103794 -0.63444823 -0.5097748 0.040240068
2568.5183 -266.42212 -157.38144 -0.41067433 -0.9096576 0.062206119 0.12635617
2598.5581 -284.76376 -199.57732 0.73388851 0.11127244 0.67009407 0.090837002
2561.2844 -247.40849 -73.873184 0.9428432 0.32688639 0.064745814 0.13226359
2590.5581 -300.94504 -72.0177 0.74613607 0.59430313 -0.30014122 0.10123934
2564.4995 -260.31778 -72.19104 0.91010767 0.40257779 -0.098158479 0.10084857
2612.5305 -330.12256 -116.60401 0.73350435 0.67657077 -0.064987555 0.092839509
2601.6279 -298.98578 -202.40672 0.67486709 -0.025796063 0.73748827 0.11057343
2567.2537 -258.41058 -113.65668 0.88766366 0.44692391 -0.11096042 0.20547071
2570.9316 -273.09525 -71.920052 0.83966726 0.51278532 -0.17891371 0.091408551
2599.4456 -332.59109 -159.6223 0.90846777 0.406654 -0.09653414 0.10547992
2604.1799 -312.61676 -203.91801 0.68124032 -0.14343359 0.71787077 0.14082132
2579.2412 -314.29666 -201.13643 -0.12604472 -0.98529017 0.11539508 0.15467332
2643.3391 -309.01852 -243.28238 0.70455492 0.4180879 0.5734151 0.068267807
2583.0613 -290.1048 -71.066895 0.78595018 0.57821947 -0.21896249 0.10042223
2572.627 -266.79645 -160.37401 -0.55042279 -0.79868031 -0.24319638 0.10782785
2689.4053 -347.29977 -252.43034 -0.50738209 -0.73174036 -0.45510375 0.090573706
2597.6614 -270.92804 -200.40623 0.74173534 0.080687754 0.66582137 0.088760905
2571.4807 -266.85696 -114.16298 0.86722726 0.48914459 0.093029216 0.18380822
2576.1506 -382.84595 -71.984871 0.98965305 0.096918032 -0.10580058 0.17142753
2622.7937 -383.47604 -205.09872 0.54029787 -0.68257254 0.49211073 0.13418886
2571.207 -408.26462 -67.972816 0.66645294 -0.66319317 -0.34061018 0.22545235
2652.8601 -362.62885 -209.60352 0.65133762 0.13044468 0.74749142 0.13814679
2573.5466 -376.27286 -119.61835 0.87165987 0.036854316 0.48872367 0.1461529
2572.6646 -403.07632 -69.771477 0.92092055 -0.29567647 -0.25393057 0.19330958
2568.8181 -387.49829 -111.80469 0.14537233 -0.96620053 -0.21289304 0.20766334
2573.5737 -389.52451 -118.59715 0.89860141 0.086855486 0.4300833 0.17503774
2647.8862 -374.72983 -207.72313 0.53817189 -0.13055532 0.83266222 0.11215571
2593.624 -384.46417 -160.78226 0.82344383 -0.32064548 0.46810973 0.12855998
2596.3516 -371.58527 -159.13992 0.79242349 -0.3431564 0.50429028 0.13465741
2573.8962 -395.54797 -70.28186 0.96623719 0.099030197 -0.23786281 0.16528405
2593.8918 -280.40479 -193.70091 0.76970965 0.14780028 0.62104923 0.12118308
2589.0156 -264.11786 -191.77206 0.78341472 0.093790844 0.61438155 0.14663026
2685.0256 -346.55026 -248.73926 -0.53883439 -0.6959675 -0.47464383 0.071458295
2638.9565 -306.02551 -241.02811 0.75282443 0.44235688 0.4874174 0.061135184
2647.3142 -353.70435 -206.30742 0.72745281 0.31024691 0.61201251 0.14207639
2718.8796 -366.3772 -251.73253 0.45162746 0.55518204 0.69843078 0.028526327
2601.9204 -322.38513 -150.35954 -0.57065588 -0.81256843 0.11867787 0.075833447
2596.2405 -377.9707 -157.55234 0.82282621 -0.36874768 0.43241441 0.1169224
2656.5366 -324.47302 -243.39296 -0.60173017 -0.61435479 -0.51038128 0.037219279
2572.6685 -264.89395 -148.62126 -0.20646697 -0.95944941 0.19190678 0.087655507
2598.2485 -296.44653 -196.56558 0.72216123 0.085953407 0.68636376 0.10012328
2632.1887 -376.11676 -202.62064 0.51914066 -0.53242427 0.66859359 0.11315639
2601.6465 -364.05176 -157.7549 0.8196941 -0.21717465 0.53003466 0.12115724
2643.4197 -364.93158 -203.56186 0.61734837 -0.011796391 0.78660142 0.12808831
2563.3218 -262.81329 -79.545563 0.88667721 0.44863677 -0.11193103 0.075051591
2556.4019 -237.79636 -79.003937 0.98960978 0.14375262 -0.002778938 0.11226704
2553.3267 -238.45889 -40.085091 0.81503266 0.57160348 -0.094822116 0.11725801
2553.103 -258.44617 -121.8668 0.21611708 -0.93556529 0.27930453 0.16096291
2550.8179 -233.97507 -38.932266 0.77067626 0.63569492 -0.044159763 0.14665167
2580.4197 -265.84683 -37.593468 0.71042353 0.59664106 -0.37325311 0.07240703
2559.127 -250.2744 -79.116661 0.94516933 0.32243982 -0.051841661 0.087967888
2567.0791 -255.3735 -117.30812 -0.087521724 -0.89079982 0.44588742 0.18347724
2601.689 -323.03543 -82.013565 0.78471524 0.61980325 0.0081199454 0.12820864
2561.4812 -408.85559 -82.761604 0.8809346 -0.24517874 -0.4047735 0.13055854
2604.3801 -415.00989 -2.3461442 0.73917866 -0.019240787 -0.67323452 0.13556403
2559.4319 -391.33817 -118.45189 0.87725294 -0.21801887 0.42766228 0.1327121
2589.4553 -310.93024 -125.37769 -0.62175149 -0.77735311 0.095641427 0.074089952
2566.5188 -367.12708 -118.73961 0.88207656 -0.29079425 0.37064764 0.16358578
2580.2058 -381.76331 -40.485405 0.95813692 0.083162114 -0.27396652 0.091965608
2576.53 -405.21893 -44.470551 0.95013386 -0.045919154 -0.30844301 0.10127685
2607.6292 -402.20248 0.41854629 0.81153899 0.048744872 -0.58226144 0.13075256
2568.6316 -274.31168 -80.837883 0.86864603 0.48312381 -0.10975194 0.083634779
2614.0759 -340.04672 -87.304382 0.48491493 0.50526655 0.71383697 0.14187437
2576.4788 -390.98526 -43.874454 0.96981943 0.0041121203 -0.24378958 0.1019873
2565.3979 -396.04675 -83.124413 0.9485063 -0.11141888 -0.29651591 0.11427604
2575.3992 -414.68817 -46.31094 0.95450062 0.10984512 -0.27724108 0.13516279
2567.9783 -383.80032 -81.463806 0.96221274 -0.095023371 -0.25518081 0.10097472
2603.313 -427.69894 -4.2688189 0.7108146 0.092523165 -0.69726753 0.14496668
2592.803 -308.14941 -80.959007 0.78609753 0.59607273 -0.1635481 0.11182418
2570.4172 -377.91098 -122.28981 0.89422649 0.014695178 0.44737345 0.13858071
2577.9937 -288.98651 -81.295074 0.77277827 0.58310801 -0.25059682 0.08715786
2588.4888 -407.79318 -15.178802 0.71755677 0.014149603 -0.69635624 0.16961204
2599.2849 -437.30756 -9.6924744 -0.59857535 -0.096729077 0.795205 0.14549115
2587.7361 -418.33099 -16.190008 0.71413624 0.16240796 -0.68090606 0.13865775
2624.3096 -298.02731 -226.27658 0.77098137 0.42353693 0.47560927 0.058765572
2582.5566 -268.98257 -182.97369 0.83218855 0.39252281 0.39164788 0.17882919
2585.7847 -280.76093 -182.21214 0.84496284 0.12328253 0.52042216 0.14586458
2591.9792 -298.8685 -186.55945 0.75697887 0.15679502 0.63434869 0.13438077
2713.1858 -385.78979 -234.16031 0.50177354 0.48672771 0.71506608 0.042121321
2665.6135 -347.41779 -228.46758 0.5247404 0.56719011 0.63477784 0.027298933
2618.1077 -344.35141 -183.0813 0.66751266 0.12396899 0.73420602 0.11782065
2636.2048 -315.35315 -228.80739 0.71951401 0.44611925 0.53223789 0.062924504
2604.8625 -385.53186 -183.31139 0.70452493 -0.59054482 0.39357528 0.14341851
2616.168 -323.29181 -214.60503 0.43749315 0.17929806 0.88116509 0.13335821
2623.6621 -359.73715 -186.48933 0.68107384 -0.19827548 0.7048583 0.104679
2617.8879 -372.66766 -186.78812 0.65905869 -0.42962122 0.61730647 0.1036955
2684.9265 -365.06821 -230.11038 0.49334988 0.45718622 0.73999101 0.029877815
2606.1033 -401.41571 2.0252018 0.71373773 -0.048616994 -0.69872373 0.13661903
2605.5256 -411.93384 1.6847661 0.71369052 0.11660568 -0.6906873 0.1297538
2606.2805 -278.9324 -209.74481 0.72837657 0.17546052 0.66233009 0.057417382
2572.4246 -280.64139 -166.57874 0.84662557 -0.11788513 0.51896846 0.13891128
2615.1548 -297.2558 -214.2948 0.73704195 0.24070692 0.63152933 0.08056362
2575.1917 -269.65268 -169.02658 0.81606841 0.31795704 0.4826341 0.15631415
2622.1313 -313.68832 -214.81631 0.65793592 0.3872048 0.64590466 0.12642908
2603.168 -383.84766 -174.66325 0.53276342 -0.82664543 0.18116419 0.14722541
2607.6628 -362.87839 -170.25381 0.76772493 -0.2768915 0.57786632 0.1333209
2600.738 -378.68265 -168.95869 0.81293863 -0.31927797 0.48702401 0.12724745
2649.9358 -346.22714 -215.10207 0.61980754 0.51193571 0.59477758 0.12331261
2701.7603 -349.31128 -266.03934 -0.22731657 -0.97379416 -0.0072144805 0.10637819
2604.0398 -325.37573 -208.82507 0.42621335 -0.15400341 0.8914175 0.19935893
2677.0222 -368.87067 -222.38336 0.45541933 0.43077612 0.77911818 0.035527524
2597.8503 -312.07761 -167.00787 0.048404869 -0.9458096 -0.32109374 0.12933153
2596.3208 -316.38409 -96.395126 0.7592231 0.62582749 0.1786622 0.14849178
2558.188 -239.85052 -92.645531 0.73605758 0.67060906 -0.0922103 0.20775165
2588.562 -364.79776 -142.36667 0.71242595 -0.032467533 0.7009958 0.18755542
2570.2937 -263.28622 -137.1563 -0.31561553 -0.90598905 0.28208271 0.069624402
2589.8135 -311.04846 -179.03024 0.029757902 -0.94893515 -0.31406462 0.20131357
2619.1438 -288.93628 -224.90987 0.79310948 0.35157073 0.49736845 0.060254965
2585.4387 -386.89133 -143.76068 0.7770651 -0.49646011 0.38690728 0.18251985
2623.4871 -348.97229 -186.51688 0.70654297 -0.0077896444 0.70762724 0.11243533
2616.7397 -373.98529 -187.03734 0.66670078 -0.41198865 0.62110823 0.10776412
2606.2952 -386.08878 -185.68552 0.68312395 -0.53679043 0.49517441 0.14195806
2636.623 -327.18289 -221.57236 0.61249626 0.52470762 0.59121084 0.071931154
2606.2588 -328.25607 -138.46532 0.76352221 0.62837523 -0.14892404 0.10866239
2580.769 -287.98395 -180.22549 0.71459937 -0.049647573 0.69776994 0.1360141
2560.4253 -247.43301 -95.273895 0.94495058 0.30677354 0.11383498 0.19462495
2587.7703 -302.41348 -95.337929 0.86647308 0.49440083 0.069225527 0.17811935
2710.3066 -384.68909 -233.50241 0.46309429 0.46965343 0.75164443 0.041302375
2581.7576 -263.55121 -183.92468 0.84552246 0.25018299 0.47169933 0.17228913
2581.7754 -275.02927 -180.91101 0.80217481 0.019164478 0.59678167 0.1651932
2566.5242 -262.00372 -95.813324 0.86204767 0.46168286 0.20909993 0.17106065
2607.1863 -327.46872 -95.124336 -0.55808282 -0.72032553 -0.41191587 0.10885981
2625.9175 -302.72385 -225.19353 0.73260331 0.22049977 0.64395046 0.093745902
2690.8496 -368.13889 -232.23112 0.48680687 0.44991621 0.74872857 0.027665375
2635.8845 -318.07349 -227.0968 0.68885535 0.43829286 0.57738864 0.073194429
2670.0571 -350.93521 -229.91573 0.47401929 0.53666824 0.69806367 0.024369389
2577.3555 -285.32452 -95.118713 0.88128757 0.44381869 0.162349 0.11510594
2588.2258 -376.85019 -142.34015 0.81346393 -0.25815684 0.52118278 0.17861202
2571.0544 -272.17706 -95.678841 0.81985289 0.49599651 0.28605723 0.11256804
2624.2996 -361.66766 -187.89091 0.66887593 -0.24081892 0.70328605 0.10590498
2620.4414 -296.88858 -220.56433 0.70046532 0.17681102 0.69143778 0.094797738
2574.9033 -262.93564 -175.63393 0.75681448 0.52635431 0.38753453 0.17309599
2566.6079 -261.01218 -130.27161 -0.51035643 -0.82918859 0.22799695 0.10456026
2576.7793 -272.02859 -173.1295 0.85718328 0.11106034 0.50289404 0.17383756
2611.8843 -280.36697 -217.41426 0.74104488 0.24894314 0.62360227 0.061480939
2595.5552 -393.64157 -179.22897 0.72269112 -0.58246487 0.37209162 0.17730266
2689.7856 -369.08432 -230.90704 0.48428577 0.43244764 0.76056319 0.032002151
2584.301 -396.25012 -133.75589 0.84558851 0.27557766 0.45720571 0.21437517
2655.9761 -344.66101 -222.73466 -0.51881349 -0.61408895 -0.59474981 0.074095733
2678.6284 -356.92218 -272.49841 0.14358592 -0.80268782 0.57885695 0.058780815
2614.7722 -365.64926 -181.09941 0.66581082 -0.40370443 0.62747008 0.13256137
2628.9348 -313.03638 -222.04924 0.72837514 0.40703338 0.55117464 0.1002368
2585.6956 -312.16278 -173.7834 -0.13811806 -0.96050274 -0.24157366 0.19731806
2621.3098 -352.69153 -183.57193 0.71528095 -0.047043256 0.6972518 0.11357428
2618.7649 -321.95752 -213.24554 0.45794034 0.484626 0.74527061 0.13207164
2607.7783 -379.69507 -180.54059 0.74005711 -0.43468893 0.51318711 0.13280274
2686.8237 -379.7283 -224.19771 0.46933162 0.37759119 0.79821849 0.05111374
2584.4146 -367.67792 -138.43649 0.7204209 -0.064717457 0.69051099 0.1819582
2585.5374 -381.71964 -139.53281 0.85765052 -0.23110417 0.45937613 0.17512652
2576.0154 -394.88788 -53.38723 0.93650818 -0.015033914 -0.35032335 0.1407828
2561.8606 -384.06967 -99.248878 0.94726187 -0.20846331 -0.24338861 0.15797536
2575.5801 -381.80899 -54.370739 0.95712203 -0.033728596 -0.28771481 0.14174242
2594.9954 -389.93262 -14.902981 -0.67466694 0.045259681 0.73673344 0.14504443
2554.7463 -238.56047 -57.051582 0.9122926 0.40781561 0.037532322 0.17222728
2573.6787 -360.55908 -52.059578 0.91835487 0.26527047 -0.2936936 0.21426728
2582.4929 -279.42755 -56.631462 0.66832709 0.56343335 -0.48567662 0.10533432
2574.9346 -369.96228 -53.074203 0.93420249 0.11145882 -0.33888435 0.1721918
2596.6714 -377.54233 -12.315613 -0.66641742 -0.1085735 0.73763108 0.16044736
2584.8408 -296.57162 -99.731728 0.85706842 0.43664026 0.27345741 0.1689889
2560.0747 -357.98456 -98.99633 0.97812772 0.20237842 0.048053641 0.22295417
2609.1804 -274.41971 -104.35594 -0.075177737 0.1748915 0.98171341 0.11641624
2558.8835 -243.2928 -98.096611 0.95038462 -0.047296304 0.30746078 0.18847604
2564.2578 -374.2106 -98.393425 0.98821616 0.13684784 -0.068567045 0.17775317
2593.0598 -311.72672 -101.12775 0.78665137 0.608073 0.10689642 0.16627042
2569.2573 -264.83582 -57.099716 0.80126435 0.51138031 -0.31058925 0.080779843
2560.0269 -253.68387 -97.621872 0.93368131 0.30774745 0.1831139 0.17365113
2563.4238 -253.65335 -56.24577 0.89149517 0.41216865 -0.18802479 0.12652764
2619.9363 -335.61942 -95.964684 -0.47693604 -0.70318228 -0.52732027 0.13154644
2642.4233 -330.84973 -223.62924 0.60365111 0.53560805 0.59053308 0.059901718
2557.5474 -243.77657 -49.17749 0.89965284 0.43208265 -0.062684849 0.13088909
2613.585 -349.37286 -176.97044 0.64627296 -0.093217835 0.75739139 0.15075111
2596.3386 -317.99725 -95.160156 0.7327863 0.62751675 0.26314822 0.14248116
2559.0059 -237.36548 -90.629433 0.95183474 -0.21640332 0.21721005 0.1479595
2598.3193 -353.23938 -143.8959 0.76520246 -0.31620637 0.56078404 0.18314102
2561.2944 -361.11243 -94.83889 0.89768827 0.4240531 -0.11972789 0.21692061
2560.8354 -258.39081 -133.87407 -0.3717995 -0.8835699 0.28472689 0.089582369
2579.0322 -310.61673 -175.72383 -0.13646631 -0.97617012 -0.1687272 0.19551417
2653.4285 -343.89713 -222.36046 0.50319445 0.57981259 0.64079064 0.055941552
2567.4177 -258.74231 -50.121914 0.82601595 0.50950652 -0.24104108 0.08909639
2564.677 -262.60184 -92.392349 0.86897779 0.45384178 0.19724417 0.13913001
2613.3479 -363.72318 -179.72847 0.67761093 -0.36357182 0.63926435 0.1320543
2595.4011 -315.86844 -136.84537 -0.56162912 -0.814578 0.1450358 0.068975069
2618.2083 -302.7056 -217.84883 0.63205069 0.044219274 0.77366436 0.10828175
2603.1609 -317.05963 -210.68967 0.4723447 -0.1579096 0.86715341 0.14209299
2613.6467 -287.84116 -215.03954 0.69052219 0.016501715 0.72312295 0.092554525
2563.0574 -233.88547 -86.486969 0.47184652 -0.77002865 0.4294377 0.14139208
2585.1423 -302.10358 -94.65271 0.81759894 0.5716933 0.068547413 0.13676378
2568.8386 -273.94189 -92.294678 0.83897489 0.53024948 0.12229738 0.095987663
2575.5103 -263.85535 -174.66208 0.81142879 0.22999282 0.5372957 0.19268559
2576.9675 -288.4082 -93.508957 0.88320071 0.460798 0.087302655 0.098047853
2697.7239 -370.13736 -234.83818 0.50840622 0.45308587 0.73228163 0.027025785
2574.5886 -277.2225 -172.30855 0.79901963 -0.049540646 0.59926063 0.17248179
2553.605 -235.7281 -49.162331 0.8920716 0.45109621 0.026841814 0.17446426
2559.4297 -249.63959 -91.81356 0.96199977 0.24252333 0.12545483 0.14583935
2575.1118 -365.12863 -54.495857 0.90065277 -0.037231877 -0.43294159 0.15309022
2606.1907 -376.67822 -177.85966 0.76206988 -0.30518049 0.57106423 0.13734539
2702.0947 -381.77521 -229.96228 0.48615578 0.51634419 0.70501149 0.032651871
2589.3298 -385.02982 -144.14767 0.67295402 -0.69188362 0.2615912 0.15962838
2574.354 -392.07224 -54.408588 0.95610631 -0.051017188 -0.28854457 0.12556766
2601.3765 -389.56686 -178.31557 0.81529814 -0.29189494 0.50008631 0.1732973
2564.25 -383.21356 -95.879402 0.97280639 -0.13305351 -0.18959019 0.16769886
2600.9087 -401.89365 -7.9543285 0.71093285 -0.018479915 -0.70301706 0.14051063
2577.2993 -377.58786 -133.48567 0.81167972 0.053106248 0.58168358 0.15727489
2561.427 -394.14056 -95.27404 0.87444681 -0.35555762 -0.33003271 0.1833072
2575.4827 -379.00452 -53.505344 0.95074248 0.0028377608 -0.30996883 0.14040372
2603.063 -389.87714 -5.9792671 0.7518034 0.095058881 -0.65249938 0.12182325
2565.0991 -372.00354 -95.341324 0.98136497 0.099467792 -0.16440505 0.18579856
2580.0771 -367.83224 -134.66576 0.73111862 -0.32857218 0.59791797 0.15064774
2598.8821 -375.80408 -8.4989901 -0.6555053 -0.16904397 0.73602784 0.14016217
2584.9763 -410.24744 -24.278158 0.79236352 -0.06587296 -0.60648233 0.14838728
2585.8232 -422.56952 -23.425907 0.75344115 0.11488073 -0.64740157 0.14970647
2547.3733 -404.99606 -106.52283 0.80552816 -0.36766899 -0.46469769 0.17113109
2599.1204 -317.99969 -106.47766 0.71565014 0.68810868 0.11979692 0.12221042
2596.2502 -298.92276 -66.589767 -0.48828283 -0.66769761 0.56192505 0.10372996
2572.5508 -403.43347 -60.204769 0.9599418 -0.084322743 -0.26721048 0.16219781
2584.3149 -436.00592 -21.387569 -0.63058978 0.011868009 0.77602553 0.16144872
2572.0962 -390.06232 -62.3657 0.9472217 -0.053853646 -0.3160235 0.12744011
2562.4814 -380.31268 -105.15923 0.97307897 -0.20537521 -0.10458663 0.19122556
2563.291 -369.01602 -105.97863 0.97212273 -0.21093397 -0.10239277 0.20603488
2557.7222 -392.37711 -104.49275 0.84659588 -0.41270161 -0.33608446 0.19592623
2572.1428 -412.66354 -63.94342 -0.52981699 -0.83078301 0.17056824 0.20391408
2588.041 -303.90088 -106.49748 0.8154726 0.56289101 0.13475204 0.1514127
2571.4568 -416.01431 -61.144985 0.95270473 -0.029867047 -0.30242631 0.18248869
2571.6919 -272.12308 -63.979115 0.78605789 0.54806232 -0.28590322 0.084820576
2578.7739 -283.07962 -65.651917 0.7101438 0.58316505 -0.39447981 0.080937833
2563.5017 -241.21809 -109.40754 0.95176178 0.027682243 0.30558673 0.2301411
2567.4878 -263.85431 -104.60014 0.80593467 0.49581599 0.32347462 0.16570504
2557.6296 -245.84689 -63.135612 0.9147988 0.40114522 -0.047176961 0.12751117
2554.1833 -235.04091 -64.17794 0.93635279 0.3460407 0.059154507 0.17043939
2561.0342 -251.51506 -105.06293 0.96745783 0.11629687 0.22472295 0.19464095
2555.1809 -237.26459 -24.585205 -0.5419215 -0.79636908 0.26854673 0.11915872
2563.7385 -259.09497 -63.330414 0.87466937 0.45532355 -0.16623457 0.080721453
2588.116 -402.52103 -17.2624 0.74435884 -0.047786694 -0.66606784 0.14930679
2588.2947 -414.43793 -17.252605 0.70808828 0.054559901 -0.70401293 0.13583232
2576.0408 -395.95642 -49.681274 0.94810319 -0.043060649 -0.31503356 0.12091215
2559.7861 -255.27361 -92.710884 0.932495 0.3265228 0.15438904 0.1558972
2556.2166 -240.8129 -51.003937 0.90992838 0.41476056 0.0020093154 0.15438555
