# .PCD v0.7 - Point Cloud Data file format
VERSION 0.7
FIELDS x y z normal_x normal_y normal_z curvature
SIZE 4 4 4 4 4 4 4
TYPE F F F F F F F
COUNT 1 1 1 1 1 1 1
WIDTH 449
HEIGHT 1
VIEWPOINT 0 0 0 1 0 0 0
POINTS 449
DATA ascii
2559.6565 -799.21075 422.29199 0.95715505 -0.28838584 0.026225807 0.12683876
2540.4978 -846.52087 418.42288 0.82942945 -0.32178539 -0.45661905 0.13576619
2547.2346 -830.77716 419.34332 0.85347235 -0.28976017 -0.43315586 0.11712614
2554.5686 -815.18536 421.51358 0.92771935 -0.30864787 -0.20993651 0.11055806
2580.1111 -735.61633 425.23209 0.8898741 -0.28703669 0.35458994 0.086994231
2585.4019 -719.70544 426.78958 0.80872089 -0.3417609 0.47871709 0.087130472
2564.4751 -782.98315 424.57959 0.93586957 -0.26652175 0.23046535 0.13904139
2569.1262 -766.77484 425.39102 0.90984279 -0.30868942 0.27730298 0.12589484
2585.8298 -758.57507 386.19583 0.21738771 -0.068321675 0.97369128 0.12056296
2565.4214 -759.93726 382.87302 0.87027782 -0.30000412 -0.3906585 0.16790278
2574.0044 -724.19818 390.35541 0.82445592 0.081869654 -0.559973 0.1428967
2558.2034 -777.35229 384.12311 0.8411172 -0.30637491 -0.44570878 0.15007398
2573.656 -742.64398 385.99866 0.88934141 -0.21965937 -0.40102565 0.16110502
2541.9626 -811.95435 388.39911 0.82804352 -0.49294382 -0.26711473 0.038690008
2558.4141 -802.81378 433.31708 0.98472708 -0.17150435 0.029980896 0.12169232
2555.1147 -822.22101 432.88699 0.92876273 -0.18546052 -0.32094258 0.098388039
2560.0493 -784.3446 436.04147 0.90678144 -0.21156232 0.36467639 0.14562726
2534.8047 -894.54901 441.93198 -0.049310427 0.11381044 0.99227804 0.094271973
2550.0891 -839.83423 430.65707 0.83268821 -0.21544674 -0.5101108 0.11982753
2545.8105 -857.38342 429.39801 0.84329587 -0.036700394 -0.5361951 0.15995654
2568.4976 -733.4314 382.23788 -0.63658196 0.18339092 0.74908692 0.11662165
2566.7512 -752.15009 382.69833 0.7303521 -0.30531836 -0.61103725 0.17058934
2572.0713 -750.35034 433.64291 0.88635492 -0.2939952 0.35768953 0.10369333
2566.0811 -768.55121 434.42728 0.89539301 -0.3225973 0.30692405 0.12982824
2565.0312 -768.72754 393.9931 0.35073072 0.14722681 0.92483091 0.16335654
2557.4609 -812.16943 437.31027 0.97862685 -0.17712978 -0.10447276 0.10976575
2567.7454 -756.81256 436.46078 0.85412163 -0.25281242 0.45449111 0.095528707
2562.6614 -778.70258 389.22952 0.84699792 -0.35818061 -0.39281189 0.15842812
2541.6968 -809.94659 390.7959 0.70249301 -0.56783819 -0.42902601 0.071637765
2558.1912 -792.21283 438.45749 0.95830864 -0.12645781 0.25622839 0.13051425
2554.8018 -831.44354 436.47095 0.89373583 -0.22237912 -0.38959441 0.11965697
2559.8401 -774.3537 437.6604 0.78952539 -0.27832568 0.54697758 0.11695028
2551.6299 -794.0365 391.03174 0.69648188 -0.48975536 -0.52445465 0.11794116
2575.3274 -739.78906 433.5369 0.86224532 -0.22346506 0.45452872 0.079401724
2545.4915 -867.30603 433.07629 0.76957053 -0.11836787 -0.62749523 0.12572137
2575.1589 -742.8681 387.87067 0.91160405 -0.25052172 -0.32590932 0.14658423
2539.3616 -887.81238 437.5658 -0.28914618 0.17250808 0.9416132 0.13951398
2571.4792 -761.14929 388.29202 0.95747107 -0.2456592 -0.15132962 0.18624385
2551.8076 -850.22052 435.45935 0.77721846 -0.16333891 -0.60766095 0.1372644
2539.0437 -898.40765 444.48425 0.017153198 0.23189276 0.97259009 0.10896426
2546.342 -859.75635 431.7114 0.75130928 -0.068120584 -0.65642512 0.14715114
2568.7114 -749.91003 438.29538 0.8319692 -0.27822286 0.48002011 0.098625623
2551.7415 -842.60541 433.88229 0.82198852 -0.17046279 -0.54339427 0.13577059
2558.4978 -804.27728 435.1189 0.98144269 -0.17883658 -0.069193788 0.12930104
2571.0928 -754.30829 386.48038 0.87218666 -0.33044228 -0.36069143 0.17891468
2576.0735 -735.78021 387.51944 0.8782385 -0.22294708 -0.42307416 0.16604742
2555.4646 -824.54395 435.82971 0.92460006 -0.22082323 -0.31040585 0.11217518
2543.9092 -803.98962 389.87125 0.63298243 -0.58629924 -0.50555557 0.1007498
2575.4429 -732.23029 437.24557 0.86641812 -0.23991358 0.43790534 0.08962445
2562.5281 -768.56879 438.64978 0.8737154 -0.29617023 0.38588157 0.12129667
2560.9314 -771.01947 385.76028 0.7174235 -0.36851239 -0.59118706 0.14681968
2557.0837 -785.22699 439.22711 0.84938085 -0.14712718 0.50685871 0.13650638
2543.9658 -818.53558 402.28607 0.79005641 -0.40907612 -0.45658249 0.06351117
2535.6748 -831.81421 403.2215 0.74734998 -0.42700458 -0.50905311 0.077140331
2583.9229 -728.97278 406.00577 0.94083536 -0.33151346 -0.070197202 0.094538055
2572.6584 -759.82996 404.63251 0.92826265 -0.36464483 -0.073229894 0.088269502
2567.1279 -774.42474 403.54654 0.95689964 -0.28546953 -0.053387329 0.10691674
2578.7537 -745.23828 405.95087 0.95165145 -0.30085352 -0.062021282 0.079091728
2569.7708 -771.64478 391.91241 0.93863052 -0.34178543 -0.046426456 0.17451699
2573.5186 -751.81323 431.21591 0.79932076 -0.18435523 0.57192612 0.079129025
2573.3579 -753.98553 391.26669 0.9391309 -0.27563411 -0.20508298 0.15210637
2558.0681 -801.01788 437.24698 0.97503555 -0.1404137 0.17201656 0.13113503
2549.52 -801.02911 393.73495 0.68664747 -0.5456807 -0.48036221 0.12455168
2583.7937 -720.79138 397.61362 0.92398494 -0.12130231 -0.36268109 0.10771579
2558.2192 -783.31122 438.6731 0.84719574 -0.1786184 0.50035465 0.13589904
2556.625 -820.29761 436.75238 0.97276902 -0.17817159 -0.14824055 0.116901
2550.073 -875.15613 438.18658 -0.087874636 0.18779238 0.97826993 0.13084945
2549.2957 -892.10651 443.32504 0.085524648 0.25856471 0.96220052 0.11427636
2559.842 -786.92157 392.07022 0.83222252 -0.41308486 -0.36981964 0.12250509
2550.3967 -855.81317 434.32785 0.75990063 -0.1405388 -0.63466519 0.15254407
2555.2908 -838.34583 437.19547 0.82754773 -0.22170392 -0.51576364 0.12153573
2567.9941 -768.13098 431.13022 0.77074248 -0.2455401 0.58793372 0.11345052
2578.311 -736.85175 392.23785 0.92628515 -0.19935608 -0.31977019 0.11851083
2573.1841 -755.41577 426.47693 0.89835411 -0.30397362 0.31711191 0.093868129
2563.76 -785.37842 424.66855 0.9491595 -0.25770551 0.18078743 0.14022815
2578.0471 -740.086 426.53278 0.90705538 -0.2433929 0.34352648 0.086974025
2556.1594 -817.68195 426.87021 0.95067692 -0.25885594 -0.17090064 0.11157103
2577.4856 -758.38361 389.35541 0.17460714 0.07243935 0.98196989 0.18411615
2577.3538 -772.85236 390.20081 0.24174495 0.22056587 0.9449392 0.12087049
2563.7163 -883.3277 439.44168 0.064574845 0.33108279 0.94138956 0.13061339
2553.1694 -869.41327 436.73062 0.74695128 -0.044583809 -0.66338223 0.17386472
2552.7483 -834.45825 428.94992 0.92739588 -0.17327483 -0.33153087 0.1194488
2568.0696 -770.24768 426.78827 0.91402501 -0.25458917 0.3158206 0.11884909
2550.4902 -849.57074 431.83408 0.83028865 -0.15802096 -0.53446245 0.12672974
2559.6978 -801.43311 424.29315 0.95478326 -0.29127058 0.059584543 0.11573108
2575.0967 -745.65851 389.81186 -0.47978684 -0.16228504 0.86224598 0.17568536
2591.0293 -709.82062 424.23294 0.81339312 -0.32292685 0.48384902 0.12476818
2583.7627 -725.63782 425.91306 0.84538537 -0.30589291 0.43789625 0.082896784
2569.9773 -777.16901 392.6666 0.90757537 -0.41309607 0.075223379 0.20022574
2566.9993 -788.758 400.06113 0.57605362 -0.71950012 -0.38791987 0.12840375
2578.9194 -742.34448 393.57758 0.95159811 -0.22250125 -0.21202406 0.12000385
2583.9697 -724.35126 395.13107 0.9104982 -0.26707003 -0.31570017 0.092579685
2575.7324 -761.42426 391.36566 0.98703271 -0.10788126 0.11886149 0.19150302
2574.054 -769.04773 390.9935 0.32058927 0.14863516 0.93548387 0.1401473
2579.6865 -730.89368 430.84875 0.8612563 -0.29226029 0.41571805 0.080896057
2571.1472 -750.85663 386.99667 -0.68908364 0.034632932 0.72385377 0.21580625
2564.0996 -784.0943 429.65955 0.87349725 -0.24123588 0.42285666 0.12456889
2570.1355 -765.93268 428.89481 0.83093131 -0.25024638 0.49692041 0.10346063
2551.3735 -858.06061 434.67004 0.74409026 -0.12067806 -0.65708941 0.14749646
2556.4231 -821.38367 434.35522 0.96394736 -0.23054484 -0.13287061 0.11542808
2549.1814 -876.36151 438.54056 0.06912367 0.24315001 0.96752262 0.12639858
2559.5701 -802.71045 432.19934 0.9630785 -0.22872135 0.1420082 0.12208361
2553.1047 -839.02692 433.94278 0.85616463 -0.21988398 -0.46758229 0.11968331
2574.1907 -748.04498 430.82007 0.87978858 -0.29906213 0.3695049 0.091797777
2560.895 -899.21606 445.22388 -0.019008348 0.32311788 0.94616783 0.13430057
2548.5371 -840.15851 426.6662 0.82380408 -0.24318969 -0.51206011 0.11950251
2559.7273 -804.86487 426.66724 0.9637481 -0.25603938 0.075056173 0.12395915
2569.9116 -768.94257 424.95444 0.90099734 -0.30848277 0.30502826 0.10834226
2552.4783 -821.75311 424.96326 0.8882876 -0.26993644 -0.37159041 0.10861353
2575.7944 -751.64166 424.50165 0.90121382 -0.29107705 0.32107294 0.083562493
2546.155 -858.62531 429.79172 0.70989734 -0.14416045 -0.68939358 0.16650192
2589.2896 -758.47186 385.6839 0.26420665 -0.096668936 0.95960927 0.15516679
2581.3757 -733.77887 424.73816 0.87661666 -0.31047028 0.36762944 0.077431716
2565.1331 -787.20172 424.99084 0.90862912 -0.27850789 0.31116959 0.1116939
2586.3035 -717.08423 427.15997 0.81574136 -0.34449127 0.46464157 0.096207619
2558.1843 -811.26013 436.93762 0.97542471 -0.21425612 -0.051390089 0.11063513
2556.6169 -831.32959 439.84915 0.95247954 -0.18874522 -0.2390773 0.10053983
2576.1565 -736.59882 433.89853 0.89416277 -0.24831069 0.37257853 0.078512095
2558.3567 -873.78528 438.27686 0.133159 0.16254646 0.97767442 0.10370883
2554.123 -851.47675 441.92477 0.93806934 -0.17060792 -0.30152756 0.14156663
2577.3496 -746.39453 391.83374 0.98377579 -0.10541649 -0.1451638 0.16155335
2571.1614 -780.50159 394.17648 0.85584569 -0.51312721 0.065027818 0.18863159
2559.8779 -894.50702 443.1586 0.063806593 0.2649138 0.96215874 0.12758777
2579.7175 -718.57025 435.62308 0.78566837 -0.30060747 0.54070359 0.1049884
2559.5486 -791.89105 435.82257 0.90805697 -0.21912713 0.35695353 0.11933187
2564.8372 -773.31067 433.79218 0.84112388 -0.26807961 0.46972752 0.11416578
2570.1746 -754.42078 434.55621 0.85986078 -0.30799642 0.40715802 0.09569364
2574.3857 -764.34558 391.58859 0.95895916 -0.24005111 0.15090676 0.19651781
2572.4543 -766.52679 409.92844 0.95525795 -0.29244766 0.044233438 0.10413239
2550.5278 -819.37024 412.55038 0.86949003 -0.37192565 -0.32505131 0.098874301
2584.0833 -730.36627 409.10278 0.94879925 -0.31525642 -0.019833107 0.088832214
2560.1279 -801.08295 412.65433 0.89115709 -0.4426938 -0.099303894 0.10322146
2578.4551 -747.84503 410.08591 0.95055497 -0.3097007 -0.023037029 0.065648653
2566.5752 -785.1861 411.10608 0.94822252 -0.31706497 -0.018543974 0.10579006
2558.9756 -783.40857 436.79276 0.7978726 -0.15602373 0.58228505 0.12534299
2546.9878 -878.7002 438.73428 -0.18280007 0.12959519 0.97457129 0.11732403
2555.657 -841.24292 438.18054 0.75725681 -0.202107 -0.62105948 0.13242076
2550.0046 -900.27142 444.97812 -0.0043734 0.25671324 0.96647775 0.13046047
2556.9138 -802.73926 439.39853 0.9540019 -0.11925125 0.27506283 0.12191745
2557.0906 -786.10437 389.52148 0.74971205 -0.39601558 -0.53019196 0.14980261
2549.8792 -858.5567 435.51535 -0.6703189 0.063473798 0.73935354 0.15363163
2556.7139 -822.82794 441.17929 0.98184055 -0.13136317 -0.13686784 0.10867103
2573.7366 -751.37225 388.81509 0.9535135 -0.22808497 -0.19694981 0.16221005
2562.843 -764.9444 437.86823 0.73913234 -0.26177284 0.62061125 0.11212419
2569.2751 -747.08691 437.20847 0.77297074 -0.24414183 0.58558601 0.094590455
2568.6318 -770.20306 390.42569 0.92710769 -0.36267403 -0.094545692 0.15739986
2575.1541 -729.39349 438.7562 0.85778916 -0.231914 0.45870867 0.088515326
2582.8826 -711.65546 433.85141 0.7689178 -0.25108624 0.58798057 0.11681515
2575.1604 -732.78754 385.66406 0.80638045 -0.27932066 -0.52127779 0.13635433
2541.8064 -839.93256 417.12927 0.79874998 -0.27824497 -0.53345871 0.13699196
2557.5503 -810.03009 419.34183 0.95832741 -0.26942948 -0.094954476 0.11532319
2567.0161 -777.65851 418.18155 0.94711524 -0.30935302 0.085284464 0.10528226
2549.7617 -824.62866 418.4985 0.8936981 -0.26803556 -0.35980636 0.11363577
2572.6003 -761.20038 418.06894 0.94299215 -0.3147018 0.10829856 0.088126354
2562.4077 -793.44635 418.06396 0.95233661 -0.3019633 0.043280557 0.11135516
2535.2905 -854.71497 419.96359 -0.64265412 0.30479607 0.70291895 0.18456401
2583.5374 -730.35565 418.83203 0.91203219 -0.34953877 0.21452269 0.075475767
2577.572 -745.84198 418.34454 0.94276476 -0.30861899 0.12628917 0.07712914
2566.9194 -780.34705 416.74426 0.94761348 -0.29742071 0.11648872 0.11129957
2548.085 -822.69122 414.14972 0.88520133 -0.29344705 -0.36098114 0.12026554
2554.7334 -808.43652 414.20828 0.91553688 -0.35227466 -0.19415149 0.099621676
2541.5874 -836.23102 414.61136 0.79242474 -0.31168056 -0.5243265 0.13372777
2561.7778 -795.25262 416.0296 0.9504627 -0.3087258 0.036180072 0.11276294
2538.1101 -850.6745 420.9678 -0.60682428 0.28859138 0.74059391 0.17722747
2571.6926 -765.54663 416.85095 0.93937844 -0.32573014 0.10708907 0.08602798
2575.926 -751.31787 416.06299 0.9438833 -0.32398072 0.064193755 0.075533837
2581.5522 -736.57477 416.70248 0.94134277 -0.27649486 0.19345389 0.077386111
2539.7292 -831.50891 408.20697 0.84670353 -0.3425855 -0.4070974 0.069878973
2557.9104 -800.22778 410.48849 0.93268514 -0.35154426 -0.08071582 0.12690675
2569.7981 -766.0354 411.05469 0.94351459 -0.33121145 0.008898071 0.098192476
2582.7676 -731.91412 411.97903 0.93463337 -0.34546372 0.084352285 0.091571905
2549.5493 -816.5047 408.52124 0.88570958 -0.39976513 -0.23602191 0.095740736
2575.9954 -749.21899 411.06607 0.91382205 -0.40593487 0.012087567 0.079759672
2563.8762 -783.24359 410.90057 0.95058465 -0.31016099 -0.013746072 0.11367682
2540.0171 -891.1413 442.37296 -0.026711438 0.21971086 0.97519928 0.10426387
2555.5295 -835.25323 437.47165 0.84876341 -0.23483273 -0.47376603 0.12140293
2552.4695 -854.94043 436.66791 0.70999795 -0.14939408 -0.68817461 0.15845598
2542.3582 -872.00525 436.6235 -0.06534072 0.18339384 0.9808656 0.14991084
2559.9514 -780.91077 387.62173 0.85137212 -0.32854539 -0.40892965 0.14771527
2558.7551 -777.46051 438.27994 0.79040098 -0.20738389 0.57641846 0.13022664
2577.4507 -723.83746 436.65326 0.79760259 -0.27257213 0.53808415 0.083376341
2566.6855 -763.87201 385.65854 0.86754739 -0.32418749 -0.37717891 0.15591198
2565.9705 -759.98956 436.98099 0.80624962 -0.28424022 0.51881504 0.097549379
2557.3152 -815.73102 436.56058 0.96524775 -0.20093888 -0.16709398 0.11386129
2573.2559 -745.58588 386.58478 0.90784645 -0.23014548 -0.35049665 0.16237466
2557.7424 -796.66937 439.18915 0.93949419 -0.16804187 0.29851738 0.11872222
2586.1716 -706.61322 435.52325 0.8033731 -0.37515417 0.46244025 0.12118668
2550.3406 -797.51312 391.44342 0.70753992 -0.52246732 -0.47583103 0.12998071
2570.8972 -742.34625 437.47263 0.81060916 -0.28002083 0.51429677 0.085093044
2555.7559 -835.73828 443.35544 0.98120105 -0.11442084 -0.15541023 0.11118671
2543.9097 -872.78125 438.17926 0.015393501 0.13300842 0.99099535 0.12689345
2557.7251 -795.52991 437.99197 0.89837682 -0.1856308 0.39807075 0.11772811
2548.8928 -853.90967 437.05182 0.40819836 -0.011869551 0.91281611 0.14943445
2576.6055 -746.15332 393.83664 0.94366139 -0.23538381 -0.23258902 0.13460857
2568.0376 -757.46741 435.76273 0.82444859 -0.22376782 0.51981968 0.096470214
2580.9067 -721.57507 432.34619 0.79232508 -0.22167063 0.56840396 0.086191371
2572.8181 -739.49005 437.06995 0.83948433 -0.22627571 0.49402967 0.088231809
2567.105 -781.20123 397.5726 0.85889226 -0.47321025 -0.19589823 0.16357279
2573.5046 -764.65155 393.20676 0.96471179 -0.25097418 0.079643674 0.17681675
2557.4995 -814.32123 440.94537 0.97719681 -0.20932916 -0.035604112 0.12054254
2549.928 -895.93518 443.80359 0.016760582 0.21749322 0.97591794 0.12071463
2562.2395 -775.95685 434.8826 0.75289249 -0.20884618 0.62412834 0.11302483
2556.5142 -823.7088 435.38858 0.95052004 -0.18631373 -0.24859369 0.10838118
2576.2512 -740.86456 390.5802 0.91210878 -0.021493159 -0.40938449 0.15377231
2579.7817 -731.28052 430.49493 0.88703078 -0.30036256 0.35065466 0.083322659
2552.8994 -863.05432 437.03665 -0.68190151 0.041195121 0.73028302 0.15262826
2573.1536 -749.44098 431.71289 0.88030857 -0.30539986 0.36302581 0.094314672
2561.9011 -785.69629 433.01691 0.9203878 -0.22091012 0.322622 0.12871841
2567.9287 -766.9585 431.93726 0.9092738 -0.2975727 0.29098395 0.12009873
2558.8398 -803.75836 432.94507 0.98095107 -0.19374742 -0.014031927 0.12551178
2585.9741 -783.41925 386.11563 0.65793538 0.045774106 0.75168192 0.12783882
2585.2993 -713.42236 431.38672 0.7863152 -0.35942692 0.50251442 0.10777862
2552.9932 -883.88306 440.42511 -0.015444546 0.26516789 0.96407855 0.11343195
2554.7512 -843.95026 437.15283 0.83999407 -0.16794366 -0.51595044 0.12051934
2577.8098 -759.89813 387.95337 0.90147263 -0.041932419 0.43080008 0.20430987
2584.093 -731.62158 416.44214 0.92472023 -0.3184216 0.20856693 0.076502852
2552.4417 -821.15259 419.86957 0.91039932 -0.31448674 -0.26883295 0.10542782
2565.603 -786.28131 418.51236 0.94019151 -0.28187874 0.1912701 0.10054683
2577.7468 -749.59131 416.88712 0.93913412 -0.31187207 0.14409332 0.070841998
2551.259 -842.51654 428.90082 0.87796086 -0.18570612 -0.44124594 0.12195836
2559.2542 -804.06885 419.88882 0.94633287 -0.32091376 0.038320445 0.11117795
2571.2979 -767.13007 417.64731 0.94462597 -0.30410784 0.12328916 0.086689629
2563.5415 -779.44537 432.68512 0.88354301 -0.25525519 0.39267862 0.12657027
2565.9736 -900.69604 446.20587 -0.0075993035 0.37675917 0.92628008 0.16512331
2574.1777 -744.02429 432.52631 0.86561751 -0.27901086 0.41576344 0.092039414
2580.8921 -725.96625 430.93762 0.83568209 -0.26152226 0.48295084 0.080505364
2551.2317 -836.21759 430.67728 0.84187001 -0.29958984 -0.44888839 0.11303064
2587.5627 -708.23767 429.04782 0.75824094 -0.23715362 0.6073128 0.11348855
2573.3088 -748.37958 389.6843 -0.49693263 -0.070093498 0.8649537 0.20033538
2543.0681 -873.16266 436.36005 -0.10268836 0.24499518 0.9640708 0.14973272
2559.678 -798.36346 432.80615 0.97300351 -0.19866446 0.11745893 0.12206056
2556.9324 -817.7243 433.45972 0.95565534 -0.2360515 -0.17607538 0.10820217
2568.6013 -762.065 432.93491 0.89255911 -0.32905266 0.30832228 0.11144053
2546.0303 -854.20331 429.28101 0.79493433 -0.21811119 -0.56613332 0.15155897
2576.8772 -766.94287 390.42493 0.39050204 0.011880636 0.92052537 0.1648621
2566.5527 -779.56866 405.54745 0.94130403 -0.32433304 -0.093566954 0.11770346
2577.3442 -747.92938 404.77042 0.92578864 -0.36700857 -0.090664648 0.087216511
2572.168 -763.73389 405.84943 0.94516015 -0.31994236 -0.065644711 0.10298006
2551.8013 -810.97791 407.44391 0.84818393 -0.46046031 -0.26184025 0.096456364
2583.29 -731.32898 405.20062 0.92537928 -0.36315823 -0.10857872 0.089417011
2561.5337 -795.78375 408.49304 0.8827877 -0.43536085 -0.17648441 0.10636704
2566.5657 -762.49005 434.90375 0.78970355 -0.26890674 0.55141413 0.100057
2572.353 -766.7926 391.2659 0.94229233 -0.31740916 0.10647346 0.17873482
2579.6423 -731.10962 393.38025 0.92856407 -0.13004559 -0.34764475 0.12055502
2575.0303 -748.80084 390.23697 0.95265603 -0.19561914 -0.23276518 0.15361835
2573.0842 -744.88251 434.74188 0.8409633 -0.2399966 0.48495609 0.082767747
2550.3069 -804.76483 397.56433 0.7025218 -0.58304995 -0.40806359 0.10166372
2568.3167 -776.31848 395.16641 0.9230541 -0.37368953 -0.091253929 0.16490406
2574.519 -760.24658 393.98135 0.98700649 -0.16022272 -0.012121318 0.18502082
2557.2878 -792.55634 392.93201 0.8399263 -0.50075459 -0.20920955 0.14574608
2577.0645 -744.21527 394.14584 0.94300586 -0.18803303 -0.27456051 0.13261473
2539.7036 -861.92102 431.05139 -0.22535539 0.40028796 0.88824797 0.18087919
2557.1968 -812.57629 422.50049 0.95401919 -0.28278211 -0.099406444 0.11576709
2542.9619 -846.98853 421.0256 0.80598295 -0.24194722 -0.54023421 0.14593406
2585.7441 -725.9079 419.90744 0.89065486 -0.32067084 0.32234159 0.076328158
2550.092 -830.14197 423.50552 0.8590337 -0.25347716 -0.44475883 0.10975619
2563.4441 -796.37836 420.56519 0.93174261 -0.27195036 0.24062158 0.1094334
2567.9702 -778.11285 420.24872 0.93363142 -0.27337769 0.23151027 0.10560978
2573.9646 -760.52814 419.96664 0.94174367 -0.27526313 0.19325916 0.088695019
2597.9243 -769.23773 378.64276 0.45459095 0.37490731 0.80795521 0.14850165
2579.4131 -742.52777 419.64001 0.93658203 -0.27870804 0.21245225 0.074633814
2549.1704 -851.45129 430.60583 0.81480867 -0.18476608 -0.54949826 0.14416277
2554.0242 -869.68353 436.16876 0.0028543267 0.27281833 0.96206135 0.16396794
2557.3945 -812.35571 423.57751 0.9549135 -0.28010848 -0.098384388 0.11841823
2580.8477 -739.22998 418.64359 0.94014871 -0.27047616 0.20727518 0.083256394
2564.0715 -794.44507 420.23169 0.92937648 -0.24375898 0.27720195 0.11395875
2586.6309 -721.47913 418.70657 0.89718109 -0.37800944 0.22841845 0.12051886
2574.4619 -757.13391 419.50839 0.93090212 -0.31766248 0.18031022 0.089223936
2596.6072 -768.65033 379.05014 0.4809761 0.27700278 0.83182418 0.12619835
2556.0261 -889.08069 441.61462 0.0020739704 0.39000398 0.92081082 0.14469604
2553.9873 -832.96478 429.69876 0.94343448 -0.15983978 -0.29048693 0.12644839
2569.0906 -775.12488 420.34381 0.93603241 -0.28155762 0.21111278 0.10468858
2576.3823 -762.38165 387.58896 0.17250365 0.044775348 0.98399067 0.11015674
2548.1965 -806.45288 395.53238 0.65751362 -0.61320615 -0.43778318 0.076335296
2556.1663 -791.42798 392.50415 0.7379654 -0.5062694 -0.44620442 0.12236866
2567.9768 -776.39868 391.90582 0.92217237 -0.37641832 -0.08892329 0.18489705
2569.8052 -721.68311 392.10281 0.6710397 0.3535125 -0.65171671 0.12154155
2574.9329 -759.18823 392.04416 0.97918999 -0.19757889 0.046362698 0.18766208
2577.7395 -740.35144 392.98026 0.94073826 -0.18712795 -0.28283319 0.1242421
2553.0469 -858.7829 435.23459 0.83085036 -0.0923253 -0.5487839 0.17452115
2569.0752 -781.21613 420.34476 0.94322443 -0.24035694 0.22925135 0.10509536
2562.2083 -799.23907 421.5683 0.94845009 -0.24590862 0.19992857 0.11674973
2553.0063 -836.62122 429.99069 0.90680075 -0.215845 -0.36210951 0.11648484
2574.0339 -763.69757 419.68372 0.93960702 -0.2412841 0.2427357 0.096353933
2592.0374 -769.06812 383.0975 0.38167703 0.24275303 0.89184844 0.10300092
2555.9307 -817.34741 425.09109 0.95067692 -0.25885594 -0.17090064 0.11157103
2565.2358 -877.98956 438.98825 -0.080345929 0.31656235 0.94516283 0.15690851
2585.856 -726.24597 419.23996 0.89466047 -0.3146407 0.31714955 0.076886714
2593.3909 -708.69458 418.40973 0.86875254 -0.31422371 0.38279569 0.12546311
2580.7981 -744.9845 418.4765 0.92394644 -0.2487213 0.29062122 0.076185971
2547.5942 -827.55841 415.33389 0.87797004 -0.30753753 -0.36686406 0.11699989
2542.3772 -854.77014 428.61841 -0.350196 0.32043651 0.88016087 0.1995783
2550.3738 -866.46179 431.46664 0.46654719 0.36427382 0.80600142 0.15490267
2541.8533 -841.4043 417.43607 0.8099122 -0.22473319 -0.54179072 0.15086259
2542.127 -844.58508 421.91006 0.91094017 -0.27611113 -0.30651364 0.091574028
2566.7661 -738.32977 385.20993 -0.4089072 -0.041698277 0.91162282 0.16125362
2593.3628 -703.52472 428.64438 0.72665757 -0.47760659 0.49382252 0.16941687
2562.3906 -754.50043 388.04431 -0.066328011 0.16321117 0.98435903 0.12796494
2576.0298 -751.73206 423.62509 0.90464371 -0.28891382 0.31328669 0.080595054
2565.8284 -788.77509 424.1199 0.91136843 -0.26308465 0.3165344 0.12625289
2591.1428 -764.97455 384.36404 0.3645983 0.064986847 0.9288944 0.15583517
2570.7417 -770.33423 424.09729 0.92010403 -0.26493028 0.28847966 0.10696236
2590.2861 -715.60095 420.55722 0.84799623 -0.30301327 0.43483946 0.10525665
2582.9673 -733.4151 421.83203 0.8911894 -0.28678846 0.35147384 0.085828394
2547.9148 -847.49512 429.85629 0.80201226 -0.20272557 -0.56185287 0.12609626
2554.3748 -829.34113 433.34262 0.88036263 -0.21845856 -0.42099583 0.10852181
2558.1348 -811.02802 432.98999 0.97645873 -0.20316602 -0.072470069 0.1079352
2579.7637 -749.78528 391.22711 -0.14529493 -0.20981702 0.96688479 0.20505996
2561.675 -793.0127 430.55905 0.92723507 -0.21166435 0.30892277 0.11295865
2547.2056 -866.17505 433.20889 -0.61924458 0.049156897 0.78365797 0.14342979
2591.9641 -704.98334 426.97437 0.76150841 -0.35365576 0.54316896 0.14153236
2583.6238 -722.20667 428.35107 0.8372398 -0.27737287 0.4712683 0.090862237
2547.8413 -886.60895 440.63776 -0.09389624 0.23120618 0.96836317 0.12079006
2572.554 -757.73517 428.24097 0.89894724 -0.25573486 0.35565934 0.097963564
2566.0181 -774.70807 430.57373 0.88495445 -0.26313895 0.3842051 0.11983347
2577.9045 -739.71417 428.55106 0.89946753 -0.2346915 0.36861646 0.079882063
2587.7297 -770.0882 383.99127 0.53412735 0.037072219 0.84459078 0.16074969
2578.8916 -744.04144 414.659 0.95038158 -0.29309425 0.10426205 0.075021565
2561.6345 -798.39807 417.64908 0.93612462 -0.34352186 0.075255364 0.10897088
2555.8267 -816.43103 420.59174 0.93793684 -0.2948027 -0.18266313 0.11310259
2548.0022 -834.5451 421.89105 0.83936399 -0.24435024 -0.48555231 0.11700533
2567.9478 -779.82812 416.33279 0.9488436 -0.27438855 0.15622653 0.106852
2586.7354 -726.44922 413.47522 0.92555314 -0.3249813 0.19426404 0.079604045
2593.9883 -709.94769 411.90039 0.9223966 -0.26998585 0.27621025 0.11670795
2574.0918 -761.60809 415.32355 0.95398372 -0.28854173 0.081600681 0.075981244
2589.3733 -722.22858 408.71472 0.95315582 -0.2744078 0.12725706 0.087652065
2560.8057 -794.42847 406.84018 0.86966223 -0.46251288 -0.17253841 0.11850429
2581.3643 -736.18011 408.16443 0.95317686 -0.29650941 -0.059464484 0.078954682
2576.6785 -750.87805 408.00711 0.9347598 -0.35467854 -0.02066939 0.075609006
2573.5579 -765.68243 408.91479 0.95855463 -0.28431505 0.018383389 0.10531127
2567.5212 -780.17548 406.96088 0.94533741 -0.31827936 -0.070960589 0.12102416
2550.3877 -844.65955 431.16025 0.79999566 -0.16893834 -0.57573152 0.12786388
2558.4197 -806.32166 426.98834 0.97525394 -0.2209422 -0.0080166822 0.11734954
2582.6375 -733.20416 422.73511 0.88027447 -0.29478145 0.37178057 0.085302293
2569.3767 -769.4361 425.44885 0.91036212 -0.28837579 0.29678306 0.10824314
2575.6113 -751.2066 424.21616 0.8982895 -0.30361414 0.31763875 0.082312547
2563.6074 -787.40613 426.42636 0.93897951 -0.23724857 0.2490595 0.11478154
2554.0334 -825.00787 428.9877 0.91677636 -0.21507487 -0.33654699 0.10480955
2543.7004 -862.27014 429.35864 0.71483284 -0.11355847 -0.69001341 0.16043508
2584.8289 -759.21582 387.43793 0.31854984 -0.037590645 0.94716048 0.19312124
2561.3059 -887.65698 441.30093 0.055871408 0.24520868 0.96785903 0.11052283
2590.4849 -714.84998 421.09369 0.83633173 -0.32604355 0.44073212 0.10918725
2560.1003 -732.77435 381.86987 -0.3630656 0.043122746 0.93076515 0.096709304
2565.7786 -893.68365 443.08014 0.02734603 0.2078636 0.97777551 0.1385279
2556.9771 -849.51996 434.38165 0.48605528 -0.033223238 0.87329632 0.12163636
2555.7 -807.25598 441.01755 0.92863435 -0.1303539 0.34734157 0.12042872
2554.8442 -827.55109 443.99573 0.9774254 -0.17364711 0.12035911 0.092815086
2560.0398 -795.02429 401.49115 0.82920909 -0.47363871 -0.29678044 0.10366388
2569.9578 -778.88843 399.55212 0.91234726 -0.4031201 -0.071530789 0.14758211
2557.0254 -787.17108 437.2247 0.71691144 -0.14951123 0.68094373 0.11669528
2579.8096 -743.34753 398.45834 0.95609528 -0.2197257 -0.19391362 0.099189162
2567.4055 -749.81982 438.55478 0.77791107 -0.23571077 0.58249015 0.096947491
2575.8237 -761.53625 397.80719 0.97948581 -0.1997871 0.02631826 0.14860602
2574.7615 -731.64996 437.17029 0.80882072 -0.22857329 0.54181486 0.083561771
2562.0105 -768.05249 437.26953 0.71895438 -0.22786467 0.6566447 0.11318236
2547.5464 -829.19727 418.72128 0.84807068 -0.30612019 -0.43251193 0.11255997
2563.3291 -794.53577 418.2518 0.94326031 -0.29568648 0.15109423 0.11536555
2588.2117 -722.36664 415.42221 0.90174389 -0.31934795 0.29133284 0.084916294
2569.0969 -775.98456 417.27432 0.95248598 -0.24780942 0.1770903 0.097396895
2556.9541 -811.99127 419.31454 0.94477057 -0.31287387 -0.097562648 0.11646615
2581.03 -740.3255 415.94781 0.94927174 -0.26625586 0.16730508 0.074356854
2573.9539 -757.98315 416.99536 0.93496937 -0.34207699 0.093891278 0.082039736
2562.9861 -906.95544 449.11777 -0.11000038 0.35162356 0.92965627 0.18659964
2557.7354 -886.02533 441.26459 0.054519922 0.21130627 0.97589815 0.099179298
2574.3335 -754.24921 391.80869 0.97334749 -0.18191689 -0.13964586 0.1644619
2582.3784 -713.98645 433.72241 0.76531738 -0.27413002 0.58235902 0.11014473
2578.595 -736.48242 392.83023 0.92628515 -0.19935608 -0.31977019 0.11851083
2562.6082 -787.76813 397.70822 0.75536448 -0.53463387 -0.37893414 0.14872016
2569.7412 -749.99994 435.59238 0.78087455 -0.23963138 0.57689834 0.096879266
2575.2329 -731.77539 436.48026 0.8045612 -0.23559058 0.54514062 0.081802033
2556.5461 -806.43884 439.64395 0.94976759 -0.11966529 0.2891742 0.11891379
2558.5496 -786.37524 436.43182 0.79384702 -0.14374305 0.5908848 0.12688932
2556.3049 -825.03619 440.96613 0.98703325 -0.11720285 -0.10967605 0.10310222
2569.8831 -772.96222 393.00372 0.95100051 -0.30770621 -0.030247319 0.1689166
2558.0132 -865.63416 438.14923 -0.0019215633 0.092168905 0.99574155 0.10394581
2561.8459 -767.94812 437.86859 0.73683941 -0.24826941 0.62883222 0.1132643
2557.4465 -844.65613 440.81342 0.73113805 -0.19607744 -0.65344536 0.13420801
2589.0356 -777.02521 383.95062 0.57872856 0.20015194 0.79057729 0.14810194
2559.1392 -803.74164 432.99423 0.96423894 -0.20703353 0.16547012 0.1268491
2554.647 -841.539 437.14722 0.8852309 -0.17344192 -0.4316065 0.12814513
2568.8792 -765.61127 430.63193 0.90237188 -0.31293511 0.29630497 0.11456925
2576.6001 -752.43573 390.22696 0.095687829 -0.069482088 0.9929834 0.21149018
2562.8125 -884.23334 439.17688 0.21415365 0.26638493 0.93977511 0.09390109
2554.8569 -861.91211 438.2059 -0.68702269 0.052819483 0.72471368 0.15206993
2556.4231 -821.38367 434.35522 0.96394736 -0.23054484 -0.13287061 0.11542808
2575.3535 -747.9483 428.87585 0.87163514 -0.26905969 0.40970606 0.082323007
2563.7446 -783.82227 430.24182 0.89539236 -0.24781471 0.36994645 0.12479638
2586.3828 -712.04913 430.51547 0.79098034 -0.34825167 0.50306147 0.11022729
2581.3354 -729.36969 428.6868 0.85495907 -0.29881507 0.42397466 0.084395036
2579.3679 -745.8916 402.3754 0.95181441 -0.29046652 -0.09837947 0.092110738
2561.3206 -799.45996 406.53546 0.70225787 -0.61005956 -0.36696213 0.081402928
2571.1663 -775.10992 401.95239 0.93129528 -0.36414966 0.0091703003 0.14355649
2574.4189 -760.82581 402.0369 0.95611197 -0.28664401 -0.060705271 0.11651454
2562.7751 -788.87268 401.60892 0.86657983 -0.43907911 -0.23716854 0.1225711
2555.978 -815.16022 423.5827 0.94728225 -0.26323691 -0.18265454 0.11566914
2562.5212 -798.6167 421.24246 0.94407827 -0.26536739 0.19569457 0.11945833
2550.2607 -834.00085 426.04709 0.85401756 -0.22819284 -0.46752757 0.11092637
2568.0247 -780.92889 419.89224 0.93770266 -0.24351178 0.24782191 0.11117993
2578.9983 -744.80292 419.08627 0.93591976 -0.27997091 0.21370657 0.073408879
2573.2253 -762.21527 419.81552 0.93757403 -0.28977689 0.19231309 0.10069562
2552.8794 -855.36951 435.22165 0.83240616 -0.12204627 -0.54055959 0.166879
2558.4817 -904.19409 446.47626 -0.10242587 0.25387698 0.96179801 0.15444899
2561.2927 -887.7558 440.64844 0.24502881 0.24941927 0.93688363 0.11623499
2557.6882 -814.77448 430.63785 0.9677974 -0.22329658 -0.11621902 0.11194226
2568.4265 -779.0647 425.29205 0.88550395 -0.24582376 0.39427584 0.12286919
2595.5139 -773.0968 380.27356 0.5590142 0.33624145 0.7579214 0.13530025
2555.5134 -739.08875 381.27975 -0.32805869 -0.01957822 0.94445443 0.12204359
2561.7781 -873.06323 438.07675 -0.052980814 0.22363107 0.97323287 0.15556709
2578.29 -742.88092 426.03494 0.90147638 -0.2141968 0.37611175 0.080384217
2584.5166 -724.62756 425.41501 0.83736861 -0.25633731 0.48280948 0.08442799
2554.5261 -833.66107 433.1944 0.94563049 -0.16940495 -0.27764183 0.10780756
2562.7339 -797.11029 426.13489 0.9192186 -0.23577131 0.31535551 0.12408822
2551.3455 -851.11554 434.01019 0.82921195 -0.15756178 -0.53626657 0.13900159
2574.196 -760.94519 424.94299 0.89424288 -0.23142684 0.38310736 0.10809455
2555.5791 -880.13275 439.82568 0.079225875 0.2131848 0.9737944 0.098772928
2560.3669 -781.92017 435.32123 0.770419 -0.17955862 0.61172974 0.1215264
2557.7908 -800.57263 436.60373 0.89046764 -0.17630845 0.41950297 0.12768269
2555.6096 -859.98395 436.44 0.058732718 0.14807382 0.98723078 0.13123526
2555.9343 -838.9408 438.10339 0.79076034 -0.1890938 -0.58218694 0.1296476
2560.0457 -901.3692 445.82196 -0.036861908 0.29883435 0.95359278 0.14148672
2564.918 -783.30463 394.90134 0.82565683 -0.50166363 -0.25811711 0.15685672
2556.3745 -819.82629 440.73471 0.98390484 -0.17429568 0.039398409 0.11304673
2570.9482 -767.75812 391.06042 0.94222724 -0.3347767 0.011504511 0.16247901
2583.325 -709.05884 435.05661 0.77813697 -0.27376279 0.56529355 0.12202486
2566.1829 -762.72534 435.24945 0.78307933 -0.26149359 0.5642764 0.098597459
2573.1001 -745.44861 434.18475 0.81997275 -0.21561028 0.53024232 0.078719877
2574.7009 -749.45044 390.61401 0.94422138 -0.25005752 -0.21428309 0.14670913
2577.8738 -727.08844 434.91107 0.80805618 -0.23561718 0.53993499 0.085484028
2580.2561 -716.40247 435.78845 0.79055989 -0.27086806 0.54922271 0.1023075
2557.3728 -808.84314 439.41431 0.95882732 -0.16738079 0.22942059 0.1148056
2559.1501 -788.94293 435.12875 0.77044719 -0.16792662 0.61498928 0.10877277
2556.1062 -827.0163 440.98676 0.98107719 -0.15015213 -0.12223691 0.10799272
2555.6641 -846.52368 440.30734 0.83265895 -0.1636727 -0.52904665 0.13096653
2553.8247 -887.67584 441.84409 0.054255407 0.20908894 0.97639036 0.10462249
2556.3779 -868.86804 437.79233 0.098749958 0.13780802 0.98552394 0.11099299
2568.2441 -775.24255 392.25266 0.91029423 -0.39269212 -0.13098592 0.17932875
2560.762 -907.66962 450.57346 -0.081855327 0.45767903 0.88534153 0.18131967
2575.3484 -734.50562 436.07755 0.84469712 -0.25283909 0.47176176 0.081456669
2561.9412 -770.60364 437.17435 0.75634325 -0.28309926 0.58974546 0.11817786
2575.8394 -757.89868 391.89532 0.99221367 -0.086635344 0.089478545 0.18029878
2577.4526 -739.52789 391.80026 0.93945515 -0.17411438 -0.29514101 0.12565117
2570.2085 -753.2619 433.59354 0.77406782 -0.23230325 0.5889433 0.092087291
2554.0264 -809.86273 413.54944 0.90140778 -0.38378668 -0.2004291 0.096949831
2562.6448 -792.87921 414.98703 0.94621134 -0.32169592 0.034581553 0.11156738
2574.2175 -758.39624 414.86041 0.94454461 -0.31994236 0.073975354 0.076434739
2586.4954 -723.48901 413.73328 0.93382257 -0.31713259 0.16553664 0.091472887
2579.3567 -740.81464 413.95743 0.95897692 -0.27628529 0.063480161 0.083456777
2597.0127 -708.85803 415.56372 0.7785542 -0.48015773 0.40410629 0.11150482
2569.0522 -775.4823 414.77716 0.96058708 -0.2553291 0.10990697 0.096891128
