# .PCD v0.7 - Point Cloud Data file format
VERSION 0.7
FIELDS x y z normal_x normal_y normal_z curvature
SIZE 4 4 4 4 4 4 4
TYPE F F F F F F F
COUNT 1 1 1 1 1 1 1
WIDTH 439
HEIGHT 1
VIEWPOINT 0 0 0 1 0 0 0
POINTS 439
DATA ascii
2535.9089 -731.56287 -128.27364 0.85033238 0.35071933 0.39234021 0.093738019
2540.5103 -760.40137 -93.069641 0.91465169 0.33621988 -0.22442928 0.087739766
2542.8203 -756.46545 -127.01969 0.90480447 0.32002783 0.28091115 0.11427211
2530.885 -735.32294 -91.600243 0.88357973 0.40194446 -0.24026544 0.10466307
2527.3289 -716.36023 -129.02286 0.79543865 0.48506492 0.36330339 0.07342831
2558.0322 -722.95074 -175.20279 -0.59775311 -0.60272413 -0.52859706 0.073507331
2534.6157 -745.22205 -93.156113 0.89693451 0.36893958 -0.24370486 0.10268818
2542.1409 -745.64844 -127.61198 0.89205974 0.25767863 0.37125614 0.13321981
2543.3352 -729.38629 -146.38058 0.76060295 0.45856386 0.45956761 0.079151571
2526.2429 -731.56232 -103.14161 0.80133229 0.51363057 0.306676 0.11243427
2509.2832 -713.38977 -101.11515 0.6774745 0.47777525 0.55924869 0.14817284
2532.397 -714.72589 -147.21611 0.68250608 0.62249434 0.38299638 0.084079497
2549.8503 -744.25909 -143.8716 0.76236629 0.30504054 0.57074326 0.099243157
2544.8914 -738.07507 -64.207993 0.85791683 0.33763027 -0.38727838 0.1329172
2541.8274 -761.74091 -103.84468 0.93209857 0.36135176 0.024843318 0.098737136
2556.0874 -757.95294 -62.049099 0.78936976 0.42482507 -0.44319192 0.14855918
2537.2388 -748.80573 -103.93636 0.93808925 0.34590292 0.018431859 0.10795455
2558.2722 -718.71765 -181.83011 -0.63679326 -0.66065091 -0.39753586 0.079141475
2539.6101 -722.28302 -147.19955 0.7476905 0.54271376 0.3826496 0.085562363
2563.3325 -758.00031 -147.88509 0.66476095 0.49871749 0.55621374 0.11813432
2558.6907 -745.22418 -151.30005 0.71893519 0.48318401 0.49966532 0.098928258
2546.6924 -741.15607 -65.949234 0.88258785 0.13918847 -0.44907159 0.1347643
2550.5803 -753.32306 -66.286293 0.80363327 0.35523576 -0.47747371 0.13806315
2574.3784 -743.80383 -170.56499 0.58713299 0.5421555 0.60111749 0.076806255
2553.78 -761.66382 -132.77687 0.84221667 0.3107425 0.44057938 0.1511602
2558.3391 -769.54572 -127.6521 -0.64112556 -0.67266411 -0.3694334 0.18751439
2544.6504 -743.12207 -130.5591 0.84935331 0.33692032 0.40630493 0.12724429
2534.5198 -745.40515 -99.916611 0.90490651 0.42539075 0.013671301 0.12110537
2551.7654 -773.63019 -100.41659 -0.67026055 -0.74054384 0.048431437 0.10760672
2541.3101 -760.1723 -100.096 0.93258375 0.36074585 -0.012247141 0.10464614
2558.2751 -758.78918 -60.752178 0.66473848 0.55199629 -0.50341123 0.17546834
2548.5354 -725.15302 -159.2289 0.70381463 0.51274431 0.49166879 0.082937516
2572.1118 -779.91913 -76.508347 0.8906222 0.43958369 0.11643994 0.1264025
2556.4702 -764.43341 -69.455704 0.80194944 0.37308332 -0.46656823 0.10958259
2526.5771 -725.7818 -114.42569 0.79601312 0.49359792 0.35032016 0.11224972
2542.1575 -751.07483 -119.09901 0.92845362 0.25971895 0.26555592 0.11939186
2562.0576 -743.47253 -158.56834 0.62245852 0.38773572 0.67985767 0.080347247
2549.7429 -767.15833 -119.09061 0.81562942 0.50217283 0.28735188 0.14883754
2552.2588 -774.81677 -99.14817 0.71496511 0.69840389 -0.032509156 0.11024024
2540.3157 -757.73651 -99.314369 0.94033772 0.33700776 -0.046806026 0.097919777
2536.7275 -746.72516 -99.021843 0.93510723 0.35325062 -0.02807942 0.11136282
2564.543 -762.46307 -55.838554 0.66116595 0.65858746 -0.35933566 0.19933547
2575.3052 -743.72992 -171.5448 -0.58540964 -0.59303045 -0.55282044 0.085827343
2537.1169 -747.5 -93.545052 0.93239343 0.33971265 -0.12344161 0.10791454
2540.9963 -759.3053 -94.257439 0.93729055 0.31585279 -0.14738861 0.095726907
2519.1956 -726.72198 -91.026459 0.77514225 0.60564154 0.17986886 0.10741453
2532.2739 -732.62085 -79.224663 0.79342777 0.5083828 -0.33469287 0.11326668
2542.4888 -749.98126 -79.60498 0.85733122 0.31531993 -0.40688634 0.10147981
2545.2251 -761.98035 -81.400658 0.86394304 0.33963183 -0.37182334 0.089821219
2554.5632 -761.39697 -67.829918 0.74991041 0.45639539 -0.47889203 0.13226335
2550.304 -750.45813 -64.792854 0.813178 0.37950039 -0.44127205 0.13325542
2561.2402 -756.08252 -147.31905 0.71789986 0.44162941 0.53812939 0.12087587
2537.2681 -720.24548 -145.83563 0.75591451 0.54364926 0.36474478 0.078588791
2557.1318 -744.08588 -149.76035 0.72634584 0.50574553 0.46544942 0.090407595
2552.4551 -757.25275 -67.765129 0.80578256 0.41377634 -0.42367867 0.11738381
2525.7808 -729.07397 -108.09702 0.80765194 0.49431443 0.32148352 0.09927687
2512.2231 -711.1601 -105.39838 0.75141835 0.40854996 0.51812869 0.14079231
2545.2893 -742.85797 -67.132927 0.82979238 0.40746301 -0.38133773 0.13041328
2535.9551 -745.65521 -108.95821 0.91838223 0.36160856 0.16066533 0.1073219
2541.5505 -760.02679 -110.13634 0.92523521 0.36433399 0.10583276 0.092291191
2535.7856 -734.23407 -74.60981 0.77378798 0.5378204 -0.3346661 0.10982133
2552.1824 -757.73175 -71.17942 0.82176137 0.35944787 -0.44216001 0.1092432
2539.1902 -712.74738 -163.4337 0.68383002 0.63107818 0.3662197 0.078436166
2541.8081 -744.48535 -123.09604 0.89628446 0.25641614 0.36183545 0.12729269
2536.3755 -732.30621 -123.84155 0.78895259 0.51286018 0.33842024 0.10094088
2564.5413 -743.11786 -161.59302 0.63946235 0.47358367 0.60564548 0.070215248
2556.562 -730.36005 -164.34053 0.66213715 0.54445648 0.51491898 0.066672832
2545.9109 -757.22986 -122.21043 0.87301946 0.34758174 0.34208766 0.12282471
2539.5068 -729.88123 -133.98688 0.78890771 0.50588977 0.34885544 0.096894138
2549.6855 -755.72821 -131.62201 0.82727969 0.32795987 0.45612568 0.12777695
2564.5417 -767.10046 -129.53668 -0.19584869 -0.87641609 -0.43992969 0.12961172
2545.3191 -742.85754 -133.23088 0.87265742 0.27915135 0.40067887 0.11982604
2539.0786 -740.45953 -77.521126 0.812015 0.47441992 -0.33993727 0.098768674
2522.6641 -715.17157 -123.61205 0.71086204 0.62339127 0.32566619 0.084331803
2532.604 -728.20239 -122.42028 0.85191083 0.423614 0.30789468 0.097658239
2548.6433 -764.33148 -80.905159 0.8251037 0.33565211 -0.45446846 0.092514977
2546.0134 -754.18994 -77.427406 0.82788235 0.36357886 -0.42710796 0.092215098
2537.6677 -740.90314 -122.0554 0.89279199 0.33029532 0.30631268 0.11184447
2539.7805 -751.45905 -121.18649 0.93356675 0.28060791 0.22296248 0.10349002
2542.6287 -756.13336 -91.907257 0.91618675 0.32903752 -0.22877099 0.10551521
2535.0342 -740.38849 -91.852043 0.91854596 0.36942837 -0.14069827 0.11301807
2550.5647 -760.35474 -128.85587 0.82653797 0.35808271 0.43429452 0.15117913
2557.7788 -727.19403 -170.15355 0.66643459 0.58466148 0.46264008 0.075193815
2548.1658 -747.99194 -130.2352 0.86058486 0.34933507 0.37061936 0.11455023
2548.8625 -756.75195 -132.99925 0.74347842 0.44025776 0.5034014 0.12783705
2541.9639 -754.9472 -93.372261 0.93654692 0.29220122 -0.19364476 0.10998543
2541.2615 -733.35394 -136.34921 0.80889642 0.41421574 0.41726717 0.096416093
2545.4302 -744.92017 -134.10855 0.85981709 0.24067779 0.45032081 0.11375411
2536.7493 -741.47302 -91.989738 0.91954112 0.36380857 -0.14861858 0.13226295
2528.9019 -714.83405 -135.25841 0.80901867 0.49596533 0.31544766 0.070864156
2546.603 -765.49731 -94.536568 0.85257 0.49217775 -0.17574266 0.12338771
2558.3413 -757.63617 -59.532558 0.69421244 0.49112511 -0.52617979 0.17601065
2540.1025 -756.2663 -100.02412 0.94682878 0.32170674 -0.0044753957 0.10083808
2537.0225 -746.71295 -99.99337 0.94072807 0.33914709 -0.0031542797 0.11147377
2549.0813 -744.6123 -56.648441 0.79289573 0.52844906 -0.30341044 0.16282324
2513.4253 -721.38629 -97.427902 -0.62236249 -0.67074585 -0.4034414 0.12457953
2536.9307 -746.51007 -109.33576 0.92361903 0.35009664 0.15607759 0.10929424
2546.7419 -744.6936 -65.539665 0.82447231 0.42857677 -0.36955026 0.12988392
2531.0674 -734.52643 -110.32135 0.8340835 0.47085056 0.28740987 0.11085406
2540.6426 -757.7287 -109.94213 0.92917752 0.35170165 0.1137327 0.099225298
2548.5371 -752.62415 -70.044319 0.82022071 0.35194689 -0.4509671 0.10785861
2544.7441 -715.05963 -168.99174 0.66559231 0.62546378 0.4071632 0.058739103
2541.0601 -742.96307 -125.78089 0.88611799 0.30027592 0.35302866 0.12281463
2545.6829 -756.1994 -125.26797 0.86298728 0.3616499 0.35279217 0.13445726
2523.5605 -713.92786 -126.10547 0.73925191 0.58419764 0.33499217 0.085087806
2535.3625 -729.93042 -126.6619 0.8202647 0.46607724 0.33156875 0.10753542
2537.1216 -738.78906 -82.090828 0.85110235 0.46884787 -0.23623389 0.12086063
2540.7864 -749.08435 -84.921227 0.879767 0.3474746 -0.32445556 0.099948853
2544.3345 -748.08899 -75.251801 0.83338976 0.32521716 -0.44687283 0.098752297
2538.3213 -734.32263 -73.689972 0.8348698 0.39690703 -0.3813886 0.10640153
2546.9968 -758.66492 -77.775963 0.81152391 0.38681495 -0.43795329 0.09450572
2557.053 -715.03027 -188.55878 -0.62849122 -0.68372959 -0.37082696 0.078893326
2551.5918 -744.72272 -143.6268 0.78633624 0.3684625 0.49589387 0.11552028
2545.98 -732.63464 -145.0882 0.76711237 0.50274992 0.39847347 0.091729805
2540.2966 -757.8183 -102.82809 0.94457239 0.32728881 0.025789296 0.094625942
2536.1997 -745.55084 -101.94746 0.93573904 0.3503049 0.04097544 0.10898317
2527.3064 -712.84747 -143.26126 -0.65416771 -0.69154525 -0.30631647 0.078223422
2560.7888 -761.44061 -59.374893 0.73845142 0.56126773 -0.37372187 0.18777965
2528.2327 -732.21826 -102.30888 0.81495535 0.56174964 0.14242576 0.12163768
2547.8406 -744.8504 -58.299313 0.77484888 0.57825232 -0.25540841 0.15614571
2550.042 -744.78094 -57.961407 0.80663502 0.44285181 -0.39143607 0.15799524
2535.6499 -741.3739 -112.59354 0.9111051 0.34570953 0.22443801 0.1107648
2530.8235 -730.59814 -114.61297 0.80683947 0.50191432 0.31159595 0.10875244
2543.5393 -719.1214 -160.21667 0.6701622 0.62852371 0.39476645 0.079358071
2544.0845 -722.93152 -155.04947 0.73529619 0.49309054 0.4649744 0.083844788
2558.4355 -742.00024 -155.65991 0.66168821 0.38515091 0.64329427 0.078000002
2539.6096 -736.19336 -71.821198 0.82906109 0.41053888 -0.37962556 0.11300176
2545.7212 -750.25385 -73.964493 0.81596905 0.35373122 -0.45724031 0.096911825
2542.355 -756.75781 -113.21989 0.91624945 0.33925673 0.21305352 0.11427058
2536.8818 -741.55902 -117.80198 0.90055764 0.33429271 0.27792853 0.11681237
2527.1321 -724.74866 -116.11923 0.81540799 0.44426379 0.37113264 0.11893715
2546.0366 -751.39545 -74.475128 0.82610279 0.33908027 -0.45008749 0.094335578
2539.0225 -751.62823 -116.70312 0.92620414 0.31159413 0.21226166 0.10333089
2552.7983 -769.13049 -118.24329 -0.61659342 -0.75422573 -0.22573449 0.13454787
2548.3223 -760.19617 -78.061493 0.78849953 0.41539291 -0.45356059 0.089440197
2563.3306 -755.86365 -149.41295 0.57291561 0.53949666 0.61701787 0.090458281
2543.4968 -759.25226 -110.82838 0.91913497 0.32855794 0.21734902 0.11844173
2563.2529 -768.60101 -65.490746 0.68815863 0.55356109 -0.4690499 0.15949781
2552.5344 -740.58398 -149.53131 0.73145843 0.38972953 0.55953503 0.083227962
2533.3479 -739.36969 -108.64541 0.88119489 0.412027 0.23179594 0.1115467
2549.8008 -769.53479 -109.55941 0.76209676 0.6200372 0.1864468 0.11848927
2537.9907 -738.36639 -79.285622 0.87142175 0.2852329 -0.3990818 0.10274312
2544.3494 -760.2052 -117.19267 0.88569206 0.38985828 0.25211132 0.11608832
2533.8757 -729.66284 -121.35454 0.73451799 0.58384061 0.34585178 0.10393594
2543.7131 -753.20807 -80.273369 0.85211432 0.32397819 -0.41102228 0.10002027
2561.1396 -737.50189 -162.21606 0.67644709 0.47363299 0.56399566 0.069082484
2543.0254 -752.89008 -119.91589 0.91888654 0.27495819 0.28292322 0.11905833
2533.749 -734.2569 -117.44897 0.8839646 0.37556925 0.27848575 0.11733069
2548.6777 -765.62744 -81.675316 0.8011564 0.40461975 -0.4409436 0.10425127
2539.238 -714.74451 -158.93481 0.70667648 0.57411212 0.41352588 0.072445981
2548.2104 -766.0249 -89.672455 0.7768327 0.54891849 -0.30857643 0.10629057
2543.6145 -756.78131 -127.34727 0.90136272 0.32739532 0.28347406 0.12023883
2543.3174 -755.60516 -86.427231 0.89613497 0.32230523 -0.3050597 0.10510776
2543.0708 -747.26849 -128.11598 0.90301543 0.22113705 0.36832255 0.13232546
2534.6208 -729.61993 -127.26633 0.87715638 0.31532371 0.36217067 0.096670866
2545.2615 -741.91229 -134.87657 0.86531949 0.29034257 0.4085626 0.10830191
2538.7256 -728.46765 -134.93515 0.79418284 0.51248926 0.32654011 0.095898554
2550.5371 -755.88391 -133.46405 0.80062681 0.35221639 0.4847064 0.1294173
2557.3892 -752.74506 -49.286148 0.79388636 0.52818954 -0.30126441 0.19953404
2540.3577 -748.90839 -89.362122 0.92195809 0.31694987 -0.22256704 0.1212853
2546.5535 -764.2218 -90.862274 0.86327988 0.42877463 -0.26627088 0.12003838
2553.2012 -763.09711 -131.05296 -0.61125976 -0.67083722 -0.41992724 0.130289
2539.1023 -745.50568 -88.577705 0.94469291 0.25172177 -0.21021773 0.11573359
2568.1409 -733.15546 -176.53964 0.66490233 0.56860965 0.48434275 0.06976115
2531.9836 -723.01129 -129.00681 0.77669179 0.53979576 0.32460809 0.091420718
2541.7598 -739.2157 -130.09567 0.82683694 0.36851737 0.42489481 0.11955107
2558.1543 -766.42896 -129.62425 -0.49015293 -0.77531111 -0.39829987 0.15575501
2545.3955 -751.87543 -128.11662 0.87250036 0.28984272 0.39336276 0.12381914
2542.6499 -757.0174 -89.805382 0.9017216 0.33435476 -0.27405295 0.10299691
2535.6387 -746.52991 -96.612305 0.91146928 0.39928356 -0.098976694 0.11121298
2540.5642 -759.6676 -96.359322 0.93593013 0.32609889 -0.13301975 0.098121397
2557.0139 -753.72809 -51.642818 0.77232057 0.5703001 -0.27978331 0.20108293
2524.7634 -729.71167 -95.076988 0.82288575 0.56805122 -0.013299519 0.10097563
2545.4873 -748.70026 -73.224678 0.82282901 0.38089973 -0.42174372 0.10114747
2525.9751 -724.01776 -115.01148 0.76109684 0.54441875 0.35261852 0.10533932
2549.1338 -767.6225 -115.13929 0.77825511 0.59044719 0.21375492 0.12124037
2547.4431 -724.32312 -158.35834 0.7212097 0.49499178 0.4846026 0.085914731
2559.9939 -741.14032 -157.91771 0.63941669 0.39718816 0.65832198 0.07772883
2547.3142 -757.5896 -76.953117 0.81257039 0.36855891 -0.45154583 0.093291387
2538.0706 -749.37933 -113.47906 0.91915286 0.34068337 0.19771914 0.099003419
2538.3032 -743.5025 -116.18317 0.88818449 0.36099315 0.28427503 0.12443574
2542.6526 -733.60315 -138.62907 0.80468214 0.42372808 0.41586199 0.10434411
2547.2065 -732.53815 -144.81154 0.75794786 0.56354499 0.32853013 0.089763902
2542.9131 -764.01575 -99.176231 0.92672163 0.37427539 -0.033241026 0.11009449
2563.2029 -721.69366 -183.45036 -0.60867143 -0.62830549 -0.48451144 0.073574297
2555.989 -760.88177 -136.55632 0.63567948 0.52472478 0.56619388 0.13842367
2550.615 -749.96008 -138.43793 0.81244409 0.32309282 0.48533046 0.12028214
2537.5381 -749.59839 -98.173233 0.92874473 0.3679204 -0.045473401 0.10842886
2571.0344 -740.54633 -171.42926 0.64439124 0.55329108 0.52785313 0.077049404
2547.3406 -744.08862 -130.21611 0.82398945 0.43029353 0.36863109 0.13545497
2551.344 -758.58569 -130.26668 0.905653 0.21975936 0.36262712 0.14059576
2556.7544 -772.60284 -128.5847 0.82136589 0.4056237 0.40103304 0.17282274
2545.3086 -767.14752 -87.650627 0.88255209 0.34445477 -0.32008228 0.087846436
2543.7812 -765.84882 -100.03569 0.92391336 0.38241807 -0.011855351 0.10571054
2506.8621 -712.63684 -95.844398 0.77674216 0.37753177 0.5041244 0.1336565
2537.2068 -749.25171 -99.976578 0.92341405 0.38377085 0.0051416866 0.1071418
2563.1558 -762.54913 -59.807968 -0.61276191 -0.64783973 0.45257768 0.18924305
2514.4373 -724.50708 -94.988754 0.68738115 0.58654779 0.42833263 0.11409745
2556.0129 -752.99127 -56.006519 0.76346678 0.51675445 -0.38740584 0.17349316
2538.4326 -750.13184 -93.252441 0.93735921 0.33450893 -0.09727028 0.10947432
2547.1492 -766.33655 -94.2369 0.85257 0.49217775 -0.17574266 0.12338771
2541.9966 -758.6676 -102.2581 0.9626928 0.26741272 0.04138799 0.12230062
2514.3342 -725.18134 -95.217354 0.6976409 0.55347604 0.45493022 0.10752607
2549.4329 -740.34204 -144.16933 0.80400622 0.3692041 0.46611401 0.1010305
2561.7922 -759.12317 -146.15932 0.71790755 0.4257887 0.55073839 0.14353865
2523.447 -728.41803 -104.10146 0.8084414 0.4974055 0.314659 0.092234284
2558.9133 -752.27588 -147.6777 0.70964658 0.41998637 0.56569707 0.11360853
2553.447 -758.67157 -67.336754 0.79225743 0.43011734 -0.43281314 0.11972779
2538.8552 -751.35876 -107.74142 0.93704242 0.32387313 0.13060516 0.10402841
2564.1162 -767.61615 -70.773628 -0.39243826 -0.79929382 0.45510614 0.1327481
2558.0779 -758.14557 -142.54179 -0.424483 -0.65658545 -0.6234659 0.10282618
2545.1238 -765.3808 -107.52407 0.87980992 0.45603418 0.13404226 0.11258382
2551.323 -738.27997 -149.11336 0.75694448 0.4119485 0.50728053 0.09441115
2548.0654 -765.96545 -116.97617 0.84175456 0.4444975 0.30638418 0.13365768
2543.0859 -753.70825 -118.74368 0.92435551 0.26700214 0.27253771 0.12090045
2571.5833 -751.77173 -161.23651 0.59312898 0.4601492 0.66065174 0.07674811
2537.4619 -739.23016 -118.6209 0.85465139 0.41998881 0.30525467 0.11238357
2555.4546 -762.224 -69.132782 0.79840416 0.39465529 -0.45475051 0.11433984
2568.9768 -772.1499 -74.854187 -0.43228444 -0.81868881 0.37799314 0.14910997
2555.0637 -732.4118 -160.22226 0.65450436 0.5037145 0.56382245 0.063823327
2560.019 -774.45398 -114.73749 -0.45443884 -0.85325092 -0.25582853 0.12825115
2533.3958 -720.76447 -135.09187 0.83130062 0.42276582 0.36084393 0.076686233
2532.0911 -738.58844 -94.100349 0.88697481 0.42014936 -0.19170344 0.10412433
2543.2629 -738.21161 -135.90964 0.84023619 0.35248822 0.41201362 0.1023601
2550.0168 -760.50195 -132.19998 0.63796902 0.60126358 0.48112121 0.12117254
2544.2266 -760.75433 -93.550682 0.89618957 0.38117075 -0.22705311 0.11597843
2546.9006 -750.5282 -132.80623 0.81850666 0.31926405 0.47761631 0.11253224
2551.7788 -772.46075 -95.624664 0.72826767 0.66545236 -0.16370516 0.11879566
2571.9517 -759.92584 -156.576 0.68790126 0.43459433 0.58130854 0.086773999
2552.979 -735.70917 -152.65306 0.72707236 0.50503623 0.46508515 0.077534392
2546.5537 -769.61322 -95.665878 0.84933585 0.5179373 -0.10183101 0.10748359
2543.6487 -761.53137 -95.737556 0.91581392 0.36007461 -0.17785151 0.1192691
2556.8591 -764.23755 -67.725121 0.7695114 0.44481915 -0.45824459 0.12686159
2560.1733 -749.88434 -152.64214 0.62450373 0.41634408 0.66079706 0.084814221
2524.2405 -726.7738 -108.59122 0.79298258 0.48818204 0.36449549 0.090068899
2539.3914 -737.28412 -72.477592 0.8500638 0.33634567 -0.40529385 0.11788498
2552.2629 -734.19568 -154.04065 0.71020293 0.45231074 0.539469 0.066127948
2548.6279 -767.57715 -113.83472 0.81042135 0.54564422 0.21328293 0.11871512
2542.6987 -754.95911 -114.46819 0.93211675 0.28980917 0.21718439 0.12269334
2558.8394 -757.62122 -58.174038 0.71257854 0.53417498 -0.45485041 0.17462243
2533.8196 -741.59338 -99.973343 0.89542127 0.44426626 0.029125089 0.12558271
2545.3816 -768.54266 -99.877037 0.87912536 0.47628951 0.016939823 0.10404968
2539.3916 -754.15594 -100.08344 0.94608784 0.32357901 -0.014641392 0.10191893
2542.145 -757.5899 -90.951996 0.92510247 0.31471094 -0.21246748 0.094148569
2564.3198 -769.02765 -46.928806 0.88557839 0.46441737 -0.008209263 0.16094437
2536.1106 -742.9563 -90.564789 0.93431026 0.31350315 -0.16964698 0.10366329
2546.0488 -768.63892 -91.388123 0.86929452 0.47101012 -0.14992179 0.099683627
2553.9919 -762.34991 -70.090851 0.67688179 0.57586163 -0.45849147 0.13121657
2554.1431 -757.8363 -65.258652 0.78091431 0.4240444 -0.45864928 0.12854828
2565.8284 -763.15259 -145.16864 0.60236472 0.53551728 0.59192735 0.14627279
2557.4988 -748.96307 -147.492 0.74104589 0.41550377 0.5274539 0.10939641
2548.4163 -734.68481 -146.88559 0.7663874 0.50575334 0.3960605 0.094247267
2548.8418 -758.65649 -75.471649 0.8218562 0.33540231 -0.46049717 0.090457566
2545.8611 -763.75031 -116.29157 0.84746253 0.46987972 0.24702287 0.11268126
2557.3098 -736.78711 -157.72772 0.66738206 0.45871446 0.58667052 0.068397731
2544.5276 -744.96362 -72.688988 0.83535284 0.32556298 -0.44293833 0.10711451
2570.0327 -754.24982 -158.70746 0.5685249 0.41294602 0.71151596 0.076749556
2540.7693 -751.11804 -116.21997 0.9202767 0.29308543 0.25921366 0.12236416
2537.561 -740.81519 -117.46238 0.8853541 0.36203986 0.29167658 0.11814267
2549.623 -725.75226 -159.94229 0.67622823 0.5797177 0.45457983 0.077015094
2522.2097 -719.70404 -115.42244 0.69345599 0.61781269 0.37071043 0.089272283
2540.4768 -744.82751 -80.22184 0.861476 0.31169403 -0.4008815 0.10089254
2543.8728 -755.93781 -82.170227 0.85203552 0.36059371 -0.37948346 0.098764002
2549.0498 -768.42133 -83.731636 0.80638242 0.40933773 -0.42683721 0.10648268
2536.4165 -739.8598 -87.103333 0.9225688 0.3105838 -0.22892034 0.11299913
2550.075 -767.71393 -88.410294 0.75311941 0.55991185 -0.34541264 0.10383993
2542.0344 -754.16205 -87.618332 0.89014506 0.36666209 -0.2705563 0.098808527
2550.5276 -751.43286 -62.967976 0.76473039 0.33984306 -0.54744321 0.13862422
2541.4812 -740.70129 -126.71169 0.83542234 0.38576886 0.39147398 0.11869588
2537.3738 -710.78967 -165.42082 0.67546338 0.66049415 0.32786694 0.0950334
2573.6506 -743.49304 -170.38615 0.59876907 0.54661834 0.58539218 0.077718548
2535.6802 -729.03217 -127.27225 0.75444245 0.57181996 0.32223976 0.098205149
2552.9192 -766.42212 -125.13678 0.67346621 0.62672895 0.39198744 0.13656795
2544.5176 -759.37292 -86.548241 0.87662864 0.36224183 -0.31670663 0.10105713
2560.4131 -750.07422 -47.447006 0.67406934 0.48885676 -0.55375946 0.19206664
2547.321 -755.86621 -126.84789 0.84569162 0.35246247 0.40071923 0.11525352
2541.9387 -748.75098 -83.062775 0.8886959 0.3074401 -0.34014729 0.1076722
2545.9912 -766.49164 -93.6194 0.87801206 0.44276127 -0.18181655 0.1110892
2525.7004 -730.66302 -92.344002 0.81396657 0.57784933 -0.059569728 0.097179279
2539.7334 -751.4115 -92.291862 0.93511158 0.31745535 -0.15744355 0.10816789
2558.5063 -728.77087 -168.99579 0.64145046 0.57048452 0.51292169 0.067740545
2547.1204 -756.1817 -127.11602 0.84401375 0.37245163 0.38590226 0.12465316
2549.5376 -763.52875 -125.28001 0.67024827 0.66434258 0.33078119 0.14598984
2542.5774 -743.18207 -127.84447 0.87647629 0.27815452 0.39296234 0.1185258
2547.8306 -763.61816 -86.538399 0.83474326 0.4412007 -0.32946259 0.11654134
2537.7671 -731.64746 -129.49786 0.8336584 0.43781576 0.33664677 0.10149799
2542.1313 -750.51678 -85.432663 0.91261035 0.28430888 -0.29378709 0.10839725
2548.0129 -771.53918 -103.12371 0.87235159 0.47649875 0.10932369 0.11731385
2553.4148 -758.24402 -138.93634 0.55242622 0.57784337 0.60076809 0.11362839
2535.0232 -741.71509 -101.1576 0.91763502 0.39575687 0.0363652 0.11900117
2546.562 -745.70215 -139.59528 0.79870284 0.27546033 0.53497231 0.10118937
2541.2239 -757.27728 -102.14796 0.96561778 0.25823909 0.029914923 0.10959049
2546.2292 -735.34766 -144.11034 0.78952992 0.40397996 0.46199864 0.093032546
2536.1731 -719.26227 -144.43581 0.78406358 0.49302489 0.37705541 0.089190684
2565.1167 -737.14478 -167.95782 0.71632689 0.50464481 0.48188111 0.080170825
2568.3022 -746.01025 -162.62941 0.6102668 0.46378827 0.64224207 0.075135939
2544.7407 -750.9278 -77.31279 0.84653592 0.31030357 -0.43253744 0.095269926
2537.3689 -738.99268 -122.1506 0.87390149 0.37162286 0.31335706 0.1124979
2525.6411 -720.58252 -120.30468 0.77671033 0.51569033 0.36164144 0.088199064
2550.8616 -765.00812 -78.688393 0.79096121 0.37287411 -0.48512399 0.10040829
2543.9128 -754.57849 -122.60818 0.89139354 0.32384604 0.31708241 0.12755148
2546.071 -762.68298 -120.69076 0.78614998 0.54746413 0.28679475 0.12179215
2533.6392 -735.20569 -85.398582 0.86852127 0.44353214 -0.22124669 0.10880747
2545.8633 -762.16132 -86.773026 0.85288781 0.38389415 -0.35384691 0.10356859
2540.4272 -748.22693 -85.806129 0.88683927 0.35134229 -0.3001245 0.10512844
2542.2678 -759.35315 -110.2794 0.92158586 0.3556208 0.15560652 0.10504709
2549.6094 -732.58112 -152.60008 0.72483647 0.49828932 0.47573084 0.075692818
2559.0073 -746.68268 -151.4337 0.70022929 0.45951399 0.54637516 0.10834309
2552.8074 -757.50293 -67.336792 0.8184135 0.3852624 -0.42634749 0.1157233
2537.8779 -746.68506 -110.79566 0.91947848 0.3298032 0.21398397 0.11754413
2533.009 -735.64545 -112.03805 0.83826196 0.46116552 0.2909351 0.11138492
2539.0754 -718.71967 -153.13431 0.68266135 0.60998499 0.4023577 0.074368209
2533.9741 -732.2002 -70.680939 0.77261561 0.54430801 -0.32679346 0.13877763
2556.8896 -766.11011 -70.055237 0.78361648 0.39711189 -0.47775239 0.11333852
2554.3875 -732.948 -158.84448 0.6639598 0.50341058 0.55293322 0.06408783
2546.9233 -748.28351 -70.027473 0.81025326 0.4297263 -0.39852852 0.11924459
2535.6885 -713.29883 -157.60075 -0.64903027 -0.66110837 -0.37642455 0.08220838
2540.1506 -741.6889 -118.92142 0.84967405 0.40449485 0.33828676 0.12825058
2520.4709 -718.15558 -114.86514 0.69356507 0.62016588 0.36655387 0.095537983
2541.6348 -751.33087 -116.15658 0.92722154 0.28268173 0.24566504 0.11867607
2573.9492 -754.03558 -162.05753 0.59984714 0.4210515 0.68036687 0.08411216
2552.2402 -760.45392 -130.42473 0.92973691 0.11494996 0.34982249 0.14052509
2576.2671 -745.75616 -169.7083 0.57490391 0.52474666 0.62779492 0.081299707
2549.8931 -747.9386 -131.35408 0.85687459 0.34953061 0.37893844 0.11541056
2557.1458 -726.76733 -169.61485 0.65579629 0.58914006 0.47206485 0.076407924
2563.7527 -778.06775 -128.41307 0.73631555 0.53182429 0.41833287 0.16332561
2565.4548 -764.54742 -57.746849 0.66510892 0.66410494 -0.34145975 0.20021529
2532.1763 -737.45227 -101.55309 0.88680106 0.45082697 0.10168058 0.12884715
2554.614 -751.48718 -55.999874 0.7995612 0.498373 -0.33515102 0.16395672
2514.5642 -719.44879 -102.28748 -0.63875175 -0.64119571 -0.42528141 0.12313215
2541.1702 -759.63275 -101.00666 0.93364209 0.35820588 -0.001007985 0.099121019
2536.5723 -746.95465 -100.94799 0.92625403 0.37643427 0.018727684 0.11286236
2549.249 -748.19629 -55.965191 0.77237821 0.6351555 -0.0030722155 0.1509136
2559.5435 -759.0675 -55.434528 0.79126626 0.54464555 -0.27795491 0.18692434
2537.5378 -750.13452 -100.03621 0.92486745 0.38021803 -0.0073797628 0.105707
2527.9502 -731.3728 -102.28986 0.72118384 0.65193552 0.2342519 0.11960366
2510.0837 -712.23779 -104.99902 0.62429541 0.56305426 0.54150265 0.16877094
2531.2234 -736.88837 -99.969803 0.88807821 0.44374791 0.12002023 0.13446009
2535.6846 -743.11676 -94.966751 0.93325859 0.34547538 -0.098362185 0.11472136
2537.9194 -751.69287 -95.946022 0.91721427 0.38303119 -0.10956743 0.1098905
2552.0132 -751.15778 -51.609913 0.74955946 0.66061276 -0.041848984 0.17375015
2528.7114 -732.94409 -95.420616 0.80000013 0.59661674 0.063625835 0.1261988
2508.0544 -714.84436 -100.71099 0.512936 0.50243109 0.69603133 0.16094464
2522.4324 -726.14935 -104.29688 0.71505177 0.59855598 0.3611533 0.10539306
2542.7429 -725.37036 -149.73628 0.74252391 0.54036176 0.3958123 0.079675913
2553.0493 -739.97125 -148.96553 0.73960549 0.43118998 0.5167774 0.095787726
2561.1558 -755.64734 -148.26588 0.70000696 0.43922362 0.56309223 0.11542649
2538.6213 -747.13055 -106.06522 0.93681121 0.31290516 0.15644513 0.12244002
2543.6501 -761.94702 -105.37701 0.91740173 0.36974218 0.14718954 0.11919921
2557.2136 -757.75818 -59.633121 0.79326463 0.51521456 -0.32447681 0.1773247
2522.0723 -723.47827 -108.9188 0.74300176 0.5455991 0.38764673 0.090635836
2513.6064 -713.49976 -110.63254 -0.62550712 -0.65324658 -0.42662597 0.13336666
2539.7317 -754.74432 -110.10028 0.94065863 0.31520587 0.12572451 0.10144147
2535.658 -742.35004 -110.63471 0.91203529 0.35751641 0.20093189 0.11382615
2541.9268 -735.55322 -67.429329 0.83130568 0.40077794 -0.38510767 0.12513077
2554.2434 -757.68451 -65.636162 0.79923815 0.45106795 -0.39718527 0.12827609
2541.4778 -749.79846 -82.212997 0.85230488 0.3594957 -0.37991998 0.10225073
2546.2336 -762.14453 -83.880676 0.84836882 0.37180999 -0.37686563 0.1015193
2555.3425 -738.48407 -152.42683 0.72518337 0.49252135 0.48117757 0.076695092
2565.7319 -755.96729 -152.13422 0.74766952 0.45008278 0.48827839 0.10899328
2566.5447 -732.21124 -175.10641 0.66360372 0.55233812 0.50453216 0.069062762
2556.8484 -750.52075 -146.37454 0.73268706 0.41392583 0.54021758 0.116635
2532.897 -715.9942 -145.53334 0.69909018 0.630099 0.33800614 0.084898114
2542.2639 -762.49481 -105.64588 0.92722344 0.37082222 0.052417632 0.10142405
2538.3225 -750.54901 -104.94296 0.94568467 0.32251537 0.040796563 0.11098237
2554.1431 -757.8363 -65.258652 0.78091431 0.4240444 -0.45864928 0.12854828
2545.8506 -732.48132 -145.54308 0.77601784 0.47326857 0.41690907 0.086774617
2517.8374 -721.04614 -104.84555 0.66398668 0.63952506 0.38746539 0.10436368
2547.7341 -744.13983 -62.870022 0.81233025 0.42717347 -0.39704207 0.14555418
2531.9553 -737.61707 -104.52152 0.87322539 0.46379268 0.14957847 0.1260595
2525.8379 -723.50525 -115.03448 0.7000289 0.62540239 0.34471923 0.10743614
2550.2192 -748.27979 -65.009178 0.82658005 0.4406153 -0.35017651 0.13035232
2559.1602 -736.9483 -160.16444 0.69816142 0.4789806 0.53211665 0.067073077
2548.479 -723.69025 -160.50195 0.68614763 0.58290726 0.43522474 0.076885715
2573.0281 -754.35492 -161.18303 0.60882652 0.41834787 0.67402917 0.081998967
2537.7959 -740.61017 -115.56686 0.86754709 0.43454009 0.24194413 0.12835832
2555.6819 -760.32416 -66.274223 0.78851783 0.46592018 -0.40144491 0.12950194
2546.7334 -765.11475 -113.63395 0.87035203 0.42804968 0.2434354 0.12027019
2570.8928 -772.15863 -69.927383 -0.5238353 -0.77451909 0.35456562 0.16789047
2543.0015 -753.76691 -115.51057 0.92355978 0.28397968 0.25766811 0.12773488
2522.1482 -722.55292 -110.83169 0.69387639 0.64004236 0.32997164 0.10421745
2546.2065 -744.91241 -67.173508 0.82446963 0.41941008 -0.37992764 0.12228583
2559.6958 -749.23743 -150.76404 0.68755174 0.44953108 0.5702582 0.10497627
2534.6978 -738.55231 -110.90022 0.87865317 0.41303316 0.23952504 0.11828884
2553.9871 -736.71222 -152.69794 0.71261823 0.50107318 0.49102026 0.078359403
2537.7156 -718.05505 -150.7209 0.70891571 0.58234054 0.39789194 0.072002359
2537.384 -748.04779 -110.09698 0.92863703 0.33671269 0.15574922 0.10450011
2551.2515 -757.95392 -70.223297 0.81349814 0.37796983 -0.44199505 0.11298148
2556.5798 -754.57233 -52.07756 0.78125536 0.58757478 -0.21070334 0.19594678
2505.8806 -714.06531 -95.094536 0.72084612 0.39384651 0.57032079 0.13590561
2536.8494 -747.58093 -96.287636 0.93597436 0.34505129 -0.069940306 0.10964757
2540.8831 -759.35706 -97.508774 0.94636148 0.31728444 -0.061078414 0.10660785
2530.4382 -735.2995 -96.008514 0.88235861 0.4703877 0.013368647 0.1298735
2544.6409 -756.82953 -82.248199 0.83923548 0.37195721 -0.39665052 0.094991691
2540.0583 -743.979 -81.026588 0.86488384 0.31085718 -0.3941367 0.10116006
2536.9731 -746.94031 -95.20562 0.9399628 0.33502808 -0.065008663 0.11779211
2555.668 -752.6076 -51.30994 0.79992884 0.55144006 -0.2367018 0.20248272
2541.2979 -759.99469 -95.534966 0.94975471 0.30241895 -0.080676809 0.10525119
2568.6079 -762.85126 -53.742825 -0.50143391 -0.79767162 0.33508807 0.19292592
2505.1113 -712.94281 -93.92054 0.75122541 0.38565308 0.53566039 0.13756223
2524.8015 -729.6579 -94.955612 0.80174577 0.59733862 0.019754419 0.10255876
2533.0879 -737.05255 -113.34856 0.87595874 0.39748985 0.27330944 0.11196925
2520.6421 -719.69757 -112.16621 0.72801054 0.57738256 0.36963505 0.096599832
2556.8958 -765.22357 -68.802437 0.7756775 0.45103949 -0.44146103 0.12191021
2544.3982 -744.33887 -70.751556 0.81313235 0.38446504 -0.4370383 0.11836207
2540.2649 -751.8476 -113.22032 0.91994739 0.32470614 0.21968789 0.12295183
2545.313 -764.16577 -112.52949 0.83825356 0.50912172 0.19525887 0.10609417
2552.4182 -757.41913 -134.34802 0.84701854 0.3113184 0.43086013 0.14481743
2547.5752 -743.58185 -133.54379 0.82402325 0.44815311 0.34661868 0.11673621
2559.3342 -771.48041 -132.51054 0.7833724 0.43505326 0.4439103 0.17764886
2546.0342 -757.86664 -81.032967 0.83440286 0.36784402 -0.41044199 0.09356454
2570.3159 -740.12805 -171.12039 0.66626185 0.52824908 0.52635354 0.07570976
2538.3069 -734.87787 -126.50028 0.83812714 0.42616683 0.34047723 0.1028891
2541.8289 -744.18402 -78.51487 0.84235829 0.35575595 -0.40480882 0.10607217
2544.6824 -749.35272 -126.58434 0.88793409 0.23769052 0.39379731 0.11404628
2547.7058 -760.67975 -123.75632 0.8246634 0.40661174 0.39318842 0.14120889
2558.0999 -749.32062 -49.319202 0.69001466 0.48382288 -0.53832626 0.18655491
2547.0752 -766.37982 -89.223442 0.81949753 0.48833326 -0.29992402 0.10720786
2541.0146 -754.44714 -88.243683 0.89601904 0.34656471 -0.27756581 0.082098506
2524.0264 -729.3324 -87.888672 0.75691622 0.62877339 -0.17810635 0.10083332
2519.3394 -720.46985 -108.32566 0.74014235 0.56077886 0.37110162 0.098860204
2540.4663 -754.37848 -111.21827 0.92749983 0.33673418 0.16233957 0.10652225
2551.5352 -753.76001 -66.209015 0.80972391 0.41130534 -0.41853923 0.12032673
2552.7795 -761.49103 -70.770615 0.78772253 0.41350427 -0.45662618 0.11733142
2543.6267 -764.09741 -110.80469 0.86316723 0.49054849 0.11960141 0.090298668
2535.3435 -741.45813 -110.69462 0.90746033 0.36601758 0.206269 0.11533103
2549.9817 -750.5976 -65.59565 0.81741816 0.43264842 -0.38031951 0.12335048
2524.2393 -721.70367 -114.03603 -0.64030248 -0.70922238 -0.29498547 0.10444508
2535.2437 -740.28748 -111.16917 0.91500187 0.34770331 0.2046313 0.1145719
2552.9604 -759.92505 -69.141663 0.79886496 0.41854838 -0.43200934 0.12156791
2554.3538 -776.24585 -113.4066 0.80892795 0.49825057 0.31206083 0.14730239
2545.6602 -744.79523 -64.510567 0.71468705 0.67300522 -0.19048983 0.133865
2538.6216 -751.21442 -110.23861 0.92197651 0.35621345 0.1518922 0.10357309
2525.9873 -726.23993 -111.40791 0.75138378 0.55867165 0.3511529 0.098004125
2541.5039 -748.13318 -113.16842 0.93240654 0.25412309 0.25698152 0.1254559
2537.7349 -736.2818 -113.71857 0.81209379 0.50700927 0.28886902 0.12663734
2547.5107 -764.74072 -113.94597 0.88090819 0.32237557 0.34651798 0.12067696
2564.3521 -747.66022 -157.33121 0.73696536 0.42179242 0.52817917 0.10086451
2556.2754 -776.86993 -110.49526 0.7176246 0.63588852 0.28400829 0.13529751
