# .PCD v0.7 - Point Cloud Data file format
VERSION 0.7
FIELDS x y z normal_x normal_y normal_z curvature
SIZE 4 4 4 4 4 4 4
TYPE F F F F F F F
COUNT 1 1 1 1 1 1 1
WIDTH 416
HEIGHT 1
VIEWPOINT 0 0 0 1 0 0 0
POINTS 416
DATA ascii
2554.1343 -1186.0531 381.49414 0.84835243 0.15231487 0.50704861 0.095446423
2569.0833 -1171.0292 339.06436 0.72428662 -0.6881541 0.043045253 0.097835734
2640.3694 -1113.2809 303.30112 0.66771001 -0.50780118 0.54433566 0.11246764
2600.1951 -1129.3544 344.91403 0.68339711 -0.42169851 0.59593523 0.075226717
2541.1736 -1230.0518 333.81015 0.98623389 -0.043480136 -0.15953736 0.045639511
2617.1348 -1098.7362 346.96661 0.68254882 -0.44283709 0.581397 0.11634213
2567.6357 -1133.7196 386.42419 0.67847991 -0.71323967 0.17593801 0.080358908
2562.1484 -1202.6027 436.87466 -0.62080365 0.46851063 0.62857026 0.10238946
2554.8762 -1185.7578 336.07397 0.75293434 -0.65806568 0.0062749456 0.074864179
2548.8271 -1160.0295 384.30579 0.91823262 -0.31514779 0.23985568 0.084376402
2542.8772 -1210.3048 332.94019 0.97797924 -0.16199951 -0.13157804 0.040809024
2547.8765 -1196.3391 333.17062 0.89251661 -0.35526899 -0.27784538 0.066653252
2610.5991 -1113.3835 343.9837 0.7625128 -0.33552679 0.55316907 0.086521894
2596.0024 -1143.955 340.14594 0.7317037 -0.49349019 0.47018841 0.080924712
2582.6128 -1158.5403 341.49106 0.64293897 -0.56679058 0.5151484 0.058437604
2574.5105 -1164.7113 347.71158 0.76808584 -0.4530333 0.45255384 0.088550754
2552.9956 -1191.4448 341.06168 0.82186228 -0.52219462 -0.22771716 0.053746749
2581.9358 -1149.9548 348.92926 0.60810208 -0.42728707 0.66905725 0.06325759
2596.2539 -1120.7714 354.17145 0.66721523 -0.36321244 0.65030807 0.06581936
2561.6172 -1177.8491 344.9978 0.78557187 -0.61877018 -0.00047909029 0.11526882
2547.009 -1204.4651 340.90042 0.93916631 -0.27470046 -0.20617057 0.04172153
2590.0945 -1135.7384 351.16284 0.62205052 -0.41973779 0.66096395 0.064565122
2542.8625 -1218.5265 340.34412 0.9853673 -0.10670082 -0.13291423 0.032033537
2542.834 -1236.9644 340.83426 0.9799571 0.041870039 -0.19475888 0.032604665
2640.333 -1105.3145 311.12338 0.61055487 -0.60206383 0.51453078 0.040945094
2629.5896 -1119.6855 310.5574 0.69550222 -0.52034086 0.49550182 0.049643826
2604.2749 -1106.7472 354.14157 0.68276846 -0.40015465 0.61131287 0.10928416
2568.7903 -1170.675 343.07599 0.758313 -0.64779961 0.072918288 0.10819557
2605.3936 -1119.6176 344.74707 0.72883654 -0.34741884 0.58999783 0.087475426
2598.5986 -1138.4982 340.99838 0.69240129 -0.43302599 0.57712126 0.06750419
2618.0388 -1103.0276 342.03391 0.66453207 -0.47147179 0.57975125 0.079912499
2556.0012 -1187.3179 342.50793 0.81810129 -0.53874862 -0.20114729 0.058847908
2587.3279 -1154.3137 341.66125 0.66568357 -0.66770351 0.33322278 0.069633015
2547.2617 -1204.5687 341.73276 0.9337669 -0.27839494 -0.22489019 0.042650789
2542.9692 -1225.2754 343.31445 0.98311561 -0.06819915 -0.16980149 0.035074931
2540.0078 -1177.9554 408.0076 0.98376495 0.0039777295 0.17941761 0.093647376
2543.5012 -1194.3199 409.35461 0.8973316 0.40771362 0.16901353 0.12388296
2541.2114 -1163.8539 406.02246 0.94254309 -0.049383271 0.33041468 0.070777781
2542.7141 -1196.0486 414.448 0.9401632 0.31713963 -0.1245617 0.13648957
2538.5269 -1177.3977 416.72824 0.97773153 0.069068871 0.19816796 0.12406774
2550.8313 -1231.9824 367.41028 0.94344461 -0.014172303 -0.33122712 0.069988899
2551.7859 -1212.2207 363.74326 0.88992143 -0.1600886 -0.42709664 0.074448429
2598.585 -1148.5387 330.06326 0.73866397 -0.52310544 0.42513087 0.081007957
2555.9067 -1160.7684 372.30103 0.87526155 -0.085069254 0.47610965 0.13818857
2584.4846 -1122.4155 373.7869 0.63805544 -0.72339588 0.26378709 0.10426396
2540.9609 -1209.9924 319.00537 0.97292644 -0.18833429 -0.1339566 0.046680771
2614.8955 -1118.7823 332.26733 0.78628558 -0.32457498 0.52574337 0.075654611
2546.2832 -1195.7438 321.04156 0.94024795 -0.33609614 -0.054527108 0.06394881
2560.0884 -1186.0903 369.54575 0.95870435 0.017627003 0.28385776 0.1340358
2555.344 -1197.3489 367.10001 0.95691735 -0.24153443 -0.16115293 0.161503
2608.3694 -1133.755 330.92401 0.7539289 -0.41569096 0.50871623 0.08195392
2571.5479 -1134.6436 371.67972 0.68637389 -0.54096425 0.48605406 0.10092287
2559.8328 -1147.7316 371.7179 0.7649762 -0.54520428 0.34287563 0.1254712
2636.9436 -1090.937 333.94897 0.57007402 -0.63859296 0.51692808 0.072358161
2542.9446 -1192.5874 413.82339 0.97439152 0.20671116 -0.08849638 0.11376701
2538.9143 -1170.9468 413.28271 0.95389336 0.055472128 0.29497516 0.10116123
2639.7009 -1090.8655 331.9718 0.4845714 -0.69349408 0.53315711 0.057463225
2610.782 -1107.6729 347.32541 0.74618089 -0.41708115 0.51890022 0.09789709
2585.8174 -1152.4084 342.72153 0.61268991 -0.52375853 0.59185141 0.062655672
2548.4819 -1165.3132 386.31888 0.91343534 -0.038243502 0.40518305 0.080118641
2636.2705 -1119.3033 303.83627 0.66696167 -0.46970358 0.57839495 0.074805729
2547.3479 -1180.0255 387.30862 0.90306056 0.077548422 0.42245463 0.071513891
2541.4224 -1221.7937 333.26453 0.97813338 -0.12789607 -0.164005 0.043520086
2545.5625 -1204.881 334.12119 0.93220329 -0.25363749 -0.25819564 0.049701467
2563.468 -1176.6238 338.35153 0.72547823 -0.68083537 -0.10072013 0.067317702
2552.9355 -1190.9622 336.02502 0.81787872 -0.47968763 -0.31776425 0.057271719
2578.303 -1165.4473 339.60938 0.71737301 -0.56895465 0.40207782 0.062969863
2553.2361 -1152.7441 384.65866 0.8730967 -0.29243353 0.39010873 0.087088205
2613.2529 -1137.8322 313.55225 0.78193539 -0.51939809 0.34467757 0.081695974
2586.1653 -1123.9794 361.85098 0.59325778 -0.57537186 0.56302077 0.1156975
2557.4048 -1152.9213 358.63373 0.87216777 -0.38526347 0.30148867 0.23023763
2624.1838 -1121.2144 316.9343 0.74208063 -0.43533468 0.5097059 0.057800625
2601.4934 -1105.4447 359.49045 0.7459985 -0.46777612 0.47399554 0.11037301
2569.4148 -1141.0038 363.16928 0.48920152 -0.61037356 0.62299758 0.12630942
2537.9548 -1215.7463 312.21906 0.95223522 -0.23109673 -0.19960557 0.05434094
2540.7202 -1175.1566 404.95969 0.9755159 -0.017517414 0.21923022 0.08806698
2546.4749 -1198.8387 405.84021 0.88788211 0.42880633 0.16670488 0.11863344
2543.324 -1158.7322 404.0589 0.93250066 -0.20541289 0.29706573 0.063015372
2553.6328 -1143.9663 397.66406 0.82454467 -0.53648108 0.17976125 0.063956551
2545.8276 -1158.8451 396.72818 0.93778032 -0.25342247 0.23737122 0.060613297
2543.3647 -1176.0852 398.31747 0.93957543 -0.012575986 0.34211096 0.074320443
2559.2581 -1204.7255 373.92856 0.721991 0.04655287 -0.69033456 0.16188972
2562.0293 -1142.8877 374.17285 0.70434409 -0.67960519 0.20502737 0.10169063
2547.0273 -1195.8887 422.15359 0.85453504 0.18890078 -0.48382473 0.12053292
2579.6907 -1126.8689 374.3046 0.599994 -0.75496703 0.26463556 0.12433633
2555.9846 -1184.3374 375.14023 0.84730196 0.09482041 0.52257872 0.12640156
2533.335 -1167.8632 423.32663 0.91637194 0.02350571 0.39963728 0.14230874
2553.6128 -1156.8374 376.88504 0.87081784 -0.21017906 0.44441086 0.11759043
2557.436 -1141.2466 391.41403 0.78152889 -0.57197189 0.24912 0.077445529
2548.3845 -1157.6809 391.69055 0.92632252 -0.26450831 0.26825726 0.065215029
2548.5847 -1181.0671 392.7973 0.8892957 0.14387564 0.43411165 0.082742631
2542.8511 -1190.8195 416.9227 0.97439152 0.20671116 -0.08849638 0.11376701
2538.2251 -1167.976 414.74585 0.94978386 -0.029448807 0.31151786 0.092028409
2543.9644 -1204.604 328.05472 0.95457464 -0.25670719 -0.15129006 0.047952805
2549.3574 -1207.7402 428.76328 -0.6040585 0.46328732 0.64844292 0.097153477
2566.7947 -1200.6807 384.92041 0.89295083 -0.14357421 -0.42664415 0.13098714
2553.4133 -1154.9209 379.25058 0.87747407 -0.31137598 0.3648071 0.12122077
2623.1377 -1094.4797 343.11911 0.63734937 -0.44116884 0.63178778 0.1145722
2539.0723 -1181.1281 424.31073 0.98375124 0.1691207 0.060263533 0.11885659
2561.6201 -1142.2874 379.81555 0.73343718 -0.64027834 0.22828394 0.098901764
2616.3379 -1108.5685 339.50729 0.71096569 -0.46332273 0.52901781 0.08421687
2550.6482 -1191.3162 329.17908 0.85565776 -0.50237751 -0.12436481 0.084435359
2609.8203 -1124.3441 336.9801 0.77273452 -0.40239912 0.49087304 0.06575948
2602.6514 -1139.3412 334.33731 0.74441957 -0.47194993 0.47233757 0.087453492
2564.1572 -1175.8501 337.41281 0.70351183 -0.64136642 -0.30613765 0.059199598
2576.1526 -1129.1851 381.01825 0.63427216 -0.76937938 0.075856484 0.11963973
2540.3535 -1222.1873 327.73773 0.97280622 -0.13461275 -0.18848729 0.043739792
2557.6155 -1181.343 375.83307 0.90623635 0.12969281 0.40238714 0.11354971
2577.5 -1127.1954 378.75122 0.65809935 -0.7153793 0.23481423 0.11054155
2555.7432 -1155.5302 377.52921 0.86125523 -0.16645207 0.48013869 0.12425991
2608.9436 -1127.9688 334.96204 0.75442749 -0.41672802 0.50712615 0.070743576
2563.4495 -1141.0062 376.80341 0.73899323 -0.57766789 0.34668261 0.083645768
2614.8167 -1112.0125 337.89267 0.73472035 -0.38740698 0.5568679 0.07632754
2620.7908 -1098.2889 342.66083 0.62394542 -0.48595238 0.61199868 0.10381604
2539.5593 -1220.5491 322.40628 0.97515023 -0.15041564 -0.16265668 0.052281979
2600.9407 -1142.5872 333.60855 0.74366963 -0.46419248 0.48112452 0.069364652
2550.0298 -1192.1742 324.83838 0.86354148 -0.49956712 -0.068766341 0.091557868
2550.2957 -1205.9971 420.94357 0.84436131 0.36888188 -0.38856158 0.14787742
2542.9983 -1207.4043 326.26761 0.94690323 -0.25174955 -0.19999102 0.049041968
2555.5483 -1191.9373 375.70636 0.8327837 -0.11557342 0.54140019 0.15911719
2554.6348 -1172.9785 376.12915 0.82276261 0.010842429 0.56828171 0.081044294
2556.8499 -1210.0514 371.3071 0.78403163 -0.16997664 -0.5969944 0.091072761
2539.2839 -1180.9407 420.40176 0.98413301 0.16590072 0.062922359 0.11178234
2549.6907 -1199.7825 425.65958 0.8631891 0.27183354 -0.42545402 0.14440179
2558.0173 -1148.9496 378.55139 0.78013414 -0.40165263 0.47965181 0.11335223
2597.2659 -1146.1597 336.18936 0.7317124 -0.43944204 0.52104485 0.082024992
2545.469 -1201.1385 329.93311 0.95018935 -0.28067201 -0.13551153 0.05311976
2558.5178 -1191.7098 381.20557 0.99367172 -0.038538799 0.10550467 0.18518615
2541.3179 -1216.5074 328.43155 0.97462833 -0.14905696 -0.166978 0.045143668
2552.4778 -1165.0898 380.80014 0.87813449 -0.053351652 0.47542968 0.079331897
2566.8313 -1134.7166 381.69006 0.7035113 -0.65939248 0.26509139 0.088410251
2554.8379 -1185.6057 330.78082 0.79286885 -0.57302749 -0.20736074 0.07167954
2605.2708 -1130.7339 337.83051 0.75366551 -0.43520901 0.49252552 0.069590166
2618.6555 -1099.264 343.80237 0.61766922 -0.46570942 0.63371873 0.097986937
2615.49 -1115.9926 335.53406 0.80887556 -0.29469186 0.50879955 0.076646231
2540.3782 -1183.8468 415.12125 0.99010348 0.11004086 0.087098524 0.11126677
2547.8184 -1206.3318 415.2428 0.84436131 0.36888188 -0.38856158 0.14787742
2538.8286 -1164.7357 412.21664 0.93169624 -0.034331899 0.36161232 0.085277192
2556.5256 -1207.719 433.54214 -0.61345285 0.36346853 0.70111781 0.090646662
2550.4971 -1192.2915 332.8266 0.85997462 -0.49226707 -0.13459846 0.089926191
2607.9463 -1128.0612 336.30222 0.75703114 -0.41272783 0.50651711 0.07213863
2541.283 -1233.019 336.95416 0.98495555 -0.066269629 -0.15959609 0.042621266
2569.6423 -1133.3201 381.29523 0.65832257 -0.73740941 0.15112484 0.10331603
2543.7605 -1209.7256 334.00485 0.95922524 -0.24484749 -0.14119722 0.049206909
2566.6582 -1173.2441 337.3443 0.66000104 -0.72293895 -0.20434754 0.061024599
2553.0969 -1169.1653 381.39627 0.87423056 0.04977512 0.48295277 0.084169462
2618.9954 -1109.3407 335.26663 0.71359676 -0.46837929 0.52096117 0.061855778
2592.6892 -1144.2335 342.91174 0.65069062 -0.35825786 0.66951698 0.08512494
2556.9294 -1147.7626 381.27921 0.7530269 -0.6178686 0.22624955 0.1061887
2556.4253 -1153.0365 372.95883 0.83467406 -0.39444634 0.38435835 0.1247316
2539.7439 -1183.6687 420.4744 0.98375124 0.1691207 0.060263533 0.11885659
2536.0569 -1164.0226 418.44418 0.92172259 -0.019734912 0.38734743 0.10958982
2558.2925 -1178.417 370.96243 0.87214726 0.098083213 0.47931084 0.10524085
2569.2588 -1137.0995 371.74445 0.68795782 -0.60096496 0.4068847 0.097330689
2554.9404 -1217.6062 370.69797 0.80717146 -0.082370467 -0.58454198 0.10117485
2585.022 -1124.6877 371.32761 0.54090184 -0.83903921 0.058637489 0.10085546
2550.6367 -1195.2334 377.23273 0.76229638 -0.30204394 0.57242793 0.10848494
2542.8608 -1175.7266 400.90268 0.92992938 0.052299857 0.36400005 0.081408553
2545.3123 -1155.8889 399.41455 0.93246502 -0.19220918 0.30588344 0.065373637
2541.5679 -1167.7487 404.62811 0.9538849 -0.054098684 0.29525739 0.077112474
2562.8157 -1180.8564 361.40134 0.97037452 -0.21404763 0.11205754 0.11242095
2542.3799 -1187.4399 406.95392 0.95039666 0.15748493 0.26822507 0.11663359
2555.3481 -1198.7512 362.18686 0.9025045 -0.3443594 -0.25865462 0.09108717
2550.3831 -1219.2383 362.01132 0.91974872 -0.09194959 -0.38158554 0.069990687
2572.6147 -1141.6639 362.40826 0.58381528 -0.59003299 0.55769241 0.11640647
2587.4805 -1125.2954 361.00562 0.61518276 -0.5824995 0.53126693 0.096950904
2566.385 -1159.0903 359.27924 0.7952497 -0.1867059 0.57681781 0.11447614
2599.5176 -1107.111 360.23724 0.70928079 -0.48845053 0.50826848 0.10024515
2636.8406 -1107.4938 313.31122 0.67944485 -0.55141914 0.48403677 0.051932745
2624.2744 -1124.1825 313.1651 0.74435049 -0.49525732 0.44795367 0.052235957
2578.8301 -1157.4696 348.13593 0.66886002 -0.47171479 0.57455319 0.072283886
2600.2646 -1122.6967 349.25052 0.66206747 -0.36473867 0.65470022 0.069438457
2546.2085 -1161.5559 394.53381 0.9271726 -0.10859383 0.35855031 0.074673638
2590.0354 -1140.4354 347.93048 0.62355745 -0.36495727 0.69136262 0.066578768
2545.5952 -1234.0094 351.85709 0.97224003 -0.015424471 -0.23347674 0.038572796
2612.8455 -1105.278 347.13684 0.71610272 -0.44786632 0.53536218 0.094840035
2546.5581 -1183.067 396.80023 0.9026559 0.1368413 0.40802795 0.082575969
2627.2617 -1090.5923 348.7254 0.58491808 -0.73810059 0.33627126 0.1414506
2568.4937 -1174.392 351.54947 0.81413317 -0.57659352 -0.068753704 0.067449577
2644.0955 -1102.2869 310.00818 0.63352644 -0.60248566 0.48544332 0.036045108
2552.2468 -1165.1084 380.63562 0.89268976 -0.029792588 0.44968587 0.09097904
2546.3638 -1199.7864 331.15378 0.92408472 -0.31015265 -0.22332211 0.061149575
2539.6519 -1231.0547 328.84583 0.96992433 -0.081430599 -0.22938155 0.048826467
2541.7666 -1215.8162 330.2218 0.97379416 -0.14514235 -0.17509615 0.043008421
2565.6128 -1208.9458 381.31754 0.76877379 -0.10750204 -0.63042063 0.11558026
2554.5925 -1185.7352 332.15662 0.79812741 -0.51853418 -0.30678162 0.068927094
2564.3599 -1195.0554 385.46426 0.94360137 0.13034406 -0.30434668 0.19352072
2604.6135 -1135.5641 335.83884 0.73544008 -0.44165877 0.51387292 0.088078819
2554.5266 -1150.5021 380.71753 0.83504111 -0.49645147 0.23715451 0.09897127
2593.1033 -1149.5258 337.87796 0.7153632 -0.55603409 0.42318031 0.082198918
2565.5178 -1136.4899 382.16647 0.70745939 -0.6691671 0.22741292 0.077786431
2608.4326 -1120.1807 341.31067 0.76919848 -0.32123733 0.55239505 0.073581532
2616.0217 -1105.6671 342.76932 0.708305 -0.4624559 0.53332782 0.08427678
2628.8943 -1090.9705 341.1066 0.51185644 -0.49331763 0.70330697 0.14950089
2615.8882 -1102.6115 344.03815 0.61919868 -0.45747632 0.63820714 0.088422909
2542.3887 -1208.922 326.27869 0.96621597 -0.20299827 -0.1588029 0.047275212
2606.2292 -1131.7013 336.34979 0.73212999 -0.44631767 0.51457381 0.075852595
2613.0964 -1117.4432 337.59152 0.8059032 -0.32137978 0.49722734 0.070995882
2539.6829 -1226.5981 327.75293 0.96845621 -0.11733185 -0.21983132 0.04623086
2548.3127 -1195.0756 328.69998 0.90052778 -0.41881245 -0.11681538 0.076061636
2597.072 -1146.7758 335.69086 0.73239195 -0.46506184 0.49731231 0.082146347
2545.6189 -1199.6119 415.80209 0.89203984 0.34215888 -0.29528329 0.14090341
2538.8848 -1175.7645 415.58014 0.97724873 0.079762951 0.19652678 0.11131934
2542.1125 -1227.8536 339.34387 0.98095536 -0.076061562 -0.17872107 0.034858067
2553.613 -1157.7545 382.15866 0.84535706 -0.14961106 0.51282352 0.084947273
2638.6816 -1087.7466 334.9256 0.6240046 -0.59328258 0.50856078 0.075180754
2601.9531 -1139.4833 335.18268 0.73100519 -0.45460263 0.50888884 0.068390399
2565.9507 -1137.1737 379.48816 0.71956778 -0.5947386 0.35848039 0.089145839
2556.3171 -1186.3812 338.37723 0.77957821 -0.55432194 -0.29152194 0.059901077
2617.5989 -1104.5724 340.57965 0.66118497 -0.48485386 0.57249558 0.080743864
2568.8169 -1172.0706 336.28226 0.65611643 -0.74774301 0.10193901 0.071060501
2551.2202 -1179.1212 384.58963 0.87667638 0.13627344 0.46137628 0.077571303
2609.2993 -1121.0734 337.99908 0.76268661 -0.36778986 0.53201479 0.069738217
2545.6252 -1183.5669 392.87766 0.93427551 0.053071182 0.35258007 0.066364668
2552.6021 -1150.5006 390.49423 0.85478926 -0.49292755 0.16235073 0.07021416
2547.1475 -1167.0618 390.90451 0.92126268 -0.026508942 0.38803652 0.071954951
2550.0913 -1228.2982 365.49106 0.94199497 -0.039607532 -0.33328182 0.060764156
2595.6414 -1114.7444 360.13446 0.67519069 -0.41020557 0.61306518 0.077066824
2581.4067 -1131.4036 363.48547 0.60158306 -0.60482758 0.52180594 0.10135721
2561.2842 -1167.9913 364.63315 0.88987309 -0.010832172 0.45607957 0.10876961
2629.4573 -1111.4282 319.00284 0.70671493 -0.41077024 0.57603979 0.063683644
2540.4717 -1173.005 408.89172 0.97960013 0.0093715843 0.20073815 0.093879744
2620.8301 -1128.328 314.86716 0.79412222 -0.49119833 0.35790238 0.057645515
2545.7429 -1199.1042 412.02814 0.92196238 0.3738941 -0.10093828 0.12037495
2558.1729 -1189.1178 365.98016 0.99485588 -0.099892609 -0.016831234 0.16543508
2565.9788 -1148.4243 366.01291 0.6102277 -0.49664637 0.6172232 0.12083531
2552.1731 -1207.848 363.19321 0.86129379 -0.22190061 -0.45709205 0.075411133
2616.8542 -1092.7126 351.013 0.67152697 -0.40288663 0.62187934 0.15214215
2547.5469 -1219.2745 355.17056 0.94588888 -0.10197851 -0.30804974 0.04224398
2551.7297 -1149.5588 398.50653 0.85733026 -0.48956862 0.15908301 0.056434248
2641.6909 -1109.2411 305.19455 0.67547274 -0.5145604 0.52817059 0.11273369
2543.4929 -1168.973 399.01703 0.93094575 -0.01000021 0.36502054 0.065107733
2572.1497 -1162.631 352.9899 0.76072806 -0.36536786 0.5364691 0.08423356
2554.1453 -1200.2296 359.09155 0.86017668 -0.40702251 -0.30729255 0.070308991
2562.1008 -1179.9951 354.97382 0.88930762 -0.4572705 0.0059718918 0.10297392
2583.2434 -1144.8184 351.94354 0.59515715 -0.40037611 0.69676894 0.067512147
2594.1096 -1127.3929 353.05905 0.62237704 -0.42433819 0.65771115 0.065942355
2606.0442 -1110.0941 350.75934 0.72485799 -0.34922644 0.59381968 0.09742301
2544.4773 -1189.5564 401.73969 0.9443965 0.16912672 0.28197759 0.10421622
2547.884 -1160.3422 390.67365 0.92815477 -0.16853938 0.33184823 0.076800443
2597.2419 -1140.9353 341.28494 0.69389719 -0.41734424 0.58679682 0.080394216
2565.425 -1173.1161 346.08868 0.78634095 -0.61585164 0.048935786 0.11824943
2546.1853 -1178.8606 393.72333 0.91502476 0.020629505 0.40286979 0.078524612
2545.5137 -1233.9637 350.86734 0.97037041 -0.010100468 -0.2414109 0.037941184
2604.5896 -1122.2791 344.81219 0.71239948 -0.36411327 0.59992379 0.076276869
2557.6064 -1143.0894 390.79376 0.75912333 -0.60851508 0.23117337 0.082811341
2547.8862 -1209.9691 348.03079 0.93382883 -0.25311846 -0.25277412 0.034911603
2580.9688 -1157.1544 344.99887 0.61841363 -0.50709963 0.60034531 0.058923725
2618.3167 -1104.74 341.48935 0.73288447 -0.46714371 0.49462828 0.090553977
2632.3057 -1088.9465 344.36984 0.49230567 -0.74696904 0.44684711 0.17931435
2541.3679 -1210.4225 322.47995 0.96162862 -0.21099763 -0.17535786 0.048430182
2627.625 -1113.4066 320.43988 0.72902465 -0.48907945 0.47887823 0.05001517
2615.3711 -1130.6302 320.4982 0.80168182 -0.47994012 0.35631973 0.069518931
2566.2209 -1143.9617 360.73523 0.68815315 -0.65946734 0.30256909 0.12164678
2558.334 -1190.632 358.58731 0.87308192 -0.44802999 -0.19234613 0.089196958
2545.241 -1152.5959 354.21786 0.65218526 -0.70678437 -0.27406237 0.1652744
2578.3887 -1132.2183 364.75854 0.63218868 -0.61531657 0.47087467 0.11531413
2536.7048 -1216.5533 305.51227 0.96477199 -0.19736637 -0.17395854 0.086686328
2544.9192 -1193.0986 403.76913 0.92658103 0.28609261 0.24412835 0.11331929
2542.4751 -1171.0333 401.58463 0.9294337 -0.020987425 0.36839184 0.069805637
2558.3152 -1185.1238 328.34546 0.69799221 -0.65769315 0.28327841 0.08506804
2597.9395 -1146.9614 333.96039 0.73810983 -0.47084129 0.48322085 0.074937835
2538.7351 -1225.4939 322.08383 0.97668499 -0.10186773 -0.18896933 0.06033922
2605.4312 -1131.3706 336.5593 0.7604838 -0.42869699 0.48773283 0.073016554
2573.5044 -1130.6187 374.88565 0.69301659 -0.52054232 0.49876213 0.10911803
2561.1545 -1144.6676 376.47842 0.75727671 -0.52079529 0.3940866 0.095874317
2541.7234 -1210.9393 325.05045 0.96162862 -0.21099763 -0.17535786 0.048430182
2554.4817 -1160.23 378.07089 0.85807794 -0.056685902 0.51038116 0.11429561
2613.7559 -1116.8972 335.83823 0.78667647 -0.33107027 0.52108794 0.07177218
2547.5842 -1195.8776 326.34222 0.89948934 -0.41794977 -0.12742426 0.086952701
2553.5127 -1177.8254 377.55832 0.84836787 0.058914416 0.52611887 0.07481306
2622.7197 -1102.1082 337.01279 0.69342393 -0.48299876 0.53467321 0.071277156
2542.1567 -1187.6671 415.34146 0.9815132 0.17037639 -0.087199233 0.11537413
2555.9639 -1200.989 368.01376 0.89845318 -0.27413803 -0.3429727 0.10235359
2559.6145 -1180.1222 366.44992 0.92633265 0.081675582 0.3677457 0.13246657
2544.9089 -1196.7606 417.49194 0.92546374 0.1720639 -0.3375068 0.13136683
2538.9614 -1167.2832 413.13437 0.95909923 -0.068571582 0.27463895 0.083903566
2565.2732 -1140.9949 364.25632 0.71523494 -0.6878773 0.12354711 0.10240027
2581.7578 -1125.3601 367.495 0.66889566 -0.62268233 0.40601146 0.11805527
2557.2598 -1154.6788 368.83737 0.8526423 -0.27858096 0.44203371 0.17777996
2540.3735 -1227.1 329.73099 0.97886503 -0.071215704 -0.19170712 0.044486132
2614.2717 -1125.1383 329.15298 0.7964468 -0.4055801 0.44852793 0.068940535
2547.2512 -1197.4407 422.72919 0.8989777 0.22652346 -0.37486833 0.13518618
2567.2583 -1140.3811 371.41089 0.65549028 -0.54699939 0.52069587 0.095803797
2625.3499 -1107.2443 329.27777 0.6871779 -0.47969246 0.54560214 0.066345178
2553.4187 -1189.9182 330.69846 0.69474262 -0.63057989 0.34597939 0.067682691
2602.6504 -1142.6833 330.7366 0.73868573 -0.46913949 0.48399535 0.07575056
2558.3643 -1158.1284 372.90781 0.8299666 -0.078134827 0.55231363 0.13430597
2564.9692 -1208.799 381.58978 0.79906166 -0.19076787 -0.5701825 0.1153564
2543.9216 -1205.7277 329.17438 0.95786631 -0.24188252 -0.15487066 0.04506848
2582.3945 -1125.8416 372.55469 0.58697206 -0.77520758 0.23348889 0.11307678
2629.3828 -1117.2885 313.23917 0.7145279 -0.53856826 0.44653568 0.050439268
2543.8311 -1159.1323 402.15103 0.93003124 -0.15611047 0.33267319 0.064110138
2551.3865 -1214.0647 362.84644 0.91825759 -0.1536857 -0.36494339 0.070474811
2642.0654 -1101.1847 314.64841 0.6023674 -0.6371907 0.48077184 0.031069053
2556.5278 -1194.197 361.86551 0.91122222 -0.34022301 -0.23221199 0.089353256
2604.7947 -1102.3149 359.14273 0.73946238 -0.42024499 0.52591777 0.13274217
2593.6326 -1120.298 358.75128 0.69050533 -0.35449469 0.63050449 0.072399452
2579.5576 -1137.134 360.45276 0.6455282 -0.46993688 0.60204047 0.085213192
2549.4619 -1234.749 362.48367 0.94547951 0.053181257 -0.32131013 0.063619323
2615.8096 -1133.8754 313.91852 0.78795385 -0.5153681 0.33693388 0.073833913
2570.8914 -1155.1003 358.05438 0.66353756 -0.40547574 0.62873471 0.090444468
2561.009 -1173.887 360.62451 0.9298476 -0.10607323 0.35232359 0.12551512
2542.3611 -1180.078 404.76367 0.93178874 0.11383618 0.34468985 0.10040305
2570.2466 -1169.5565 347.67633 0.83587784 -0.54416192 0.072083727 0.099758886
2543.231 -1229.8726 342.82281 0.97645581 -0.033028159 -0.21317399 0.040108025
2587.2856 -1142.9564 349.07346 0.61623663 -0.37512827 0.69248194 0.06236532
2594.1123 -1127.7472 352.16815 0.62570411 -0.42032498 0.65713108 0.065591335
2610.7708 -1098.7079 355.87775 0.73735607 -0.4545159 0.49972126 0.14400977
2581.1086 -1155.8527 346.33105 0.62706304 -0.50717753 0.5912385 0.0638877
2636.3362 -1111.2366 310.28009 0.67573917 -0.47559074 0.5631963 0.079486907
2647.5432 -1097.516 311.41553 0.6340273 -0.60231847 0.48499677 0.038598645
2559.8416 -1182.7734 346.79712 0.80047053 -0.56430078 -0.20201863 0.060134072
2545.7009 -1211.924 343.07037 0.94487578 -0.24034873 -0.22235627 0.038012963
2603.0398 -1113.2104 351.21631 0.70884806 -0.28550893 0.64499539 0.090829752
2555.3018 -1208.9363 368.36368 0.8188991 -0.23552907 -0.5233835 0.083035618
2558.1003 -1191.7576 367.08011 0.96200335 -0.25925744 -0.085645057 0.15805922
2581.2717 -1127.9484 368.77264 0.58545488 -0.65483409 0.47794861 0.11167204
2570.0903 -1142.532 367.09442 0.62179095 -0.47796211 0.62042588 0.083769947
2540.625 -1184.1647 411.64819 0.96232861 0.11529928 0.24623094 0.11045678
2560.5627 -1156.3993 368.66321 0.83175272 -0.12957518 0.53981262 0.12091583
2613.9741 -1128.0067 327.12286 0.79465091 -0.40525067 0.45199761 0.071786404
2561.7432 -1177.9135 365.61819 0.93449533 -0.012931757 0.35574034 0.1293893
2539.6558 -1166.8428 411.06305 0.96193588 -0.045232348 0.26950589 0.082232431
2604.5457 -1143.1995 327.13525 0.77791578 -0.4488042 0.43979749 0.10066903
2549.7991 -1221.3688 362.17612 0.93236303 -0.071640685 -0.35435399 0.063670993
2621.3696 -1112.775 327.9321 0.74882782 -0.42372718 0.50961959 0.065646477
2560.0935 -1206.5757 375.29922 0.81274217 -0.18089172 -0.55383062 0.090200916
2564.2085 -1142.3973 369.26282 0.67701209 -0.70738089 0.20314258 0.11214352
2544.0452 -1201.7245 323.13138 0.95251542 -0.2748473 -0.13104707 0.05346315
2619.0591 -1122.5187 323.61542 0.79619306 -0.38994119 0.46262562 0.071807846
2579.0393 -1128.3619 369.65753 0.6248405 -0.76168507 0.17149396 0.11101271
2545.9004 -1197.3914 419.55084 0.92800927 0.31258056 -0.20271209 0.14702143
2556.3555 -1156.4454 372.4541 0.87234312 -0.15090992 0.46502012 0.13703057
2556.7041 -1182.0399 371.87439 0.91355926 0.12304446 0.38764617 0.11788775
2539.5422 -1221.9231 324.08026 0.97178173 -0.16313358 -0.17037533 0.052910417
2560.4883 -1201.2631 433.42117 -0.6091032 0.32818228 0.72200394 0.091966204
2555.0933 -1182.0724 378.74457 0.86492598 0.1570278 0.4767026 0.094818629
2554.0972 -1154.6606 379.94843 0.8757931 -0.27587903 0.39607728 0.11468058
2563.9771 -1138.8839 379.88812 0.702308 -0.68034434 0.20951143 0.074173644
2556.0544 -1185.0364 335.97775 0.78676707 -0.52667153 -0.32189241 0.061163511
2603.1851 -1133.4438 339.77347 0.74802804 -0.43610004 0.50027078 0.082814932
2540.7192 -1229.9799 332.05115 0.98135656 -0.070396997 -0.17883936 0.046514679
2582.0354 -1160.1946 339.83365 0.67466265 -0.61999983 0.40053785 0.055781525
2607.8411 -1119.2075 343.42896 0.7751385 -0.28455108 0.56408417 0.074025676
2548.0542 -1198.6311 334.28513 0.89693689 -0.34984493 -0.27039364 0.063888714
2593.2869 -1148.1787 340.72394 0.6813153 -0.4573417 0.5715313 0.075127497
2542.9116 -1214.6599 334.45959 0.96450567 -0.15706271 -0.21227381 0.041229442
2565.7546 -1174.3373 337.48672 0.65216422 -0.75334901 0.084540509 0.063831873
2626.5042 -1089.6057 345.6554 0.59730208 -0.57303226 0.56112766 0.15239079
2617.8376 -1103.4673 342.64951 0.67752111 -0.46364319 0.57096422 0.097506061
2543.8784 -1165.5548 398.26019 0.94237649 -0.13479239 0.30619863 0.058451515
2551.6775 -1149.2042 397.33917 0.867015 -0.47477835 0.1512298 0.064018935
2542.0452 -1189.3899 415.87103 0.97967112 0.19627313 -0.041489709 0.11659583
2538.6357 -1170.1788 414.2912 0.95537835 0.072248101 0.28641307 0.10095188
2541.3228 -1189.3501 411.77924 0.98137963 0.17368093 0.08203005 0.11381537
2539.8855 -1171.181 410.79343 0.97876197 -0.045599785 0.19986419 0.095277287
2542.604 -1222.9722 340.06567 0.98416173 -0.06904541 -0.16327411 0.032700911
2546.3591 -1201.4796 334.85245 0.91336948 -0.30775309 -0.26654127 0.056427512
2604.0796 -1137.2157 334.77869 0.72225451 -0.46166998 0.51498473 0.085776873
2615.1567 -1101.574 345.23032 0.557051 -0.44895953 0.69866264 0.12897611
2572.3625 -1169.3936 338.07718 0.67053932 -0.72800857 0.14276043 0.072602384
2612.8064 -1120.1487 335.547 0.7983138 -0.28456816 0.53076923 0.07431908
2555.4775 -1185.5256 335.62753 0.75692725 -0.62537414 -0.18965316 0.070722416
2547.8337 -1194.8521 324.7402 0.89948934 -0.41794977 -0.12742426 0.086952701
2608.063 -1132.7266 332.3443 0.74775398 -0.43179607 0.50439686 0.077392153
2538.8562 -1225.7717 323.51004 0.9676702 -0.10301542 -0.23022212 0.055753887
2596.7588 -1147.2732 335.45441 0.74699563 -0.45175508 0.48776519 0.0865485
2541.9077 -1208.4009 322.68643 0.96621597 -0.20299827 -0.1588029 0.047275212
2635.585 -1089.4481 338.60773 0.52252674 -0.69497079 0.49394467 0.14228006
2613.7505 -1118.0809 334.5611 0.79655689 -0.32544228 0.50949436 0.072739325
2548.2324 -1213.9119 355.08475 0.94667113 -0.1385116 -0.29090947 0.045141369
2610.22 -1138.129 319.38757 0.78498518 -0.51901811 0.338258 0.09424448
2541.3066 -1175.8905 405.4166 0.94972795 0.079597183 0.30278897 0.090617076
2585.5161 -1124.522 365.34738 0.63549972 -0.64277625 0.42776018 0.097143881
2554.5742 -1200.4242 361.23746 0.86320484 -0.3970544 -0.31180963 0.08452481
2561.7407 -1186.1796 361.33466 0.94328731 -0.32650641 -0.060022015 0.10947112
2575.1272 -1138.7634 364.01346 0.66415596 -0.44980216 0.59713894 0.089019045
2630.3674 -1108.8987 320.75735 0.70108896 -0.47295043 0.53365922 0.063327439
2546.5698 -1231.0635 355.07019 0.96757025 -0.017206831 -0.25201535 0.044706162
2600.0688 -1110.2604 360.36319 0.68292826 -0.43887872 0.5839473 0.076841749
2566.2466 -1152.0095 362.96802 0.71258062 -0.3202298 0.62424493 0.11512674
2620.303 -1123.6595 320.78925 0.78489178 -0.39734459 0.47545999 0.057710048
2544.4102 -1192.6383 405.16196 0.92658103 0.28609261 0.24412835 0.11331929
2564.2036 -1169.8528 359.98743 0.86891574 -0.07119789 0.48981249 0.096689194
2542.7085 -1194.3145 409.30902 0.96888912 0.24343765 0.044631351 0.1106717
2553.7173 -1208.9402 365.17087 0.84224463 -0.1780266 -0.50885218 0.072876357
2616.3416 -1130.9854 318.24594 0.79531127 -0.48655087 0.36159128 0.069270007
2543.2302 -1156.0802 405.30045 0.92682153 -0.17872575 0.33024079 0.066133752
2557.0769 -1233.2179 367.8609 0.72061592 0.17008333 -0.67214906 0.098790884
2587.2454 -1131.2028 359.26459 0.6268627 -0.46701816 0.62364829 0.094429642
2559.9478 -1189.0645 364.37173 0.9496733 -0.29110685 -0.11566085 0.11672777
2542.2483 -1180.9879 406.28931 0.91956508 0.13454646 0.36918458 0.099158801
2599.8015 -1114.7218 356.1907 0.66696018 -0.39639369 0.63090104 0.071072899
2571.3542 -1148.5294 361.31506 0.61364722 -0.44712022 0.65078461 0.086500935
2628.1033 -1114.0735 319.06839 0.7172634 -0.51023531 0.47454521 0.055921119
2560.8386 -1188.1509 369.83383 0.97366816 -0.13419451 0.18428811 0.16534755
2554.5454 -1223.8167 370.94562 0.83379096 -0.10506015 -0.54199171 0.10300302
2538.1509 -1174.7836 416.76086 0.96990067 0.06662491 0.23420879 0.1100578
2543.781 -1195.5518 416.02698 0.93940145 0.28455627 -0.1911875 0.10883219
2554.5977 -1201.6642 367.4566 0.90605319 -0.16726273 -0.38870406 0.1579981
2575.5642 -1131.7582 369.92545 0.65820527 -0.56928837 0.49262214 0.11307006
2563.7461 -1146.8143 369.81256 0.69325876 -0.50720328 0.51199329 0.12525921
2556.9661 -1161.0129 371.78842 0.84418082 -0.0018257493 0.53605539 0.12727235
2549.1775 -1152.2876 398.46078 0.89789659 -0.35099837 0.26567245 0.067620322
2544.9021 -1189.2532 401.28699 0.93437123 0.17882927 0.30817285 0.10142535
2543.1604 -1168.1528 399.44458 0.94410336 -0.034692962 0.3278189 0.060363919
2543.2898 -1189.7906 416.69232 0.96214718 0.20504113 -0.17952964 0.11673287
2538.4988 -1165.8231 412.90311 0.93399888 -0.030039759 0.35601088 0.090491861
2538.0889 -1169.2532 414.64508 0.95045477 -0.047288746 0.30724508 0.090627603
2545.3237 -1197.5996 416.35828 0.92305315 0.33021808 -0.19730425 0.13278306
2550.1821 -1161.4622 385.48157 0.89901483 -0.080178998 0.43051559 0.086748242
2568.5688 -1131.5698 385.22711 0.6800046 -0.68110871 0.27144915 0.088816583
2552.948 -1200.1046 429.1615 0.74550205 0.41796973 -0.51916087 0.11436333
2557.5068 -1145.9313 383.35428 0.76710135 -0.54908508 0.33175462 0.087462626
2561.4663 -1195.8752 387.21225 0.994829 0.075489186 0.067946009 0.21238495
