# .PCD v0.7 - Point Cloud Data file format
VERSION 0.7
FIELDS x y z normal_x normal_y normal_z curvature
SIZE 4 4 4 4 4 4 4
TYPE F F F F F F F
COUNT 1 1 1 1 1 1 1
WIDTH 415
HEIGHT 1
VIEWPOINT 0 0 0 1 0 0 0
POINTS 415
DATA ascii
2539.9878 -1802.7241 184.73445 0.93669313 -0.34926459 -0.024903921 0.10931961
2537.8167 -1810.4791 189.32419 0.97292328 -0.2229915 -0.060787674 0.097037412
2533.5762 -1827.7349 201.08405 0.98678058 -0.16187197 0.0078414865 0.072605073
2534.9751 -1820.1475 195.84627 0.98650259 -0.16229577 -0.021742793 0.073128648
2547.3035 -1801.6902 179.20805 0.85731721 -0.30378896 0.41559526 0.16002168
2532.9988 -1837.5812 207.1674 0.99774897 -0.064439662 0.018560948 0.082910106
2533.7163 -1845.943 212.4606 0.9913637 0.12022273 0.052387483 0.078121401
2547.0632 -1870.6606 173.40874 0.90947562 0.39765093 0.12135834 0.044707797
2555.127 -1890.0621 179.59969 0.85522997 0.48494577 0.18278196 0.06934467
2553.7771 -1905.4023 198.14253 0.51619798 0.39697105 0.75891608 0.045674987
2567.8755 -1910.9154 185.22688 0.83236033 0.47353047 0.28800201 0.12893358
2542.6602 -1857.635 167.36761 0.93284214 0.34789059 0.09368962 0.061984003
2540.5938 -1848.7178 161.55576 0.93201506 0.33252686 0.14413135 0.081016213
2566.5735 -1910.355 192.35228 0.49996883 0.41621262 0.75947231 0.045977242
2538.8113 -1842.2249 175.82283 0.98160201 0.13092111 0.1389863 0.078755431
2543.0217 -1859.0404 165.2773 0.93035364 0.36304626 0.051375724 0.053132169
2549.3513 -1894.2125 197.11043 0.64773262 0.49240386 0.58136123 0.037905466
2537.0654 -1832.797 181.06717 0.98433793 0.032943815 0.17318657 0.089931481
2535.833 -1870.2125 210.5582 0.92195624 0.16789269 0.34901115 0.043494344
2550.894 -1886.1783 155.06822 0.98541033 0.15896708 -0.060794003 0.097218066
2536.9915 -1871.8361 207.12003 0.89992857 0.20984079 0.38222432 0.031271607
2543.9761 -1861.9127 159.52396 0.92425448 0.37867826 0.048543423 0.057537943
2542.3 -1910.0631 159.39337 0.048801299 0.4776606 0.87718803 0.10757317
2541.9436 -1878.7272 202.58591 0.89592129 0.29325742 0.33365428 0.040701419
2535.1855 -1818.9475 183.76765 0.99681073 -0.077505417 -0.019006215 0.091255181
2542.6409 -1856.7859 170.11005 0.9361307 0.31277496 0.16072066 0.071791708
2546.1902 -1894.1469 151.1266 -0.49979702 0.19256756 0.84446472 0.11956433
2537.4443 -1813.6398 188.81964 0.9814468 -0.19058545 -0.020962059 0.093004763
2551.8076 -1896.2661 151.5211 0.97771901 0.036177959 -0.20677704 0.1171526
2559.5356 -1781.255 212.02502 0.70212877 -0.66653174 -0.25050071 0.086386368
2547.3308 -1793.509 202.56802 0.81500667 -0.53649962 -0.21893443 0.06067396
2567.5796 -1776.3428 216.41643 0.58259398 -0.76668882 -0.26976377 0.1058194
2553.2275 -1786.8043 207.33669 0.7674315 -0.61632448 -0.17661545 0.065316767
2542.5239 -1799.1803 196.59563 0.85762382 -0.46648073 -0.21651129 0.077245012
2539.6753 -1807.0807 193.44885 0.95174581 -0.2966561 -0.07858175 0.091324702
2557.8274 -1788.601 223.45981 0.71554655 -0.53507942 -0.44909149 0.097609833
2544.2766 -1798.9305 205.84709 0.85147178 -0.45992583 -0.25192067 0.055371691
2547.4189 -1795.2799 209.88147 0.86181509 -0.43673381 -0.25795016 0.061116073
2539.2498 -1804.5001 184.55115 0.95416164 -0.29686064 -0.038069792 0.11447353
2551.0647 -1794.5979 216.06892 0.79162997 -0.51521558 -0.3284432 0.063371725
2538.2935 -1806.0277 180.61128 0.94923729 -0.31099951 0.047200534 0.13228384
2542.7661 -1801.2335 200.36037 0.88143593 -0.42124325 -0.21359983 0.072458714
2554.5166 -1792.5089 221.52933 0.78930086 -0.50204313 -0.35349235 0.074103631
2539.7561 -1803.9543 189.89091 0.93421459 -0.34345847 -0.096329689 0.097502887
2540.9456 -1802.1271 194.974 0.9077071 -0.37666598 -0.18490691 0.073556073
2560.4961 -1828.6149 170.87088 0.48701373 -0.19252883 0.85190982 0.087293714
2565.3586 -1786.7096 236.80643 0.73334241 -0.57652837 -0.36031094 0.16026647
2549.3064 -1810.238 175.85042 0.47137848 -0.10998216 0.87504643 0.1707669
2541.563 -1852.9709 162.71213 0.93274033 0.34020427 0.11940088 0.081420161
2556.8896 -1795.5463 165.25935 0.89165789 -0.21213607 0.39993066 0.17329814
2538.3669 -1838.5593 160.88737 0.97462344 0.19059694 0.1173965 0.095295459
2553.1719 -1907.1786 157.85463 0.97579044 -0.033697326 -0.216096 0.14120275
2547.5593 -1799.2013 166.67294 0.72375339 -0.59373122 0.3516593 0.13178131
2551.436 -1881.8391 159.95432 0.93373138 0.34435764 -0.097793557 0.058488641
2540.6917 -1814.4369 175.44563 0.5552476 -0.082317755 0.82760131 0.17498645
2560.8608 -1781.5051 165.34126 0.8160823 -0.47889808 0.32352179 0.13926023
2552.3169 -1780.2452 150.12204 0.28372097 -0.80156106 -0.52631009 0.10746299
2564.8445 -1780.6993 158.90678 0.59834927 -0.778198 0.19075114 0.10274631
2559.9092 -1784.0885 152.04424 0.52579302 -0.85052532 0.012180623 0.12127905
2566.7632 -1773.2249 162.28781 0.86092824 -0.4721449 0.18942475 0.11466827
2535.4189 -1837.4287 192.22198 0.97862411 0.087100372 0.18630187 0.072717689
2548.3557 -1810.5344 175.73538 0.66453111 -0.10583563 0.7397278 0.17158929
2534.9756 -1835.9524 197.14494 0.98799121 0.04823805 0.14678723 0.072465092
2536.5544 -1842.313 186.78653 0.9827798 0.12155786 0.13916725 0.062790096
2539.9548 -1849.5151 175.74432 0.97264493 0.20766804 0.10409528 0.063104562
2545.1536 -1813.778 176.5675 0.59229618 -0.14720871 0.79215831 0.16152146
2540.8755 -1814.4019 174.53583 0.62430948 -0.080471121 0.77702129 0.17483012
2547.6687 -1795.437 183.22379 0.80604631 -0.52680248 0.26975623 0.15711948
2536.3896 -1816.8107 158.70395 0.9671948 -0.1413452 0.21108249 0.1153563
2551.0835 -1789.4436 187.78867 0.77342337 -0.62812555 0.085291088 0.13793546
2547.2878 -1803.515 178.02805 0.74597347 -0.29827213 0.59544718 0.15773717
2538.3945 -1847.2104 181.72444 0.9808358 0.14356631 0.13171892 0.059159588
2559.8704 -1899.7334 190.14117 0.64226377 0.52275378 0.56055844 0.056674264
2536.5728 -1827.3348 191.94536 0.96255684 -0.14460136 0.22929192 0.11263371
2539.429 -1859.1793 190.94708 0.96201378 0.20364425 0.18182008 0.04290548
2540.0806 -1868.3096 197.27376 0.92309451 0.30713975 0.23143399 0.030043706
2538.7642 -1805.8436 181.84727 0.96000272 -0.27958763 -0.015016335 0.12290145
2547.0208 -1895.7137 202.55109 0.70810115 0.45074278 0.54352891 0.047656234
2550.8262 -1896.1001 150.40871 0.94724762 0.022726089 -0.3196958 0.1197229
2535.8127 -1843.0658 192.16698 0.97676271 0.13394617 0.16731109 0.059097197
2549.1514 -1795.1697 180.69563 0.75301927 -0.51844877 0.40518245 0.16741261
2535.3552 -1821.6309 186.65292 0.99532348 -0.067124516 0.069465429 0.083154552
2550.9026 -1886.0515 189.95825 0.82705951 0.43653563 0.35413158 0.045290887
2537.2351 -1815.9775 189.28674 0.9815883 -0.18328589 0.053765245 0.10002372
2536.8511 -1845.9155 189.16573 0.97693127 0.096990064 0.1902582 0.061503448
2545.9058 -1795.9512 189.99893 0.88779074 -0.4601379 0.010033736 0.13491899
2558.3516 -1778.2229 189.52705 0.71423298 -0.69705611 -0.063119181 0.072953932
2545.4993 -1867.8025 176.0704 0.92199069 0.36472803 0.13002563 0.049701486
2538.8445 -1834.8888 177.61739 0.9765361 0.038171835 0.21194373 0.096122876
2549.6672 -1793.7103 181.94525 0.73970401 -0.54670072 0.39237261 0.1656031
2561.5696 -1777.551 183.22348 0.69612473 -0.69330424 0.18638562 0.10172287
2541.8872 -1812.4797 179.21495 0.91109318 -0.15137741 0.38339818 0.17217073
2550.1243 -1793.3134 181.68373 0.73747987 -0.5460456 0.39743894 0.16792829
2553.918 -1785.8329 191.03334 0.74032873 -0.67170709 0.026888728 0.10767563
2557.2087 -1781.3994 196.28717 0.74040163 -0.66160011 -0.11870447 0.082821518
2561.0105 -1777.0094 200.99782 0.73573935 -0.65952736 -0.15398462 0.068682857
2549.1689 -1796.729 177.532 0.74588937 -0.48828053 0.45302445 0.15118071
2551.7317 -1789.1702 185.65724 0.77300775 -0.62355113 0.11680318 0.149772
2565.8474 -1773.8468 207.04008 0.69370902 -0.69679022 -0.18234892 0.090643972
2547.7773 -1798.9606 172.72008 0.78020334 -0.45594174 0.4282521 0.16454302
2543.7417 -1807.171 218.32086 0.89666396 -0.38296545 -0.22210619 0.051434934
2555.9104 -1789.4009 220.36659 0.77904993 -0.57127792 -0.25830752 0.091061376
2535.3835 -1828.3318 217.75697 0.9554745 -0.29028031 -0.052969646 0.081738718
2549.0798 -1873.963 164.00049 0.90760189 0.41979417 0.0056219492 0.042832293
2533.575 -1835.1047 215.00975 0.98366863 -0.17921284 0.016696483 0.092721827
2552.219 -1883.4489 163.3342 0.93061888 0.35662591 -0.082258217 0.052451022
2555.8789 -1909.1265 166.67027 0.68835574 -0.56776601 -0.45145118 0.066146791
2538.6604 -1809.6609 181.42673 0.97584647 -0.21158603 0.054360032 0.13670173
2536.7302 -1831.9637 186.392 0.97508276 0.020404298 0.22090104 0.090135299
2547.469 -1883.7946 196.21608 0.84388924 0.3697376 0.38877386 0.041935399
2549.4739 -1800.6158 176.30287 0.75559187 -0.41400915 0.50761932 0.17355578
2538.7673 -1857.2457 189.765 0.9639948 0.19219792 0.18377709 0.045711525
2551.0439 -1878.7012 169.748 0.91709274 0.39437073 0.058417875 0.045690242
2537.9712 -1821.3192 181.27637 0.97657621 -0.05220221 0.20874338 0.13232222
2554.4019 -1812.9204 173.63226 0.70611435 -0.17078455 0.68719369 0.14004122
2567.4648 -1784.2949 235.60101 0.67588025 -0.62930107 -0.3836222 0.16235165
2539.8723 -1850.2966 179.50946 0.97575808 0.17724374 0.12837769 0.063355118
2533.8889 -1837.2708 225.69376 0.97461534 -0.20778836 -0.083360001 0.11863517
2535.8943 -1823.3027 183.57233 0.99665385 -0.038213369 0.072255626 0.10433152
2535.7271 -1826.2094 190.52449 0.97922313 -0.075183906 0.18833347 0.092982233
2540.0698 -1824.9172 178.63594 0.92804062 -0.082524955 0.36322206 0.14975366
2537.3384 -1824.223 185.49368 0.97420305 -0.092894733 0.20566717 0.1238418
2535.4529 -1822.3827 194.22772 0.98391533 -0.15351465 0.091344938 0.087597609
2534.1377 -1833.0182 207.99821 0.99130392 -0.13095999 -0.012884616 0.077881098
2543.5852 -1840.3313 170.258 0.91532475 -0.095418863 0.39124903 0.1225839
2534.4507 -1831.2058 217.62357 0.95774031 -0.28353497 -0.048388269 0.086569212
2537.342 -1828.9718 178.60063 0.98419666 0.0083012292 0.17688426 0.11925647
2549.7549 -1828.8148 169.38687 0.74670917 -0.3282702 0.57850158 0.12166256
2535.4019 -1830.983 195.90797 0.98798144 -0.028044453 0.15200709 0.082929127
2533.9006 -1830.2748 202.02667 0.98961878 -0.14304446 0.013890862 0.073085085
2533.9976 -1833.9995 213.00003 0.97955465 -0.20074652 -0.013172512 0.084004894
2536.0835 -1824.3185 189.83861 0.97671115 -0.076178946 0.20057933 0.096680425
2558.3286 -1779.1848 192.55046 0.71911967 -0.68806553 -0.097122289 0.068792306
2549.6626 -1789.5575 184.29195 0.69635528 -0.68680805 0.20828845 0.10579125
2535.7854 -1820.7383 200.03368 0.97720343 -0.21056853 -0.027098488 0.079942234
2556.3691 -1803.4574 171.69933 0.76190901 -0.15402873 0.62910235 0.1534189
2542.0513 -1812.02 215.9877 0.90914261 -0.35483375 -0.21806595 0.050097656
2554.6445 -1784.7047 188.39044 0.69931269 -0.71087897 0.07491868 0.11064126
2537.2422 -1818.5219 206.19533 0.95944458 -0.2609632 -0.10660342 0.070278473
2543.6621 -1807.8905 222.31155 0.8969416 -0.42568496 -0.11953275 0.048652321
2564.3176 -1773.329 198.40749 0.69927263 -0.69450343 -0.16935989 0.090003341
2539.3152 -1815.1661 211.37537 0.94659328 -0.2940155 -0.13234812 0.062614091
2564.1648 -1775.3447 186.13237 0.6529054 -0.7537961 0.074201986 0.086144261
2535.2859 -1823.7053 198.97916 0.98547202 -0.16941464 0.011980047 0.081090234
2541.3977 -1850.8944 164.49451 0.94194573 0.30650273 0.13709247 0.098397329
2561.4285 -1912.8629 197.57983 0.50330776 0.44293177 0.741952 0.054025527
2551.5032 -1883.2242 175.9014 0.89692229 0.40479234 0.17797066 0.057906266
2547.6233 -1793.9789 184.7131 0.78016746 -0.58852494 0.21207808 0.1543697
2567.1074 -1911.9321 189.07744 0.72185081 0.45629844 0.52031064 0.13905911
2542.7029 -1801.5154 188.97015 0.92547226 -0.37874198 -0.0074597038 0.12819687
2538.7646 -1811.7516 194.07234 0.96467042 -0.2622475 0.025244292 0.10282071
2533.4546 -1839.134 209.50137 0.99758542 -0.017933613 0.067095242 0.08312884
2534.4902 -1833.0255 204.01047 0.99842429 -0.051914223 0.021304211 0.080063969
2558.5151 -1901.4304 182.84285 0.92429715 0.37939054 0.041683812 0.12914944
2533.574 -1851.1299 215.83359 0.97742218 0.1525784 0.14617017 0.079132177
2545.469 -1864.998 170.25511 0.92239076 0.37431622 0.095303178 0.049022257
2534.6184 -1829.4751 215.46584 0.94931316 -0.31068289 -0.047755744 0.081789888
2537.2617 -1821.9858 220.22141 0.93679118 -0.33856764 -0.088284791 0.067268841
2550.5398 -1891.5468 193.46011 0.6412484 0.53852046 0.54662251 0.031754889
2533.3303 -1843.967 207.81432 0.98018283 0.098007448 0.17215174 0.063265018
2543.7429 -1876.3358 197.67738 0.87830389 0.33473879 0.34136811 0.041668694
2532.6667 -1836.6042 211.10448 0.9888317 -0.14872129 0.0096858311 0.087338492
2538.1013 -1864.9708 202.0267 0.93158215 0.2682507 0.24534933 0.042772792
2541.2905 -1816.926 227.36588 0.91287827 -0.40202406 -0.070922144 0.059871234
2555.4114 -1813.1921 172.02158 0.67958778 -0.098232016 0.7269876 0.13342828
2548.634 -1792.8789 182.10754 0.76238042 -0.60397738 0.23235185 0.13750547
2553.1235 -1785.7368 186.50601 0.6646831 -0.74423593 0.065644786 0.090831198
2548.1448 -1872.3837 171.91357 0.90853125 0.40760717 0.091800757 0.041472711
2556.5161 -1788.7476 221.10973 0.76081789 -0.55432159 -0.33746672 0.090870224
2535.854 -1829.1246 222.59425 0.95509642 -0.27871156 -0.10055206 0.097975791
2571.1179 -1776.6241 221.89424 0.50474548 -0.79403204 -0.33874053 0.13638447
2544.9343 -1808.9874 224.51572 0.87618762 -0.4294768 -0.21873486 0.059446331
2535.9541 -1823.0062 198.68646 0.97933549 -0.19287068 0.060851783 0.097715937
2557.291 -1782.7294 178.48961 0.78039515 -0.58022946 0.23306035 0.1189888
2543.5701 -1801.6102 188.79744 0.92541647 -0.37498987 0.054652777 0.1399591
2550.1992 -1791.0023 184.27386 0.75574052 -0.63171476 0.17260577 0.14809543
2539.7527 -1810.6588 192.94049 0.96355993 -0.26351312 0.045968473 0.11624531
2534.6355 -1833.9135 203.92464 0.99882478 -0.036549833 0.031830836 0.081252307
2548.6318 -1845.3263 164.5193 0.63111448 -0.26069042 0.73057169 0.14986107
2544.78 -1863.6582 170.05243 0.91419864 0.40058145 0.061443936 0.048301663
2533.4846 -1834.3182 204.19637 0.99834126 -0.048998728 0.03023006 0.073198348
2547.2207 -1894.2273 200.95262 0.70537549 0.44653738 0.55049962 0.046120815
2541.1082 -1851.8179 164.4005 0.92797875 0.35292679 0.11957448 0.075115673
2533.5488 -1847.6428 215.44856 0.98898017 0.14057003 0.046457782 0.091880634
2533.1863 -1840.6554 209.86115 0.99494112 0.037328463 0.093267128 0.078636907
2534.3562 -1830.1569 199.09398 0.99103397 -0.11461312 0.068669289 0.077341244
2551.5803 -1899.7336 153.28935 0.92024338 -0.045229159 -0.38872412 0.12707935
2542.1111 -1805.0111 183.79832 0.92392057 -0.30027846 0.23707294 0.15166804
2547.783 -1873.176 176.29033 0.89798868 0.41501111 0.14622611 0.043669499
2538.8735 -1813.421 188.18085 0.97137773 -0.21825323 0.09375944 0.12531559
2535.8757 -1821.1406 193.09448 0.98179758 -0.15765923 0.10591063 0.089974895
2551.2253 -1887.2378 188.56934 0.78988957 0.49130917 0.36700106 0.044791818
2548.708 -1878.8009 182.54198 0.89941925 0.39829502 0.18001685 0.048955441
2553.0193 -1895.983 194.02075 0.58540797 0.51291853 0.62786311 0.041735988
2534.6431 -1828.9218 207.66107 0.96552694 -0.24431281 -0.089827284 0.072046667
2541.8589 -1808.2422 209.44389 0.92518967 -0.32746974 -0.19180089 0.059649535
2536.6543 -1859.856 208.06511 0.97200859 0.21409929 0.096751392 0.068406977
2551.1672 -1880.1112 157.72003 0.9079532 0.39663872 -0.13527256 0.055031616
2552.8572 -1907.158 159.21989 0.90516478 -0.27143195 -0.32711071 0.15011391
2553.8914 -1787.9155 210.03003 0.77120566 -0.59985232 -0.21311738 0.065933868
2536.0559 -1824.0349 211.51216 0.96243989 -0.2455809 -0.11575603 0.074139453
2544.0461 -1825.2257 173.75691 0.84955877 -0.25317442 0.46276623 0.16137628
2538.2917 -1823.2327 222.52534 0.92806578 -0.34754306 -0.13381976 0.071425393
2535.2883 -1826.2952 207.18698 0.96569437 -0.25099775 -0.066592008 0.070492446
2538.0562 -1821.2611 184.7542 0.96755117 -0.082661174 0.23877168 0.1334313
2540.7153 -1822.8297 177.50354 0.92571121 -0.12273524 0.35776368 0.14624412
2536.5544 -1824.5104 216.88141 0.94762141 -0.31110615 -0.072295129 0.067938998
2535.2986 -1824.0442 195.02921 0.98462439 -0.14572975 0.096320324 0.08573319
2534.8247 -1827.8419 200.74965 0.97478139 -0.21812308 0.047154903 0.08331655
2540.9546 -1806.9843 198.00346 0.94214207 -0.32740006 -0.071954899 0.096997216
2538.0325 -1811.4604 181.34 0.9830187 -0.17872556 0.041609842 0.12661248
2539.8948 -1809.2517 193.0054 0.96263272 -0.27074793 0.0058114436 0.11193576
2536.8821 -1823.2202 189.43797 0.96771389 -0.11321679 0.22519276 0.11379629
2538.6614 -1809.5392 187.0126 0.97432661 -0.22513157 0.0018444535 0.10763627
2545.7925 -1799.4219 208.7722 0.85558963 -0.45549342 -0.24595141 0.058794849
2543.1453 -1804.4202 204.55835 0.91710311 -0.37586609 -0.13284031 0.076387502
2550.127 -1796.8101 215.61331 0.81355178 -0.5168764 -0.26640621 0.067362681
2553.9417 -1792.5948 219.64073 0.80462039 -0.50827938 -0.30698231 0.074138239
2563.4734 -1784.1886 229.34181 0.73511434 -0.59309089 -0.32840538 0.12911415
2558.1611 -1788.769 224.49913 0.78456408 -0.51956159 -0.33840057 0.089876518
2548.4153 -1791.9915 199.69759 0.8067559 -0.56518126 -0.17238045 0.072070718
2543.4385 -1800.1904 184.651 0.88908643 -0.43877149 0.13040294 0.14535306
2555.8645 -1786.3744 212.60373 0.77630502 -0.59091997 -0.21946318 0.068891905
2548.5017 -1811.0361 175.66818 0.77815706 -0.13641861 0.61307549 0.17504337
2552.082 -1789.061 205.97928 0.78615475 -0.58523691 -0.19864148 0.063701726
2546.5613 -1795.1698 195.12825 0.86356908 -0.49831963 -0.076980174 0.1186253
2565.6846 -1779.0393 224.17891 0.72096491 -0.64381087 -0.25635365 0.11667085
2561.2017 -1782.1147 219.108 0.73609549 -0.63723302 -0.22824882 0.10290743
2544.6797 -1797.3391 189.90607 0.894077 -0.44681549 -0.03133985 0.1241704
2550.1921 -1912.6935 161.455 0.80387324 -0.46766436 -0.36752945 0.1324507
2540.6851 -1814.6079 217.65356 0.92355245 -0.33316582 -0.18987222 0.058233421
2533.0288 -1835.8896 216.93663 0.97636205 -0.21559532 -0.015356128 0.098990358
2555.9968 -1895.0925 165.55174 0.93725258 0.28005219 -0.20767382 0.084469065
2551.8259 -1795.5334 218.67783 0.7983157 -0.51550734 -0.31135875 0.070221931
2566.5444 -1777.7214 222.17056 0.70867378 -0.68052655 -0.18618546 0.12835215
2543.843 -1805.798 216.54651 0.89514148 -0.3875668 -0.22025831 0.052932881
2557.1257 -1787.0913 218.95709 0.78021371 -0.56606406 -0.26615414 0.085086361
2533.824 -1855.5222 217.47699 0.97258902 0.16456927 0.16427891 0.084907308
2535.9536 -1825.9613 216.27945 0.94666284 -0.31309029 -0.076183364 0.076826744
2557.5173 -1782.6749 184.70947 0.68482918 -0.71549213 0.1381305 0.10514294
2542.4597 -1798.2493 183.82129 0.84683585 -0.52546197 0.082211591 0.11721808
2540.5798 -1857.1058 182.93883 0.96019274 0.24183586 0.13980451 0.048348464
2538.1438 -1825.9203 182.76366 0.96008992 -0.089430451 0.26500848 0.13587792
2533.5708 -1837.1642 211.05055 0.9940756 -0.10387613 0.031991411 0.087384842
2539.5806 -1814.5059 211.75223 0.94197112 -0.30146983 -0.14766957 0.061554417
2550.2485 -1796.2518 214.90102 0.81355178 -0.5168764 -0.26640621 0.067362681
2553.614 -1889.6721 159.87233 0.95904952 0.25111845 -0.13100952 0.064743705
2536.1758 -1864.7743 210.26718 0.95847905 0.18404512 0.21781933 0.069905169
2563.6262 -1778.9108 217.03505 0.71932948 -0.65868157 -0.22068922 0.1004508
2553.3904 -1885.6085 174.65244 0.90989006 0.40549228 0.087613106 0.067623489
2541.634 -1844.1688 230.18646 0.89208436 0.06363371 -0.44736588 0.12403736
2541.3086 -1846.2798 173.13004 0.97069788 0.073574297 0.22876282 0.10482056
2556.8994 -1794.163 226.84366 0.78726095 -0.43668744 -0.43534386 0.084862657
2554.1394 -1898.7178 195.04079 0.58336228 0.48663509 0.65028816 0.042597845
2534.957 -1822.6051 194.32242 0.99057072 -0.12090773 0.064427897 0.079200156
2538.604 -1859.5159 194.41907 0.95124316 0.20480785 0.23062988 0.039299797
2542.5579 -1800.9176 194.3013 0.91268134 -0.38397625 -0.13991055 0.086622946
2554.6194 -1783.41 195.76443 0.74966109 -0.65277523 -0.10905402 0.068874277
2542.6155 -1854.7264 160.76486 0.95143074 0.30504653 0.041546986 0.1108134
2534.1018 -1850.3031 212.68436 0.98879009 0.10342555 0.10769082 0.077888839
2541.0544 -1846.9265 166.96765 0.9614675 0.20420301 0.18406883 0.10239007
2544.2742 -1811.1248 178.18135 0.76379669 -0.13693015 0.63076526 0.17312671
2535.3408 -1835.0331 194.85886 0.97665852 0.049097694 0.20911136 0.080405518
2559.0583 -1814.9475 174.99998 0.1711587 0.17022929 0.97042602 0.15387312
2534.2346 -1844.1077 206.7834 0.99074155 0.06043737 0.12156703 0.06625326
2543.7227 -1862.3445 177.45358 0.91435754 0.37511313 0.15244804 0.045027979
2541.3049 -1851.4945 172.25816 0.9709999 0.21291532 0.10874884 0.087857023
2538.2769 -1823.1223 184.37781 0.95489001 -0.091434449 0.2825329 0.13727649
2534.4819 -1837.978 201.04868 0.9939183 0.045231212 0.10040218 0.066003129
2536.1091 -1829.0063 190.02234 0.97810239 -0.057370968 0.20006067 0.092538223
2540.033 -1816.5073 179.23454 0.94935536 -0.11943353 0.29062 0.14397721
2539.4019 -1859.1406 189.89508 0.95959353 0.22550598 0.16830724 0.044609204
2538.4941 -1814.9783 206.41333 0.95396513 -0.27803144 -0.11246809 0.074750803
2544.0247 -1861.5892 158.0542 0.93746895 0.34799266 -0.0072851973 0.069548659
2565.7102 -1812.4364 173.53658 0.091867581 0.20228586 0.97500807 0.1047137
2537.6001 -1833.9601 184.40123 0.96968311 0.024168221 0.24316773 0.096664101
2538.4026 -1837.231 173.76123 0.98601776 0.11842775 0.11723389 0.092048243
2541.8315 -1846.2649 164.1319 0.96312505 0.14655159 0.22563854 0.10789534
2534.7458 -1850.5492 206.56435 0.98191166 0.11817829 0.14793022 0.065133721
2538.022 -1837.7802 168.6723 0.9852587 0.14982277 0.082573488 0.10407509
2538.5977 -1836.8209 179.77483 0.97643 0.048613053 0.21028855 0.089221872
2541.7825 -1810.4437 212.87126 0.92102444 -0.33987173 -0.19026613 0.059545156
2537.791 -1858.0377 194.95285 0.96075135 0.17315611 0.21673444 0.041893065
2537.0176 -1859.3853 200.5788 0.96096015 0.18673718 0.20416862 0.044171225
2535.5439 -1822.9241 194.95973 0.98270398 -0.16359745 0.086768247 0.085291475
2536.4751 -1828.9701 189.87729 0.97226578 -0.055315536 0.2272432 0.098969698
2540.468 -1858.1294 183.91599 0.96043998 0.2335446 0.15169702 0.048094798
2536.2693 -1820.1179 201.07416 0.97298473 -0.23005776 -0.01934181 0.084308624
2549.969 -1795.5209 172.75079 0.74360269 -0.52687901 0.41164744 0.14295305
2561.8635 -1776.5796 185.30191 0.7642113 -0.63193893 0.12897377 0.11711865
2555.9697 -1783.9521 181.12599 0.6947726 -0.69170362 0.19707146 0.1116112
2552.2937 -1789.8401 176.37395 0.72214931 -0.62269795 0.30124348 0.12742215
2549.9468 -1912.642 160.85312 0.80387324 -0.46766436 -0.36752945 0.1324507
2550.1772 -1881.1147 153.82214 0.95608652 0.29178888 -0.027527895 0.096512675
2553.7625 -1806.9376 173.69601 0.60769165 -0.15977149 0.77793568 0.18107845
2538.582 -1828.9814 187.20367 0.94281316 -0.1140798 0.31319186 0.12042896
2556.353 -1799.6713 167.77242 0.79168653 -0.15803742 0.59013271 0.16595982
2563.3611 -1780.96 157.44046 0.76213986 -0.63671744 0.11719122 0.18224537
2559.2817 -1790.0643 163.13672 0.88130552 -0.20114617 0.42759892 0.15945047
2544.916 -1810.8069 178.30203 0.83151412 -0.14810497 0.53539628 0.16733655
2540.5117 -1818.334 182.47775 0.93780035 -0.13916743 0.31806126 0.14207447
2569.437 -1772.9899 154.9402 0.74882036 -0.63263148 -0.19759923 0.12373226
2541.8608 -1878.1963 143.57761 0.73099756 0.4546307 -0.50887471 0.077801965
2566.8242 -1907.0471 180.19649 0.88116843 0.38866135 0.26922962 0.10816522
2552.9875 -1887.4749 185.97412 0.74597472 0.54672194 0.3802852 0.044338703
2543.9626 -1860.7924 165.95992 0.93184322 0.36239767 0.018335514 0.057999518
2554.2214 -1885.021 177.41914 0.84327096 0.50021785 0.19666259 0.049419928
2542.1125 -1852.6028 159.88835 0.95109522 0.30373213 0.05625524 0.12133263
2558.4048 -1894.8573 187.08006 0.64119309 0.53823531 0.54696816 0.046755567
2555.7637 -1888.335 181.58214 0.71694899 0.56440103 0.40918899 0.03899011
2548.8557 -1873.4325 171.63002 0.90212595 0.42656678 0.064881362 0.042098075
2538.1887 -1848.0181 154.96536 0.950068 0.28149542 -0.13465196 0.19651431
2553.8994 -1893.6512 155.30119 0.96286112 0.15740508 -0.21936759 0.073195681
2547.0608 -1880.0938 146.67383 0.83364815 0.47022754 -0.28968406 0.06597589
2565.7222 -1904.9938 188.84958 0.6134429 0.536946 0.5791173 0.064093389
2536.3831 -1825.0442 190.08492 0.97016877 -0.11202654 0.21499436 0.10679975
2553.9448 -1783.542 191.5107 0.73451972 -0.67468357 -0.0726832 0.079667099
2539.2517 -1857.6698 189.33351 0.96966028 0.17329219 0.17242034 0.045443185
2542.2646 -1799.8308 190.33763 0.90708047 -0.40988579 -0.095909379 0.089160718
2555.1511 -1785.1792 194.18353 0.8353278 -0.54947907 -0.01732525 0.12917088
2564.9128 -1906.9144 191.57516 0.54037452 0.45445058 0.7081455 0.046075262
2539.2192 -1859.3944 191.65324 0.95916146 0.21242963 0.1867698 0.042948991
2541.7256 -1801.8029 191.54094 0.9304899 -0.35499004 -0.090391271 0.093942605
2535.5144 -1826.9625 191.92435 0.98521537 -0.076004401 0.15353814 0.095695265
2541.3672 -1805.4923 194.9297 0.93976152 -0.33839768 -0.048324857 0.10739514
2542.2693 -1804.1077 200.96191 0.92058814 -0.36818245 -0.13022727 0.080684073
2546.0012 -1819.1199 175.97723 0.82444078 -0.12096054 0.55287063 0.15030055
2550.7214 -1797.1619 218.4563 0.80141681 -0.52529877 -0.28599355 0.06756708
2539.2109 -1806.3835 184.03181 0.96034849 -0.27877763 0.0037218365 0.11809405
2564.0498 -1789.1392 236.13106 0.74215823 -0.53749347 -0.4003773 0.14139451
2554.6565 -1794.1796 223.59218 0.79881281 -0.48779339 -0.3520734 0.072784483
2568.0068 -1785.0062 238.99657 0.68776214 -0.63564014 -0.35063493 0.17008959
2544.3621 -1802.2117 207.33733 0.88593584 -0.42641303 -0.18245444 0.068713576
2558.1672 -1791.7271 227.38086 0.77395475 -0.48212186 -0.41055158 0.092237577
2547.0791 -1799.4932 212.23875 0.85431206 -0.47020862 -0.22148298 0.060289659
2539.8103 -1805.4277 189.5834 0.953695 -0.29644269 -0.050868496 0.094798401
2536.1262 -1841.4885 187.38507 0.98011458 0.14629686 0.13406207 0.062027618
2536.2537 -1823.1172 181.82491 0.9949432 -0.014131649 0.099439844 0.10893464
2540.4534 -1807.0327 179.41805 0.94891107 -0.25879353 0.18053719 0.15992628
2547.2673 -1795.1034 176.13028 0.74983633 -0.61056423 0.25486627 0.11062139
2546.0869 -1877.1191 191.75803 0.87368327 0.36875123 0.31733274 0.039812122
2547.6638 -1896.1273 199.55894 0.62520313 0.49020016 0.60730952 0.049025409
2542.8167 -1855.4077 164.88928 0.94178843 0.32445252 0.088119604 0.084713675
2539.9133 -1816.7219 218.69353 0.92528528 -0.34911776 -0.14820236 0.057805121
2533.0862 -1841.9503 217.83498 0.99596983 -0.025869112 0.085876882 0.095809892
2550.5718 -1797.9658 219.26517 0.79153717 -0.4863489 -0.37004545 0.061881989
2563.2759 -1780.2399 219.61612 0.68096298 -0.67345309 -0.28766358 0.099794276
2542.6924 -1801.671 189.9939 0.9295882 -0.36858445 -0.0033524034 0.12714866
2541.0591 -1801.8395 184.02798 0.92774814 -0.37318873 0.0036769807 0.11587538
2555.4785 -1788.359 216.84207 0.77337581 -0.58027178 -0.25529307 0.07805109
2543.7627 -1799.7784 194.82826 0.91115278 -0.40239403 -0.088767484 0.10894758
2545.7937 -1797.3114 201.24776 0.85496587 -0.48805565 -0.17559901 0.081973739
2552.1641 -1791.4336 212.2617 0.80133373 -0.54306024 -0.25089803 0.062630467
2548.7854 -1794.592 207.56418 0.82504451 -0.52452213 -0.21018584 0.063610516
2539.7388 -1802.9738 178.92422 0.90464592 -0.41899166 0.077857561 0.12762292
2552.5562 -1818.724 172.14995 0.64919394 -0.073318757 0.75708091 0.15029423
2559.2476 -1784.6693 220.25026 0.72245026 -0.62409812 -0.29760227 0.089885086
2565.7566 -1781.626 230.15981 0.73214704 -0.61074871 -0.30157372 0.14672168
2549.812 -1879.2853 154.75174 0.92278653 0.36397803 -0.12643158 0.062839143
2562.4214 -1779.2877 214.74791 0.69717526 -0.66996181 -0.25514278 0.094604515
2533.3223 -1842.9259 214.20688 0.99555349 0.031742021 0.088688858 0.082666978
2547.4221 -1868.5095 164.95522 0.92129821 0.38868582 0.011531818 0.051928215
2538.553 -1817.2946 213.14211 0.94645655 -0.269104 -0.17833416 0.064217329
2548.6743 -1797.3392 213.77698 0.81215531 -0.51703566 -0.27032921 0.066784821
2565.4568 -1777.8159 220.02846 0.72705752 -0.65333974 -0.21103214 0.11490592
2560.3633 -1781.4048 213.17389 0.7164107 -0.66968673 -0.19564085 0.085125752
2539.4934 -1844.0404 179.89857 0.97755897 0.077957243 0.19570684 0.085458577
2532.9282 -1841.9344 220.97464 0.99786013 -0.060975421 0.023602875 0.11065251
2536.2253 -1831.9891 191.61096 0.97678614 -0.0059698266 0.2141335 0.086686857
2536.6777 -1826.0691 187.14934 0.97177744 -0.09902326 0.2141097 0.11896579
2538.2969 -1820.3954 181.94427 0.97277224 -0.089512303 0.21377966 0.13604087
2536.1367 -1837.8668 191.51051 0.97084206 0.060514107 0.2319562 0.078431964
2534.1746 -1840.0032 208.9265 0.99605089 0.0038767417 0.088699423 0.080053985
2536.887 -1839.8507 186.3432 0.98088878 0.077615738 0.17841808 0.076119848
2535.0576 -1833.9995 198.00713 0.99244034 0.0089117112 0.12240408 0.075299233
2534.4458 -1835.9983 204.01857 0.99912566 0.0038826154 0.04162797 0.073646508
2540.4246 -1844.0238 174.85094 0.96728671 0.03992347 0.25052455 0.10148013
2533.3132 -1838.3181 215.00482 0.99542207 -0.095565826 0.0014485322 0.089767799
2566.7944 -1775.9216 217.65952 0.71114916 -0.67011088 -0.21264593 0.11692937
2534.6431 -1834.8773 197.33189 0.99115837 0.046001155 0.12445462 0.067865685
2560.1619 -1781.0812 211.66881 0.71661919 -0.66687804 -0.20428073 0.08346992
2540.75 -1808.8091 180.6993 0.9616574 -0.20749709 0.17933221 0.17199421
2536.252 -1825.7384 218.88649 0.94913274 -0.31122008 -0.047844376 0.075437434
2549.5347 -1823.9321 171.78084 0.75828683 -0.28690225 0.58539575 0.14816472
2534.342 -1831.2831 207.89401 0.97557205 -0.2057285 -0.077038392 0.073285386
2554.1655 -1785.5159 205.18495 0.75578171 -0.63790697 -0.1478807 0.061228719
2543.6042 -1798.6479 189.82431 0.90855408 -0.41541296 -0.044289291 0.11814144
2545.9128 -1794.8136 195.5275 0.84097469 -0.52359682 -0.136411 0.087087087
2534.6741 -1835.0017 201.97615 0.99732101 0.0051092091 0.072970524 0.073583737
2549.1328 -1790.2914 200.01382 0.75899678 -0.63455427 -0.14582442 0.069350451
2535.2019 -1828.1851 212.69025 0.96003741 -0.27077571 -0.07077191 0.072176374
2540.8333 -1801.9526 185.0556 0.93571407 -0.35269693 0.0066423309 0.11386752
2537.418 -1823.9899 224.172 0.92948902 -0.36361662 -0.061912008 0.084445618
2543.8667 -1797.8962 192.49475 0.8917312 -0.43730897 -0.11651772 0.10037187
2534.895 -1852.3894 206.29767 0.98139763 0.093087688 0.16790885 0.069273435
2538.1743 -1814.0455 197.00784 0.96674567 -0.25201342 0.043497466 0.10328232
2548.0784 -1870.425 159.99905 0.90807021 0.41881692 0.00092477567 0.047885813
2534.5271 -1830.9518 201.97075 0.99297184 -0.10116604 0.061419234 0.0805742
2551.1763 -1786.172 188.61137 0.70665425 -0.70616049 -0.044464774 0.078672551
2542.4792 -1831.3164 173.13054 0.9152149 -0.13838814 0.37845787 0.1250338
2544.0242 -1861.1528 173.50096 0.92127609 0.35690546 0.15449539 0.067741469
2564.2432 -1783.6115 228.661 0.70216542 -0.59762353 -0.38705269 0.13893075
2554.5093 -1902.0778 197.22348 0.58336228 0.48663509 0.65028816 0.042597845
2534.5083 -1827.0824 199.01691 0.98657799 -0.15995929 0.032815631 0.07414338
2552.8115 -1786.4855 200.45105 0.74133533 -0.65534037 -0.14474413 0.065012209
2539.0364 -1863.3265 197.91121 0.94510633 0.25257701 0.2073134 0.038463578
2541.6233 -1805.0112 199.60632 0.92405099 -0.35622707 -0.13867952 0.080044359
2555.1946 -1893.7042 189.37733 0.65061945 0.56892675 0.50300765 0.041568149
2540.2688 -1858.6342 185.21664 0.94818634 0.27336463 0.16190863 0.043949377
2536.6233 -1830.6594 180.92368 0.98913342 0.050857928 0.13794415 0.098221183
2541.6179 -1912.8834 158.65672 -0.1084409 0.33048391 0.93756115 0.13951558
2537.0679 -1860.5841 201.35541 0.95869488 0.19100305 0.21076527 0.048758831
2553.9297 -1902.0005 160.01793 0.96897858 0.0064314213 -0.24706091 0.11086215
2537.4385 -1817.0891 192.0437 0.97531456 -0.19828434 0.097184256 0.10414559
2535.5017 -1839.1923 196.24124 0.97586989 0.053642936 0.21166091 0.079014353
