# .PCD v0.7 - Point Cloud Data file format
VERSION 0.7
FIELDS x y z normal_x normal_y normal_z curvature
SIZE 4 4 4 4 4 4 4
TYPE F F F F F F F
COUNT 1 1 1 1 1 1 1
WIDTH 629
HEIGHT 1
VIEWPOINT 0 0 0 1 0 0 0
POINTS 629
DATA ascii
2620.5952 -285.25504 212.46077 0.88384914 0.43579268 0.16998644 0.20305258
2686.3708 -168.04749 169.4167 0.99411571 -0.0087898998 -0.10796635 0.14383331
2700.3 -176.91266 214.14436 0.84737444 -0.23434938 -0.47648388 0.10049228
2618.5269 -263.90903 211.04483 0.95625103 -0.19202048 0.2207081 0.13338725
2705.7769 -163.31871 216.50668 0.79772115 -0.32724112 -0.50651181 0.086620942
2710.4282 -250.49738 84.224472 0.67376214 -0.13167691 0.72712159 0.12743507
2692.4246 -303.44577 88.816811 0.6477133 -0.11909269 0.75251871 0.086580746
2694.541 -201.83791 105.71662 0.68464208 -0.19237447 0.70303434 0.15842937
2681.0596 -292.1391 101.11145 0.69748133 -0.047111355 0.71505266 0.12186998
2737.1365 -252.87756 55.424305 0.76264066 -0.050108593 0.64487857 0.087091811
2694.6702 -214.32971 103.64331 0.77290583 -0.044942051 0.63292712 0.14859563
2731.481 -238.59286 58.269207 0.74325621 0.2043447 0.63703489 0.10553493
2678.2366 -278.20483 104.24675 0.62794542 -0.030361528 0.77766496 0.12590329
2682.655 -266.07501 101.01191 0.63501287 -0.028786592 0.77196503 0.12865356
2677.0754 -305.37134 103.11323 0.7035504 -0.051475227 0.70877862 0.16349226
2695.1074 -226.7153 102.81582 0.8003065 0.044610426 0.59792924 0.16926044
2733.6411 -266.25742 58.55888 0.72036988 -0.11300483 0.68432242 0.076953128
2735.8804 -279.83881 54.907097 0.71054494 -0.054034561 0.70157403 0.083941326
2732.3113 -293.02539 57.368538 0.64425498 -0.05254858 0.76300335 0.10254758
2617.8452 -264.45053 227.12688 0.92112404 -0.20813026 -0.32895631 0.14265034
2617.0305 -254.13622 225.28857 0.80243337 -0.54114145 -0.25152844 0.16096117
2616.3376 -278.53018 225.82867 0.9090035 -0.042508412 -0.41461515 0.15835302
2621.3601 -279.59232 190.83257 0.93358004 0.23812447 0.26781526 0.15904166
2619.8496 -277.95828 227.16925 0.8730939 0.10277327 -0.47659704 0.16125754
2620.7764 -253.72247 226.56062 0.8699466 -0.38964275 -0.30227709 0.15693113
2713.6213 -179.31427 236.08829 0.74990588 -0.2721639 -0.60296595 0.093323827
2620.8577 -264.53604 229.3026 0.90520221 -0.082833573 -0.41683042 0.14898443
2689.5974 -166.81799 187.82265 0.94519621 -0.16214973 -0.28339291 0.12003135
2621.0225 -268.56302 191.73399 0.93905133 -0.040600348 0.34137106 0.14830761
2691.9788 -181.82901 191.43628 0.958426 0.082826316 -0.27305564 0.12591138
2730.5439 -232.36867 56.885368 0.73322195 0.26324239 0.62696809 0.095460586
2737.9482 -247.98001 53.856628 0.74199283 0.015633848 0.6702255 0.10877888
2743.5161 -290.41846 50.078804 0.64394778 0.10848619 0.75733876 0.099333689
2731.3086 -260.96103 60.294949 0.70472044 -0.092667587 0.70340729 0.099501818
2738.772 -275.97626 52.774071 0.70854467 -0.07375291 0.70180124 0.080247454
2637.0117 -253.18335 158.34926 0.82536274 0.15311936 0.5434435 0.15866017
2714.5435 -275.46924 74.933403 0.61955714 -0.13387072 0.77345175 0.077787019
2628.928 -254.5892 235.3456 -0.48497885 0.3754456 0.78983295 0.1655034
2668.2588 -289.65155 115.35662 0.71482497 -0.066576689 0.696127 0.12454572
2686.2275 -201.84679 159.47859 0.98611861 0.046810571 -0.15930736 0.11415958
2724.6213 -176.17972 247.20242 0.75800771 -0.19349958 -0.62288225 0.14675048
2685.6208 -189.02876 160.07695 0.97733086 0.074119568 -0.19831966 0.11036784
2711.687 -289.4469 74.763489 0.6127786 -0.10230167 0.78360498 0.077582113
2701.729 -302.21857 79.814102 0.65411896 -0.19611697 0.73052484 0.096686587
2718.2549 -236.00835 74.913765 0.76416945 0.2806887 0.58073997 0.088962264
2637.2112 -293.03192 160.13794 0.83047432 -0.12556508 0.54272079 0.17687088
2684.4419 -174.10341 158.39682 0.99551779 -0.015980208 -0.093214631 0.13779102
2720.0684 -249.10422 74.867508 0.78195006 0.020725902 0.62299639 0.12830341
2630.2327 -264.5293 238.44879 -0.56183654 0.16420393 0.81078774 0.17435326
2688.1777 -222.78137 115.98785 0.88375157 -0.050548356 0.46521822 0.18961348
2688.3167 -195.94368 116.23103 0.90917033 -0.030416211 0.41531211 0.19247738
2696.4048 -179.98355 204.36871 0.91207367 0.010675893 -0.4098874 0.14615612
2622.1628 -256.92502 201.97772 0.96612334 -0.018881539 0.2573891 0.14546874
2725.9631 -261.82263 69.025208 0.6993925 -0.16851315 0.69458872 0.091765866
2663.3252 -260.94211 118.2575 0.77653652 0.13820398 0.61472809 0.14672673
2638.9226 -266.24567 158.28455 0.81843537 0.18661501 0.54345047 0.14450237
2621.343 -284.03024 202.75719 0.94679064 0.0078308657 0.32175487 0.15814254
2667.6787 -276.31161 115.69501 0.70727491 0.066360272 0.70381707 0.12441779
2712.0488 -219.81187 77.57048 0.86776227 0.15563883 0.47198012 0.10546577
2620.8975 -269.91983 202.33398 0.95268589 -0.036325488 0.30177817 0.15549064
2697.8162 -167.22836 204.60315 0.87212038 -0.24403359 -0.42409155 0.1180694
2689.2905 -210.0041 115.54181 0.88649982 0.00077173562 0.46272832 0.16907933
2666.646 -301.29498 114.96982 0.70993382 -0.22608276 0.66699368 0.14737274
2627.8525 -274.26547 236.21234 -0.55906993 -0.22309946 0.79854083 0.1594976
2641.1633 -280.77829 156.93896 0.78089613 -0.045127083 0.6230287 0.14573191
2690.6414 -208.38463 109.18981 0.80161065 -0.05465214 0.59534317 0.14973485
2721.666 -229.32062 65.699066 0.75551116 0.34610361 0.55625105 0.082269132
2727.2639 -286.57468 61.896572 0.6578576 -0.10226452 0.74616712 0.10879382
2672.4382 -260.83713 109.43883 0.57796842 0.038604051 0.81514555 0.13614778
2723.1958 -258.34692 68.692184 0.66557664 -0.055032235 0.7442978 0.090469725
2691.7065 -235.73463 104.97579 0.77403051 -0.15880366 0.61290956 0.15713048
2677.0217 -274.99963 106.02501 0.65730357 0.011136567 0.75354362 0.13664959
2669.3203 -300.44492 112.1072 0.72009408 -0.060219254 0.69125837 0.14628126
2712.7048 -299.08002 71.329155 0.59106338 -0.13568428 0.79513133 0.10171162
2724.9634 -272.42706 66.090271 0.67718655 -0.14729115 0.72091866 0.083664887
2673.6379 -288.02631 108.64474 0.70561206 -0.011334079 0.70850772 0.11698437
2687.5059 -196.16858 112.68629 0.76564604 -0.17466812 0.61909384 0.17589653
2689.7361 -220.31175 110.11227 0.88028634 0.078316323 0.46793428 0.17243989
2731.1616 -246.37607 60.858196 0.77162033 0.075599901 0.63157481 0.10817822
2722.8225 -222.11835 60.197285 0.71760237 0.35324031 0.60022342 0.096651651
2728.7913 -292.18991 60.327175 0.64210695 -0.043686938 0.7653693 0.11358737
2738.0417 -252.81526 54.484222 0.76092428 -0.047515899 0.64709848 0.08736296
2729.4595 -265.89456 62.564148 0.69578916 -0.11401138 0.70913953 0.086038329
2735.4226 -279.87589 55.401772 0.70135939 -0.055187277 0.71066827 0.083801262
2731.0493 -237.43517 58.832874 0.73013896 0.20123217 0.65299517 0.1006657
2656.4653 -304.43033 126.39738 0.75823158 -0.3367205 0.55830473 0.12655142
2611.1504 -272.83835 210.65549 0.95830721 -0.2703523 0.092503518 0.14182366
2680.4556 -185.19691 128.03987 -0.56845236 -0.81144595 0.13571064 0.1342371
2624.6025 -267.01172 175.50659 0.88463473 -0.19586523 0.42315271 0.16047855
2686.0366 -203.05449 125.84308 0.98545802 0.055733629 0.16051875 0.12999448
2686.8733 -166.86264 172.78471 0.96342784 0.11661454 -0.24126302 0.16443691
2685.7856 -216.08328 126.43671 0.9946593 0.093179718 0.044389471 0.11121639
2708.5833 -155.09502 215.48169 0.81214607 -0.3041243 -0.49792287 0.086654916
2716.301 -139.57916 217.47313 0.79190731 -0.30419332 -0.52948016 0.070384651
2684.02 -186.76974 126.14735 0.99096709 0.11295661 0.072284527 0.13314757
2631.1743 -254.46649 167.54568 0.85852081 0.36348528 0.36169121 0.1687251
2688.8745 -180.79167 173.57887 0.97592145 -0.028534282 -0.21624783 0.12141772
2690.6086 -165.39095 173.84883 0.22179914 -0.94596273 0.23655805 0.15516342
2684.2085 -176.83226 158.0937 0.99192429 0.023082221 -0.12471324 0.1303861
2637.1777 -256.51422 156.35191 0.75443858 0.4553695 0.47271663 0.13859695
2689.3728 -171.22311 168.67827 0.75171196 0.45360821 -0.47871566 0.20462269
2700.4658 -156.50069 203.12506 0.82194573 -0.35591125 -0.44467115 0.12268123
2625.7393 -286.46149 159.65826 -0.37979826 -0.9246639 0.027385339 0.19717027
2621.8323 -259.93515 202.68028 0.96312249 -0.05348333 0.26369411 0.12852569
2622.5254 -285.41989 206.3649 0.77882975 0.57751113 0.24475528 0.18406887
2695.9768 -184.32768 201.98178 0.87783498 0.18403484 -0.44219559 0.15751801
2636.2617 -267.86163 161.56566 0.82117492 0.050242826 0.56846052 0.15167879
2620.3677 -274.9454 203.47258 0.951083 -0.031814188 0.30729303 0.16674025
2700.7617 -170.29126 209.86015 0.88208193 -0.24161254 -0.40441915 0.12496433
2636.634 -284.01376 161.6107 0.85313523 -0.0044550821 0.52167076 0.15144236
2685.1038 -192.7366 159.48497 0.98307252 0.083423868 -0.16312212 0.1009155
2720.5938 -178.33072 243.01672 0.74958408 -0.20848551 -0.62821776 0.13339452
2725.9263 -240.60326 108.6856 -0.46750093 -0.82442153 0.31901732 0.10768764
2685.4746 -192.94621 150.35551 0.99911183 -0.0063040024 -0.041662429 0.099802256
2630.5435 -282.07629 240.78214 0.82181782 0.011490695 -0.5696345 0.2067138
2688.8975 -193.66953 195.97108 0.9191137 -0.39398369 0.0026300596 0.16211082
2692.7114 -184.14873 196.51515 0.96386892 -0.13047771 -0.23223315 0.15966739
2697.7432 -213.56122 102.11042 0.81334996 -0.043223377 0.58016688 0.14898002
2683.9258 -281.65936 102.23059 0.67289746 -0.032402635 0.73902577 0.12393712
2727.1729 -293.55331 61.771515 0.6201238 -0.1539561 0.76924902 0.10935947
2629.2305 -285.04022 187.3286 0.81331396 -0.3158944 0.48860115 0.090864569
2675.4092 -304.12369 103.418 0.70488966 -0.35995099 0.61120033 0.17519771
2627.5808 -263.67871 189.38516 0.91865712 0.13504848 0.37125596 0.090843953
2684.8625 -205.94553 149.4167 0.98921198 -0.12818578 0.070908614 0.10012181
2695.7695 -227.12955 103.42583 0.74691445 -0.12430259 0.65319806 0.18551607
2681.7983 -218.96205 149.97661 0.97644007 -0.18368636 0.11324379 0.1047593
2728.2976 -241.3557 63.43047 0.77631181 0.22380704 0.58927953 0.099563979
2651.2532 -274.64148 145.43378 0.89656115 0.12528341 0.42483193 0.096408032
2724.3335 -267.06558 68.344788 0.68884659 -0.13547331 0.71213579 0.075080909
2700.6792 -202.87448 100.84659 0.83721018 0.13862506 0.52902007 0.16948436
2650.6638 -293.0018 144.50853 0.74169034 -0.45787543 0.49014843 0.1024684
2653.0134 -284.27466 144.46239 0.870983 -0.12537093 0.47504812 0.098473467
2641.5349 -257.39349 227.75105 0.67102337 0.11046119 0.73316163 0.19878191
2727.8694 -280.55746 63.090988 0.65457195 -0.056460887 0.75388843 0.085384563
2676.3574 -267.12939 106.96259 0.62686324 0.049383491 0.77756268 0.1481171
2693.2366 -170.04932 193.93863 0.94880784 -0.19782197 -0.24623193 0.13006121
2734.4929 -253.64276 59.916821 0.78847629 -0.10184877 0.60657394 0.098595843
2646.0798 -261.63669 145.43558 0.80504596 0.3696565 0.46395585 0.11973726
2681.2065 -293.1925 102.31512 0.70253611 -0.1629342 0.69274485 0.13805598
2668.335 -275.05228 114.31607 0.69609928 0.054728739 0.71585655 0.1211492
2683.5073 -235.26584 115.75434 0.88333231 -0.15580052 0.44209757 0.17390178
2718.4409 -286.49976 69.430809 0.61223865 -0.086050197 0.78597659 0.089422897
2714.8462 -229.24675 75.630234 0.76876724 0.27812684 0.57588398 0.095113069
2690.4673 -208.88245 112.94923 0.86448282 -0.028765731 0.50183856 0.17540394
2668.4846 -288.0152 114.45356 0.69985735 0.0070142765 0.71424824 0.1144477
2724.9065 -247.56105 68.817436 0.77004755 0.084819965 0.63232297 0.12666008
2723.3999 -259.52985 70.273796 0.69198334 -0.090368994 0.71623498 0.082349233
2667.24 -301.67758 114.29249 0.71162522 -0.13035282 0.69036055 0.14501506
2688.8467 -221.95158 115.32181 0.93342179 0.053378731 0.35478795 0.18246979
2660.5188 -314.83237 115.58555 0.73265958 -0.25520521 0.63093597 0.1924855
2713.0022 -299.39413 71.307686 0.58640307 -0.17783432 0.79025716 0.090004399
2720.3696 -272.38556 70.803268 0.6285072 -0.14681035 0.76382291 0.073075391
2713.7571 -302.52148 69.247139 0.61378473 -0.16220775 0.77262992 0.12943183
2672.2424 -304.37961 108.87631 0.73118192 -0.05294789 0.68012464 0.16096257
2677.6848 -291.06256 104.70993 0.69292194 -0.063301973 0.7182284 0.11875554
2688.0642 -210.01221 108.15926 0.90451467 -0.00084471831 0.42644173 0.13836215
2678.438 -277.9863 104.504 0.65572107 0.020499306 0.75472492 0.12616843
2727.1426 -276.19064 63.260025 0.66754013 -0.11137879 0.73619628 0.088036165
2732.9963 -249.07271 59.334969 0.7478891 0.018103998 0.66357678 0.10343008
2692.3486 -224.51636 106.56503 0.82975781 0.075030193 0.55305737 0.18088609
2726.6536 -262.50214 65.601349 0.70899367 -0.076502658 0.70105302 0.089606345
2689.2324 -198.80148 110.36101 0.7335881 -0.14314234 0.66434836 0.16642952
2726.6375 -234.38742 62.372852 0.73665369 0.27556646 0.61757958 0.092941709
2685.5139 -239.23914 106.42282 0.69451201 -0.24491169 0.67651415 0.12282725
2677.2407 -263.97247 105.87461 0.61477506 0.0075499043 0.78866637 0.14190948
2730.769 -289.52646 58.480824 0.67300463 -0.098639004 0.73303145 0.095359839
2631.6157 -293.67612 169.22894 0.89717984 0.033726342 0.44037583 0.16674839
2618.7805 -262.85715 207.68945 0.95167971 -0.22716078 0.2066489 0.13183004
2709.7751 -142.70483 210.31824 0.76504517 -0.34548429 -0.54345793 0.094066247
2660.0442 -277.91064 126.61207 0.86038762 0.073613673 0.50429571 0.095149785
2697.2197 -300.24481 85.643173 0.66138041 -0.050285988 0.74836308 0.10761907
2686.7849 -201.04948 165.82726 0.96543854 0.10445986 -0.23878151 0.10298344
2683.8442 -172.43318 166.29863 0.9887315 0.047315735 -0.14202537 0.12590975
2628.0195 -267.88934 170.95485 0.86991972 -0.14915179 0.47009933 0.16135158
2685.949 -187.38586 167.18129 0.96801823 0.15054247 -0.20069307 0.093915768
2715.2812 -246.32208 80.682938 0.78512454 0.1471183 0.6016109 0.13470224
2662.4128 -292.67126 124.27711 0.82770813 -0.1051711 0.55121523 0.12062132
2708.1272 -215.84657 83.744835 0.87246442 0.042804506 0.48679939 0.10230378
2711.3506 -230.54854 82.817131 0.82262748 0.27496645 0.49767211 0.09505479
2686.9897 -225.11414 126.36864 0.97803175 0.037081994 0.20513131 0.16336714
2687.4624 -168.78662 174.33707 0.68012041 0.6265713 -0.38058463 0.17821422
2630.2039 -279.05283 170.09677 0.83266878 0.19763203 0.51730484 0.1458658
2701.2302 -287.12433 83.355278 0.67057961 -0.067773581 0.7387352 0.08544571
2687.709 -211.2896 124.86018 0.9677186 0.033800595 0.24975631 0.1405569
2685.7056 -197.061 126.80436 0.98769897 0.046549838 0.14927784 0.12637828
2693.5635 -271.7149 89.287796 0.66743839 -0.072698265 0.74110794 0.087381244
2657.3721 -305.80362 125.5682 0.79788285 -0.24955556 0.54873031 0.13723521
2613.248 -278.59256 208.41777 0.78352112 0.60180748 0.1546687 0.18660353
2705.9851 -156.40173 212.40546 0.80829543 -0.32964474 -0.48784515 0.095761038
2657.8394 -263.63519 127.03528 0.85871631 0.17031159 0.48332205 0.1094169
2616.2622 -276.64453 208.02371 0.95363134 -0.18981282 0.23357731 0.16160177
2703.2209 -169.01549 214.63055 0.8248567 -0.29221532 -0.48396453 0.10341221
2623.5808 -255.98726 193.54135 0.95150018 -0.0085397447 0.30752975 0.15337493
2706.3447 -201.36086 200.48169 0.73648292 0.40557659 -0.54138762 0.16839963
2637.1497 -298.72101 146.05138 0.34381756 -0.8285678 0.44188783 0.1158274
2621.0552 -282.39017 225.85365 -0.46953151 -0.63954788 0.60870248 0.15942864
2695.4739 -168.24123 200.19855 0.92774051 -0.19963697 -0.31534517 0.13409318
2684.7969 -203.87726 152.97435 0.9983843 -0.055620655 0.011625455 0.10129623
2622.5378 -285.83884 193.3688 0.91345221 -0.10068409 0.39429399 0.14160991
2680.5161 -217.61354 150.84761 0.91886127 -0.29301023 0.26427063 0.12564857
2641.6104 -292.41013 152.31683 0.75953084 -0.19342005 0.62104881 0.1617177
2722.2861 -176.52332 244.43637 0.74958408 -0.20848551 -0.62821776 0.13339452
2624.2102 -270.85919 193.47646 0.9272781 -0.03445049 0.3727847 0.1344579
2640.4734 -260.72406 154.54585 0.76869535 0.038753118 0.63844001 0.15336244
2693.8242 -182.51321 200.67792 0.95049012 -0.25760099 -0.17381118 0.15794121
2624.5786 -262.22348 233.18347 0.81546968 -0.070677787 -0.57446826 0.17554387
2684.0374 -187.82556 151.78729 0.99100703 0.08484821 -0.1034692 0.10533343
2643.4514 -276.991 152.17676 0.77678102 0.0048252926 0.62975234 0.12849005
2623.4072 -277.26373 231.56689 0.78212756 0.13066539 -0.60926437 0.17698286
2688.5559 -204.91354 112.20717 0.86597991 0.013476125 0.49989721 0.15577887
2692.6318 -193.91582 112.37762 0.71846032 -0.25001451 0.64908206 0.1961939
2729.6619 -245.84393 62.764931 0.7774632 0.12291057 0.61680138 0.10647216
2722.7207 -231.07347 65.52417 0.78062946 0.36763623 0.50543177 0.07816828
2680.582 -272.54434 103.77654 0.64375687 0.079315089 0.76110858 0.14940131
2681.5703 -257.76974 106.09713 0.44073683 -0.070973635 0.89482611 0.11686008
2715.8835 -216.36513 66.447784 0.86014175 0.28131986 0.42545891 0.12153794
2725.4893 -284.69812 63.945663 0.633174 -0.076130152 0.7702564 0.10572752
2724.2722 -271.05948 67.304047 0.66016692 -0.14419702 0.73714781 0.076899663
2688.4055 -232.20972 110.06778 0.7907325 -0.11797417 0.60068643 0.17418604
2673.6033 -284.01312 108.56657 0.67496461 0.022314299 0.73751265 0.11607096
2720.9202 -297.75223 65.623444 0.61108851 -0.14022811 0.7790423 0.11818103
2729.8115 -257.68069 63.435165 0.7602461 -0.057954106 0.64704496 0.085509822
2690.04 -218.91661 110.91466 0.84593803 0.0232042 0.53277618 0.17166887
2667.5273 -309.79123 111.37195 0.71352315 -0.16005377 0.68210518 0.18784699
2672.5811 -297.14462 109.48647 0.72694457 -0.066500314 0.68346858 0.13870236
2700.7617 -224.8765 92.668716 0.79198331 0.020541491 0.61019707 0.12393735
2697.0737 -279.00381 88.081573 0.67058361 -0.034665346 0.7410236 0.081052229
2748.3032 -279.11725 44.211102 0.68738663 0.047501784 0.72473663 0.086742595
2694.4529 -265.22144 90.720085 0.66846049 -0.060347933 0.74129528 0.084093094
2700.6987 -238.87344 93.332993 0.7350021 0.019796425 0.67777574 0.10602366
2701.5889 -212.30078 92.403435 0.80208963 -0.052573472 0.59488511 0.12899825
2706.4802 -203.7849 94.195061 0.53565687 -0.57208264 0.62112248 0.13452743
2742.6985 -265.41071 49.90863 0.68532616 -0.076103225 0.72424883 0.075282253
2752.7493 -251.83968 40.443882 0.74032807 -0.13742569 0.65804905 0.093733646
2692.4395 -292.13312 90.637787 0.67850268 -0.037023567 0.73366433 0.091420926
2685.7041 -304.91934 94.309914 0.61219209 -0.098668911 0.78452867 0.11510045
2749.1057 -292.16998 47.734642 0.59320259 0.23381501 0.77035135 0.11275254
2685.8232 -202.58244 159.46617 0.97997397 0.052305363 -0.1921331 0.11111125
2639.1011 -281.94141 159.88368 0.80757529 -0.016323326 0.58953857 0.14498077
2664.9185 -304.36862 114.96899 0.68435585 -0.27353966 0.67589426 0.15631561
2620.9573 -259.36349 203.41438 0.9496929 -0.21735927 0.22547349 0.14690012
2620.4126 -285.20795 204.90735 0.90570968 0.16256873 0.39148608 0.1700021
2712.6382 -212.5881 71.41198 0.92669135 0.29604632 0.23151621 0.14261004
2687.4844 -225.83109 116.88611 0.91265184 -0.061284363 0.40411744 0.20278749
2689.9805 -212.83363 113.74942 0.87964016 -0.024311461 0.47501799 0.17516184
2668.5874 -292.44992 114.70462 0.71372432 -0.088970087 0.69475317 0.12531014
2720.8076 -250.0321 73.143562 0.74521607 0.0074937884 0.66678095 0.119696
2618.3364 -272.77649 204.11809 0.94207507 -0.11544678 0.31490731 0.14542374
2713.4688 -221.15131 74.728737 0.86326331 0.2458889 0.44081193 0.097509868
2636.2671 -266.8826 161.8342 0.83274341 0.077165283 0.54825532 0.14783441
2684.9839 -185.52202 115.49452 0.9407599 0.24358839 0.23587191 0.23307906
2685.5264 -176.01059 160.94974 0.99527246 -0.020020286 -0.095036544 0.12677713
2621.9358 -246.00224 201.98076 0.9574821 0.033458974 0.2865459 0.12777101
2701.7605 -302.60712 79.04538 0.63643962 -0.21948715 0.73943895 0.10257699
2685.9609 -190.16557 161.43286 0.97512913 0.079181127 -0.20701094 0.11066516
2664.2581 -265.15036 117.31821 0.72824889 0.14758769 0.66923195 0.13410619
2689.3762 -198.96729 114.40582 0.87210017 -0.0061702607 0.48928848 0.18424132
2693.199 -182.24054 199.60362 0.91617733 0.068221688 -0.3949239 0.14047553
2635.2908 -293.79315 161.48398 0.78701866 -0.2295343 0.57263917 0.16998661
2719.7251 -237.07376 73.499481 0.76912344 0.25217274 0.58724612 0.087068737
2636.4875 -258.29391 164.34532 0.68769079 -0.56117183 0.46061653 0.16169164
2713.573 -275.68365 75.144119 0.60405397 -0.13391092 0.78561229 0.075200059
2697.5559 -169.89876 205.20901 0.88615847 -0.20201631 -0.41702834 0.12726261
2666.1511 -279.05301 117.2637 0.75462669 0.047107078 0.65446121 0.10708705
2699.8115 -157.65048 202.9895 0.82598186 -0.35767049 -0.43569008 0.1220177
2715.7283 -290.30154 71.282204 0.59565574 -0.097395517 0.79731321 0.086046368
2620.946 -257.78674 221.21657 0.98922712 -0.10271504 -0.10430399 0.14917931
2652.374 -299.33444 134.80971 0.76620436 -0.31360856 0.56087482 0.10413332
2630.231 -278.04147 178.33653 0.93609363 0.021939322 0.35106605 0.13267304
2691.7493 -282.82446 92.664001 0.6928156 -0.054034945 0.71908748 0.09343984
2629.2375 -290.11459 177.32797 0.89340264 -0.21024406 0.39702544 0.14585152
2683.1133 -308.2027 96.133797 0.69501573 -0.12652616 0.70777416 0.1391414
2692.5828 -268.8425 93.414276 0.66458642 -0.07385391 0.74355263 0.097931862
2689.8633 -295.52954 92.758896 0.68220556 -0.15021008 0.71556443 0.10219878
2619.7229 -270.78748 221.38231 0.99481136 -0.049429268 -0.088921629 0.15231431
2741.2507 -295.75272 49.959702 0.67951906 -0.044817787 0.7322877 0.12206127
2705.3608 -230.65813 93.234718 0.81390554 0.20295717 0.54439521 0.14441703
2686.1001 -210.32712 136.2881 0.99129808 0.054963324 0.11961272 0.097988881
2685.3237 -222.88315 137.38646 0.99270308 0.034900218 0.1154232 0.12130118
2651.2803 -261.19778 134.56664 0.82430571 0.363029 0.43443066 0.09805087
2700.782 -215.98088 94.84594 0.81462502 -0.071422279 0.57557356 0.13288487
2738.376 -241.83307 51.241329 0.78270543 0.17992559 0.59581798 0.10238997
2652.9609 -272.65854 136.15526 0.85206586 0.14836051 0.5019691 0.11234224
2629.8457 -283.75531 218.32452 -0.053855922 -0.97073352 0.2340427 0.12658754
2741.9285 -281.9939 49.760689 0.69268483 -0.0010396201 0.72123969 0.075230107
2655.8357 -286.94739 134.57384 0.83484 -0.020296836 0.55011839 0.10280923
2744.4563 -255.43649 48.647747 0.77234322 -0.066509113 0.63171393 0.082081556
2736.1091 -267.42746 55.959408 0.72076648 -0.099096701 0.68605798 0.071800567
2704.3135 -202.69682 93.750603 0.79526728 -0.14296305 0.58916163 0.14622533
2701.425 -242.91582 94.390511 0.68280226 -0.099957421 0.72373313 0.1286847
2686.4534 -197.06401 135.7114 0.990991 0.0066444194 0.1337636 0.10679213
2629.1455 -263.95197 178.45883 0.92760241 0.038906913 0.37153736 0.14091954
2619.9343 -284.00769 221.00732 0.98713249 0.11584431 -0.11022509 0.19425452
2689.6719 -189.03568 182.32144 0.97161025 0.026098344 -0.23514335 0.11725053
2690.9534 -162.55679 181.22198 0.9513303 -0.1793493 -0.25060812 0.1534946
2690.3376 -175.90884 183.03824 0.9759146 -0.019080786 -0.21731697 0.12648416
2710.0378 -171.01573 226.97473 0.78545064 -0.32724631 -0.52533531 0.07596945
2683.8564 -184.26483 136.87141 0.97925121 0.20161095 0.020495815 0.12018085
2667.0991 -300.49078 114.69929 0.73946428 -0.088534385 0.66734868 0.14184296
2719.5754 -229.89925 69.834923 0.76916444 0.32874548 0.54800773 0.084960699
2687.8938 -207.96576 113.36038 0.8988843 0.0044652736 0.43816331 0.15637769
2669.499 -273.84567 112.33155 0.73042548 0.045105934 0.68150133 0.11925222
2712.4995 -215.18924 74.22377 0.80444217 0.076734558 0.58905399 0.12048488
2730.9685 -259.1178 63.29768 0.77303803 -0.096985899 0.62690187 0.082280077
2726.6848 -246.37756 66.123749 0.75256646 0.085708164 0.65291482 0.11123062
2721.5259 -285.83548 67.04007 0.59972763 -0.066934928 0.79739982 0.094226405
2669.2344 -286.96332 113.11665 0.72590435 0.011915473 0.68769246 0.11582176
2711.4534 -298.65738 72.26403 0.59318501 -0.15895277 0.78921837 0.092673928
2689.437 -221.40424 112.4602 0.90656191 0.099337958 0.41021642 0.1821133
2666.4587 -259.55182 113.47534 0.70248693 0.091028355 0.70585126 0.14770059
2687.2339 -184.73894 114.67562 0.87416172 -0.26716137 0.40554425 0.1988737
2721.4741 -272.117 69.569656 0.63193804 -0.15593319 0.75917006 0.07380522
2686.0962 -194.79793 112.72273 0.9538669 -0.062922329 0.29356214 0.17153862
2620.7856 -261.86026 205.43515 0.96716499 -0.06103624 0.24671116 0.12456804
2663.9055 -283.00833 121.21672 0.81321478 0.0061902194 0.58193082 0.10491401
2639.7363 -287.12073 162.27678 0.81929427 -0.21197158 0.53275222 0.14277036
2622.4729 -247.03123 205.14159 0.95605814 -0.063164055 0.28629208 0.13206547
2664.4285 -268.40399 120.05235 0.79099602 0.12426687 0.59906846 0.13881336
2685.6277 -172.38116 165.6553 0.98529869 0.085895896 -0.14767659 0.12865296
2641.8904 -275.87091 160.02318 0.80200517 0.086127423 0.59107512 0.10612936
2680.9182 -178.32675 120.22705 0.97161657 0.22415735 0.075596184 0.15998915
2686.6389 -224.01112 121.43587 0.96638387 -0.0065633119 0.25701976 0.17542145
2637.3403 -261.34012 162.35219 0.83814883 0.29451582 0.45909366 0.13664848
2687.2922 -187.98759 166.97131 0.98967618 -0.0018294317 -0.14330976 0.11214397
2651.4282 -263.5 122.13135 0.11306126 -0.98954332 0.089561246 0.12911274
2686.9214 -195.00781 120.70525 0.96461314 0.0069852755 0.26357672 0.17127062
2665.7793 -297.37683 117.00331 0.70757192 -0.18462829 0.68209559 0.13860974
2621.2505 -276.85342 204.65767 0.96187979 -0.029685311 0.27185673 0.15799353
2687.9595 -210.3934 119.67462 0.94614458 0.092122383 0.31036091 0.1518269
2701.2703 -162.76361 208.41394 0.83721852 -0.27119344 -0.47488871 0.10806914
2681.8367 -167.2 169.53287 -0.54011041 -0.7690714 0.34177467 0.18410696
2701.5957 -148.46297 203.46567 0.76860243 -0.24467109 -0.59108913 0.10888161
2714.2886 -131.7366 211.86563 0.83280241 -0.2233185 -0.50652635 0.13204376
2668.906 -309.40869 110.88249 0.75366879 -0.038958877 0.65609878 0.17616658
2725.3403 -243.38727 104.37506 -0.53804213 -0.8305828 0.14367625 0.10272004
2678.2454 -283.99802 104.24877 0.70220685 0.0056445375 0.7119506 0.11161169
2677.3518 -269.95001 105.58738 0.64818048 0.023967262 0.76110947 0.14679137
2727.1392 -268.58423 65.149261 0.69995189 -0.13026701 0.70220929 0.081080183
2730.0198 -281.76862 59.924435 0.68804514 -0.080395192 0.72120076 0.092138685
2675.5496 -297.26865 106.47551 0.7154119 -0.075378887 0.69462496 0.14394751
2727.5344 -295.64709 60.311268 0.64742959 -0.15589416 0.74601072 0.12544721
2696.8352 -204.10344 103.72449 0.75209469 -0.093156964 0.65243804 0.15527697
2735.7317 -255.48621 57.518806 0.75962657 -0.074082874 0.64612633 0.085739978
2691.1904 -217.14297 107.63509 0.84038901 -0.016710998 0.54172599 0.16089812
2732.1924 -242.83824 58.888657 0.76334661 0.16804643 0.6237486 0.10646723
2693.3796 -231.03304 104.30492 0.77777976 -0.067696914 0.62488061 0.16033663
2668.4512 -302.47369 112.66887 0.70373583 -0.23613589 0.67007142 0.15192844
2713.6143 -299.84772 70.526772 0.59116894 -0.20119293 0.78105104 0.096319623
2669.6558 -289.78214 113.73853 0.71514595 -0.046586107 0.69742095 0.12382416
2664.8157 -263.04321 115.82066 0.70705688 0.16568382 0.68747318 0.1511521
2716.8179 -287.5127 70.758484 0.5976072 -0.091516204 0.79654908 0.08669842
2725.2 -260.72485 69.253815 0.70189303 -0.15430933 0.69536668 0.0856319
2716.7056 -273.71497 73.469978 0.63943446 -0.14080371 0.75584251 0.080097109
2671.1699 -277.19763 112.40942 0.6402958 0.033038739 0.76741761 0.13524495
2711.2302 -218.22935 77.813225 0.84821421 0.10491987 0.51915741 0.11319487
2724.4648 -248.6326 69.59745 0.76859492 0.07439936 0.63539481 0.12620386
2688.012 -196.55679 116.5513 -0.6134845 -0.78880978 0.037628867 0.22678505
2689.1631 -197.89554 114.9983 0.87686414 -0.049863838 0.4781453 0.18375841
2687.2908 -209.73189 117.52201 0.95988834 0.048643053 0.27613083 0.14897174
2716.5244 -232.4355 75.156761 0.76403892 0.28294683 0.57981521 0.090807088
2688.1587 -223.9879 116.41528 0.9413265 0.00982947 0.33735412 0.19496785
2647.4453 -273.93094 146.2766 0.84217346 0.13062797 0.52314454 0.11886188
2730.2227 -296.13354 57.633152 0.62414473 -0.19472462 0.75665426 0.11692176
2697.4036 -231.91426 101.8806 0.77444082 -0.025573654 0.63212925 0.16829009
2642.6653 -258.97116 147.48795 0.8059358 0.22622882 0.54707217 0.15442425
2680.9133 -297.17551 101.07307 0.71355218 -0.14395793 0.68565249 0.14026201
2673.9153 -310.22318 104.88052 0.7097773 -0.17306638 0.6828354 0.18413453
2731.6819 -282.77103 58.544067 0.68481845 -0.067648575 0.72556692 0.087681383
2645.3997 -287.50378 147.44125 0.80645406 -0.11950301 0.57909489 0.14303561
2682.2615 -283.86307 101.09336 0.68534863 -0.034265652 0.72740853 0.11321072
2679.8003 -271.00717 103.76372 0.64528853 0.023148293 0.76358819 0.14729215
2731.6108 -268.93579 60.62447 0.71452665 -0.11792874 0.68959737 0.076044716
2638.7688 -299.76465 145.77698 0.58067858 -0.5909453 0.55999643 0.14694928
2731.4353 -242.12405 59.511021 0.74572414 0.16383688 0.64579636 0.10786519
2733.8386 -255.9183 58.972218 0.74781054 -0.052609954 0.66182441 0.081906423
2684.1919 -209.36128 145.519 0.99745774 0.056923632 -0.042868808 0.10267511
2698.8596 -204.63162 101.34123 0.76016378 -0.089168206 0.64358371 0.16260099
2684.6677 -196.93362 146.94484 0.99175167 0.098573387 -0.081926316 0.09032578
2682.0073 -182.12779 145.31291 0.98767811 0.12293588 -0.096844003 0.099998303
2696.3665 -217.84959 102.03601 0.80079889 -0.045735322 0.5971846 0.14471076
2633.5459 -299.5361 145.87408 0.36321366 -0.80871254 0.46266606 0.14869499
2626.5789 -284.39435 226.79552 -0.49570447 -0.58693445 0.64014453 0.17133398
2621.4497 -275.0589 229.43124 0.86794287 0.12664422 -0.48024619 0.16124588
2624.3271 -283.53455 189.93027 0.8576346 -0.22155197 0.4640879 0.12907116
2643.9287 -275.90039 151.15082 0.80569285 0.02740263 0.59169936 0.13103721
2623.7949 -257.07944 193.84021 0.92568743 -0.28328863 0.2506997 0.15626942
2642.1489 -291.71051 150.82652 0.73887151 -0.24429041 0.62800562 0.16873388
2638.9976 -261.85849 155.44543 0.76085621 -0.1571575 0.62960249 0.14665486
2617.1052 -293.70276 189.80791 0.6899389 -0.62000006 0.37360972 0.1570552
2625.0188 -269.97675 191.26076 0.9163543 -0.0053550284 0.40033254 0.12126205
2620.8289 -262.04218 229.85866 0.89987868 -0.13733408 -0.41395381 0.14674419
2632.3728 -249.55418 240.93839 0.8723684 -0.036596596 -0.48747724 0.20269255
2693.8635 -187.08722 197.32886 0.95798582 0.073523216 -0.27723187 0.16693524
2682.833 -175.60576 150.26123 0.98531991 0.080374777 -0.15061386 0.1254622
2684.0735 -190.74905 150.71146 0.99234843 0.081022844 -0.093165919 0.099231623
2700.2104 -156.51178 202.65042 0.84729862 -0.16187964 -0.5058459 0.11303253
2696.2432 -171.68298 201.69975 0.92767209 -0.12522133 -0.35177276 0.15105827
2684.4224 -206.20261 150.6353 0.99789673 -0.031480316 -0.056666732 0.096635751
2705.4688 -216.96507 88.642097 0.82815009 -0.054440361 0.55785632 0.11091612
2719.9009 -248.37944 87.954933 0.85169035 0.39742681 0.34157786 0.13547094
2712.3684 -233.77979 88.246681 0.82387376 0.40375978 0.39775628 0.11158018
2686.0239 -207.33426 132.64642 0.99259496 0.083448082 0.088270545 0.10197932
2654.7732 -299.2496 132.42142 0.78662825 -0.26507184 0.55763155 0.11376645
2687.0774 -220.89012 133.08112 0.99205989 0.10117868 0.074699439 0.13149858
2653.9077 -260.02393 131.16905 0.82754433 0.27401644 0.48998505 0.11259564
2657.2957 -273.55896 132.46828 0.85637981 0.17700933 0.4850581 0.095900908
2751.2029 -284.03824 43.074589 0.68988889 0.14931563 0.70834887 0.076306701
2632.1384 -277.29196 173.44728 0.92553204 0.069978036 0.37214711 0.13942026
2631.4658 -264.72205 173.60313 0.91364521 0.1866646 0.36112159 0.13689044
2692.4097 -297.90033 90.342445 0.66379744 -0.11208413 0.73946607 0.089867689
2631.4219 -249.42195 174.9572 0.95631075 -0.11792638 0.26751277 0.16615616
2658.5852 -286.8652 130.98904 0.8258819 -0.025217207 0.56327891 0.098338626
2696.4097 -270.95209 89.370583 0.6830259 -0.055441629 0.72828692 0.082463883
2742.7014 -268.15244 49.744713 0.69682866 -0.062432054 0.71451527 0.072476603
2698.364 -284.79956 87.101501 0.68157697 -0.037572656 0.7307812 0.079751976
2745.0938 -255.18163 48.091618 0.70294136 -0.11673781 0.70160228 0.082104586
2706.9902 -203.77783 87.431084 0.8848533 -0.065316834 0.46126816 0.14602055
2630.9839 -290.08691 175.80052 0.92657745 -0.040596049 0.37390664 0.17443918
2685.3354 -194.33952 132.56314 0.99303877 0.07228066 0.093002558 0.11343529
2686.6699 -184.69888 173.41121 0.97307634 0.1460318 -0.17831762 0.10316318
2685.4785 -161.13345 173.0314 0.9716478 -0.22588734 -0.069824599 0.15479249
2680.8774 -182.5731 132.03226 0.92188609 0.38743061 -0.0048573967 0.12732708
2687.1123 -171.82251 174.32866 0.98604089 0.042557959 -0.16097267 0.12908705
2744.6216 -272.03641 47.230461 0.66212708 -0.0052162609 0.74937344 0.077505179
2659.1182 -303.48465 124.26569 0.77883899 -0.30404034 0.54860669 0.14481166
2704.0322 -276.59058 83.535622 0.64798051 -0.089388363 0.75639337 0.075177044
2706.0076 -222.88876 87.685539 0.82335764 0.090895839 0.56019646 0.097533129
2632.1467 -256.81494 168.41385 0.92995781 0.15007648 0.33564204 0.14907426
2704.1914 -163.76018 214.33278 0.79523432 -0.33395222 -0.50604177 0.093100846
2682.9695 -186.22884 127.16877 0.99136913 0.12806907 0.028027304 0.1137198
2693.5447 -303.14334 87.54541 0.69476646 -0.18280303 0.69561672 0.094462134
2662.4463 -279.34827 124.73215 0.84010816 0.082335554 0.53613353 0.097313046
2702.3076 -290.69339 83.014389 0.67851847 -0.056344703 0.73241925 0.09146177
2714.0522 -147.92642 220.1078 0.77992809 -0.28405479 -0.55769622 0.079327807
2752.1375 -258.89865 40.287075 0.73546165 -0.040017672 0.67638361 0.08202631
2656.7227 -264.65863 128.03947 0.84412801 0.16728903 0.50937444 0.10749719
2685.7117 -226.68187 125.22041 0.93750763 -0.14909664 0.31440356 0.17678696
2687.9666 -194.52391 170.45888 0.9717294 0.15595582 -0.1772562 0.095783234
2750.4299 -245.08037 42.359001 0.75975507 -0.14204104 0.63450497 0.11318982
2709.313 -211.1673 84.04232 0.91429728 0.022873828 0.40439746 0.11010271
2621.4568 -287.1582 212.349 0.89002484 0.36780608 0.26939645 0.18066221
2685.5769 -167.58083 168.96088 0.99322504 0.043473121 -0.10776901 0.14393757
2711.0271 -250.40617 83.745728 0.66842711 -0.13351837 0.73169535 0.12802897
2716.0718 -239.49741 85.698837 0.82790786 0.42336053 0.36787835 0.10030863
2620.0789 -277.03473 211.37634 0.97789222 0.011629032 0.20878606 0.17169425
2637.021 -284.57843 165.56229 0.84924185 -0.089973703 0.52028161 0.1395047
2631.0337 -296.60623 167.52393 0.84252137 -0.34331897 0.41507807 0.16333936
2686.7295 -213.66344 128.22124 0.98928654 0.12198956 0.080191724 0.12239796
2687.2339 -182.03056 171.13416 0.98424941 0.039269373 -0.17236881 0.11248435
2622.8269 -249.82787 210.75702 0.9692573 -0.14223465 0.20077245 0.15073425
2684.95 -199.91063 128.08922 0.99127996 0.093252592 0.09310209 0.1107778
2700.6423 -176.85709 215.52028 0.83952481 -0.27232248 -0.47014737 0.10262498
2756.7981 -287.09869 41.729771 0.57424676 0.28083536 0.76900721 0.084463812
2635.7021 -271.30118 166.10997 0.86489469 0.07899078 0.49569914 0.14064734
2619.9963 -262.86145 210.79358 0.97065723 -0.1340223 0.19965622 0.13085426
2661.5422 -291.76041 125.44579 0.84233892 -0.08211793 0.53265548 0.11278351
2750.2087 -270.99442 42.20837 0.70746446 0.018959833 0.70649457 0.071889304
2660.0806 -276.12338 127.45199 0.8533687 0.11449957 0.50857818 0.090820521
2697.0925 -298.8295 86.04113 0.68174374 -0.12808581 0.72029126 0.098201118
2655.824 -262.0636 127.89711 0.82429695 0.29764596 0.48160294 0.11619647
2660.4465 -288.90805 127.02573 0.8460961 -0.050077539 0.53067279 0.10589857
2658.0593 -301.26279 126.14386 0.76256645 -0.3361761 0.55270064 0.12912518
2699.5933 -285.91324 85.499489 0.68333483 -0.042139251 0.72888809 0.085837193
2751.9749 -257.92441 40.188786 0.74509412 -0.027816135 0.66637897 0.084607907
2704.021 -272.60379 84.697319 0.6463328 -0.12939063 0.75200528 0.075761102
2711.6455 -232.69585 86.322723 0.8242529 0.38834456 0.41206264 0.10308966
2707.9099 -206.45338 87.297279 0.81173337 -0.19268078 0.55132848 0.12519191
2687.2097 -222.79617 128.07202 0.98629719 0.16468395 0.0098531945 0.12342495
2681.4907 -182.05821 128.092 0.98547196 0.16903374 0.016510919 0.10887036
2684.1018 -196.40195 128.2847 0.99567884 0.083847582 0.039914712 0.10393049
2685.9897 -210.63477 128.18304 0.9907921 0.12104172 0.060661934 0.10574715
2705.3828 -219.08336 87.722855 0.81004173 -0.028337106 0.5856871 0.10468648
2714.1794 -247.45663 84.01902 0.78493047 0.093814738 0.61244017 0.13594817
2638.3188 -294.4642 153.65231 0.59744918 -0.57891196 0.55490124 0.14516124
2664.5835 -308.10669 115.56711 0.7110424 -0.12999867 0.69102758 0.17396942
2638.0498 -256.38382 153.89751 0.71048808 0.42875463 0.55801094 0.14569408
2691.5671 -204.95724 110.97067 0.81194592 -0.024222992 0.58322984 0.1779917
2628.9414 -265.09979 236.39331 -0.63187271 0.021437448 0.77477562 0.16167797
2691.3875 -190.11116 114.63184 0.76444042 -0.250756 0.59392953 0.23015745
2642.0403 -283.46686 154.92778 0.78564912 -0.10578252 0.60956168 0.15346195
2621.6965 -272.01282 198.12001 0.92350358 -0.0043883524 0.38356465 0.13964483
2622.9871 -256.56436 198.14491 0.95238245 -0.13481042 0.2734845 0.15600622
2693.949 -186.65631 197.94499 0.93594044 0.10908212 -0.33483812 0.15456584
2686.1836 -182.84256 158.15129 0.98912984 -0.019922556 -0.14568883 0.12205139
2695.2634 -234.45041 105.93372 0.57258141 -0.15467028 0.80512589 0.20861939
2686.7817 -172.30464 162.48097 0.90919554 0.25717384 -0.32745239 0.16214833
2662.5562 -261.0311 116.96977 0.74444467 0.15831462 0.64864367 0.14347579
2698.3904 -156.47987 200.61258 0.83872384 -0.16716176 -0.51826566 0.12879768
2642.4238 -270.06543 154.88757 0.8119604 0.18904644 0.55225152 0.13615306
2695.8765 -172.54214 202.1667 0.91792125 -0.082029492 -0.38819042 0.136778
2686.2312 -197.85991 158.99446 0.98917145 -0.020472065 -0.14532977 0.09773697
2672.9126 -293.21292 110.17646 0.72113931 -0.11156874 0.68374735 0.13004079
2627.5867 -278.90228 235.02518 -0.66909707 -0.1601347 0.72571754 0.19743997
2692.0627 -219.40573 108.98381 0.82546729 -0.082620323 0.55837053 0.17213178
2673.0144 -279.03842 110.53664 0.65290338 0.0084054014 0.75739455 0.1330284
2622.3054 -286.40842 199.31416 0.91666222 0.1640559 0.36443937 0.16457725
2647.658 -303.76358 135.7381 0.69603425 -0.48111698 0.53297538 0.12763187
2654.7454 -277.01413 135.85164 0.86311728 0.047931675 0.50272363 0.095823884
2630.3557 -255.98718 177.26248 0.9254545 -0.25001517 0.28465137 0.15507168
2629.7585 -268.0007 177.03987 0.93572736 -0.00024056075 0.35272399 0.14695784
2653.0439 -264.66788 133.91476 0.83788753 0.28608301 0.46486664 0.10148679
2685.4304 -303.46085 94.360519 0.67284328 -0.23110983 0.70275897 0.12960507
2691.1943 -276.92847 93.107948 0.690126 -0.027341725 0.72317255 0.10142967
2742.6252 -288.08832 50.566387 0.64620686 0.15230082 0.74781096 0.087769814
2737.8037 -273.35443 53.831211 0.70087111 -0.088602886 0.70776349 0.080451757
2618.9482 -272.96765 220.15028 0.99720478 -0.015728412 -0.073042616 0.16710363
2625.3054 -292.80643 175.06418 0.70328885 -0.60793698 0.368507 0.17457958
2681.6184 -261.42499 101.0527 0.6224044 -0.047078829 0.78127867 0.12291954
2620.1252 -285.68378 220.75377 0.98267686 0.14622773 -0.11385812 0.20179315
2689.9858 -290.78845 93.762131 0.66734695 -0.070092581 0.74144119 0.096686132
2620.3794 -259.06628 219.97015 0.98214978 -0.17150931 -0.077242069 0.15520704
2652.1133 -291.29514 137.85185 0.85660797 -0.081210129 0.5095368 0.1153526
2630.3989 -281.8963 177.53206 0.93245041 0.069109261 0.35462669 0.14299978
2711.3401 -156.9718 221.43001 0.7850579 -0.32601205 -0.52668798 0.069155991
2688.6406 -178.03903 177.29761 0.97647709 0.028043341 -0.21378984 0.12994947
2706.7334 -209.54359 90.057701 0.91924578 -0.045274325 0.39107215 0.11233041
2688.5002 -189.95372 175.83138 0.97209835 0.15646778 -0.17476466 0.10326974
2739.4314 -245.94304 52.360703 0.71734703 0.016807854 0.6965133 0.11228995
2720.7866 -142.4021 224.89232 0.7487523 -0.36897525 -0.55066073 0.060139973
2685.0442 -198.16972 134.9072 0.99514431 0.086358875 0.047222883 0.097897209
2706.3635 -170.93675 221.25653 0.76669669 -0.30386305 -0.56554699 0.08371453
2704.771 -237.05817 94.821571 0.77335197 0.19651651 0.60275036 0.15215853
2706.4075 -224.0742 91.164238 0.87908947 0.16885152 0.44574755 0.12067031
2740.4551 -260.26831 52.280769 0.73030639 -0.07981094 0.67844146 0.077412784
2685.7805 -211.48752 135.19501 0.99348587 0.10650485 0.040528066 0.10212581
2688.5962 -164.01285 176.8192 0.95675206 -0.020613404 -0.29017332 0.17205554
2682.9697 -185.77318 133.98526 0.96894401 0.24723533 0.0047127171 0.11074008
2726.198 -282.02405 63.239254 0.63552564 -0.07726153 0.76820427 0.10103151
2721.6243 -225.16806 63.053555 0.77081484 0.3948043 0.49997401 0.081900276
2671.6343 -268.86023 109.71426 0.62977785 0.018992729 0.77654308 0.13135026
2689.0906 -230.36795 108.96562 0.81837231 -0.042468369 0.57311714 0.17768431
2731.166 -254.90883 61.349972 0.74290848 -0.036930472 0.66837347 0.094801739
2695.9897 -193.49434 109.55258 0.5481748 -0.3427209 0.7629199 0.18142281
2726.1279 -268.61313 66.082436 0.70543617 -0.13827558 0.69515443 0.080083862
2727.0801 -295.53412 60.74757 0.64081353 -0.15549648 0.75178379 0.12456398
2676.0454 -282.9657 106.08263 0.69445485 0.022793397 0.71917516 0.12071581
2689.8337 -216.01936 109.03762 0.86867416 -0.0019043069 0.49538028 0.16056404
2693.4087 -204.41777 106.88417 0.76008171 -0.093156256 0.64311564 0.15147126
2689.4651 -257.02991 100.40135 0.60107839 -0.16495879 0.7819804 0.10865086
2671.7505 -310.46228 106.56924 0.73062861 -0.19293526 0.65494871 0.18533501
2727.7771 -240.6322 63.511452 0.75243598 0.15573832 0.63998878 0.10256378
2670.2849 -296.39539 111.19514 0.71145499 -0.044757489 0.70130491 0.13773555
2700.2947 -267.49966 84.513344 0.62965715 -0.059423316 0.77459717 0.096727304
2698.2175 -294.28448 84.914307 0.66111535 -0.036048632 0.74941778 0.090872675
2716.4099 -242.18869 78.556961 0.77476907 0.24774691 0.58168238 0.10366222
2709.3987 -255.29648 80.729065 0.62340927 -0.13214104 0.77064884 0.088009797
2755.3594 -266.94925 38.186081 0.62585598 0.0094529577 0.77988136 0.092401661
2700.7483 -281.19479 83.442772 0.64449078 -0.033492994 0.76387817 0.084524743
2709.5652 -213.75909 80.70433 0.85948831 0.045355756 0.50913918 0.10393932
2686.0405 -205.64725 120.96967 0.97968286 0.068562582 0.18846913 0.12952341
2685.4724 -191.82149 120.71127 0.97841805 0.050300073 0.20041962 0.16386764
2686.968 -218.37434 121.02534 0.98546582 0.088483803 0.14500931 0.14396192
2711.8582 -227.05281 79.764671 0.81894851 0.27139834 0.50563455 0.095841244
2715.0449 -257.51566 75.06395 0.6221388 -0.079310805 0.7788794 0.093018651
2656.2837 -255.39876 120.08138 0.86624151 0.09710741 0.49009773 0.12904297
2713.1528 -215.10022 73.084526 0.82702076 0.12094105 0.54900813 0.11539827
2686.1543 -233.87045 113.3563 0.78988981 -0.12099908 0.60119319 0.17894605
2713.1133 -270.98047 75.387779 0.6005767 -0.14315379 0.78664768 0.08238712
2685.2124 -199.77998 155.37947 0.99211723 0.041878026 -0.11810856 0.11283557
2688.2358 -206.82635 114.31511 0.92527324 0.049651276 0.37603745 0.16370349
2703.9438 -283.67273 79.308731 0.59692127 -0.05783125 0.8002128 0.088653453
2715.1309 -227.78191 73.957497 0.74853271 0.27081335 0.60527593 0.099226169
2689.2217 -221.00702 113.58678 0.88318723 0.0079693068 0.46895286 0.18215525
2719.8457 -243.70781 71.938164 0.68555117 0.10852832 0.71988976 0.094533324
2681.1472 -171.60074 152.93843 0.97115254 0.13391745 -0.19730382 0.13050996
2689.0242 -194.589 115.38531 0.85349506 -0.12492298 0.50590551 0.2016286
2659.991 -261.56403 121.40856 0.80362952 0.17596945 0.56851941 0.12414242
2686.6411 -210.72229 121.59839 0.97019261 0.10201708 0.21981551 0.13979641
2716.1692 -247.16177 78.403938 0.75209671 0.066458739 0.65569335 0.12105875
2694.0637 -172.85577 203.63014 0.88956267 -0.14921115 -0.43175724 0.12447808
2659.8772 -302.42926 122.5018 0.76871061 -0.17578156 0.61496735 0.1355149
2710.4712 -218.70192 80.344391 0.87352896 0.1053704 0.47523069 0.098532125
2685.9468 -176.98175 165.77194 0.99316514 0.0093109766 -0.11634558 0.12211122
2683.0869 -183.41489 121.29302 0.97826272 0.18541776 0.092856638 0.17178491
2700.3293 -298.36893 82.780113 0.65918368 -0.073045582 0.74842584 0.095863804
2633.5134 -265.55908 165.01866 0.86199152 0.10817047 0.49524716 0.14903019
2663.5562 -276.05167 120.65691 0.78788513 0.091712661 0.60895467 0.1039987
2686.8115 -224.9718 121.45156 0.97019392 0.015102956 0.24185865 0.17417587
2633.4375 -255.00624 167.40479 0.86740977 -0.20625298 0.45283553 0.17737155
2661.7825 -289.07993 122.3093 0.80540603 -0.036116336 0.59162211 0.10044399
2715.2683 -233.33871 79.566933 0.79942465 0.37011847 0.47321507 0.098476075
2621.9497 -247.39505 206.58607 0.94237459 -0.22095683 0.2512134 0.1333776
2687.0537 -198.02184 120.44424 0.96150661 0.010786114 0.27457014 0.16535228
2707.689 -272.16223 79.861572 0.61785871 -0.14549103 0.77271146 0.077567123
2686.6497 -191.03592 166.04898 0.98529786 0.10103289 -0.13776962 0.10245866
2713.2957 -206.09059 81.034645 0.8190515 -0.27104095 0.5056594 0.12578341
2755.3269 -271.97437 38.402695 0.62957972 0.049340505 0.77536762 0.090133727
2615.3037 -283.65817 207.95792 0.94343287 0.028529486 0.33033395 0.19325317
2710.1719 -286.59958 76.483986 0.62430662 -0.08839453 0.77616209 0.0746084
2633.175 -278.36795 166.28979 0.87898266 0.08997032 0.46828923 0.14967024
2620.4292 -259.47699 205.89583 0.95888674 -0.1333786 0.25049216 0.13353817
2632.2678 -291.51825 167.43188 0.90116543 0.046844777 0.43093666 0.17495765
2617.5037 -272.82938 206.79903 0.95660818 -0.12198949 0.26461175 0.14207375
2685.8843 -164.33478 164.83647 0.99888527 -0.042413805 -0.020718765 0.18415684
2699.8872 -160.64676 206.37662 0.7953226 -0.35756406 -0.48949966 0.10021307
2698.6833 -148.04749 201.19524 0.706846 -0.29544985 -0.64271158 0.12392923
2675.3757 -274.03714 106.92245 0.65228367 -0.0071785278 0.75794095 0.13605836
2714.3796 -177.11847 235.69348 0.75615168 -0.23591395 -0.61039269 0.087802745
2723.0022 -226.93974 61.939983 0.74440539 0.38320011 0.54682565 0.085189283
2697.0291 -209.88153 102.48804 0.79253304 -0.047634978 0.60796571 0.14848207
2691.1973 -183.08293 188.17639 0.97177017 0.10037619 -0.21351194 0.12072023
2618.4001 -271.45929 187.00467 0.95168322 -0.20073773 0.23238625 0.16598341
2694.8958 -197.45557 107.67046 0.62294573 -0.23275381 0.74683619 0.17077751
2727.8552 -242.24745 63.488533 0.72957551 0.11308482 0.67448604 0.10627719
2692.4871 -235.88332 103.5904 0.76942658 -0.17500086 0.61429423 0.15513128
2682.738 -186.39011 143.46231 0.99279833 0.089862764 -0.079222068 0.090566829
2729.1145 -284.11469 60.226665 0.67083156 -0.069042981 0.73838884 0.099157229
2673.6702 -286.84988 108.05033 0.67876863 0.021820426 0.73402792 0.12065112
2725.2866 -271.09717 65.406868 0.6952076 -0.12133019 0.7084952 0.089064755
2684.6333 -200.91251 144.8871 0.99853235 0.033175763 -0.042808305 0.09200757
2684.4861 -213.55147 144.98489 0.99820781 0.059808727 -0.0020136724 0.11276969
2666.4297 -259.51785 111.8071 0.64424038 0.041808587 0.7636795 0.13852394
2732.772 -258.05002 59.696842 0.74147272 -0.048032138 0.66926163 0.083151393
2638.5024 -276.22406 151.14305 0.82570541 -0.074853167 0.5591132 0.14542809
2698.2581 -223.72629 100.35086 0.79166991 -0.045697775 0.60923761 0.16258499
2672.9902 -300.18222 108.51753 0.73534167 -0.02236956 0.67732728 0.14558703
2690.2874 -169.7334 186.67767 0.96145654 -0.13336098 -0.24045002 0.12908688
2652.0872 -300.9985 134.49857 0.813384 -0.15965474 0.55938971 0.1176461
2654.115 -285.2067 134.71254 0.85443747 -0.028883234 0.51875079 0.11860914
2629.7024 -293.40149 176.60774 0.91274625 -0.098976791 0.39635575 0.16823363
2614.7581 -280.56815 215.00304 0.9822073 0.1736121 0.071607284 0.1888998
2631.0879 -278.89624 175.44298 0.92255777 0.087998234 0.37569073 0.14524832
2685.8899 -214.67508 132.17305 0.99555135 0.083161213 0.044291586 0.10708312
2684.6367 -199.67596 132.14255 0.99529552 0.088683754 0.039013438 0.094900697
2652.1836 -270.20892 135.38428 0.84984004 0.093584329 0.51866543 0.12435859
2689.3413 -196.04007 178.10054 0.98676521 0.060042202 -0.15063 0.10240171
2619.9451 -255.61601 215.36021 0.98403198 -0.15364999 0.089848757 0.14253105
2614.845 -269.86758 215.42574 0.98590374 -0.13298976 0.10152631 0.14826797
2689.6233 -165.92288 178.3461 0.96839064 -0.0542446 -0.24346876 0.14342305
