# .PCD v0.7 - Point Cloud Data file format
VERSION 0.7
FIELDS x y z normal_x normal_y normal_z curvature
SIZE 4 4 4 4 4 4 4
TYPE F F F F F F F
COUNT 1 1 1 1 1 1 1
WIDTH 633
HEIGHT 1
VIEWPOINT 0 0 0 1 0 0 0
POINTS 633
DATA ascii
2733.0308 2.8537631 99.177254 0.97604489 -0.13845985 0.167825 0.15603869
2757.9241 -134.0159 102.05291 0.80877453 0.16919877 -0.56325442 0.13282542
2709.7234 40.067924 142.23073 0.99792016 0.018203871 0.061838008 0.13058972
2712.7263 15.635572 143.38266 0.96359497 0.23676334 0.12420888 0.17584233
2711.0454 26.762602 143.57175 0.98262084 0.14851792 0.11134976 0.14595677
2714.2017 59.382206 185.07065 0.93299991 -0.33913878 -0.12039964 0.078998856
2712.6672 48.080532 187.01302 0.9712382 -0.23506294 -0.037970748 0.1215982
2783.7092 49.459911 57.371239 0.63815218 -0.57501674 0.5119741 0.073468454
2726.7712 85.101463 185.41968 0.84942532 -0.4890556 -0.19824558 0.084289357
2748.4675 20.416336 99.432884 0.71605074 -0.69251108 -0.08774817 0.14058238
2742.262 105.38655 188.36525 0.77138424 -0.61537665 -0.16210477 0.10589085
2769.5745 35.214497 57.344658 0.5758509 -0.65307128 0.4918268 0.049381129
2757.0884 21.309618 57.658356 0.66144139 -0.535375 0.52523226 0.098347701
2719.7468 71.901962 185.08649 0.87174439 -0.46995604 -0.13857496 0.076384023
2750.9919 10.666629 55.257423 0.7106508 -0.46998841 0.52353257 0.11680204
2750.7437 -121.51305 99.822014 0.69639957 0.31358278 -0.645518 0.14315879
2739.8328 -65.055786 102.80044 0.79928446 0.50452518 -0.32649451 0.11967362
2750.0398 -96.229317 102.3515 0.78844804 0.10060516 -0.6068182 0.16157605
2752.1453 -82.226631 104.62085 0.86626303 0.29856685 -0.40055731 0.20715235
2729.2727 -48.882828 101.8319 0.84426749 0.48960638 -0.21794048 0.13372084
2772.9834 -152.60562 107.63304 0.90036798 0.42080134 -0.11074173 0.17356214
2747.042 -110.11769 100.5846 0.7788673 0.085452795 -0.6213401 0.13914868
2731.1843 -11.961993 64.709961 0.89780229 -0.32492563 0.2972782 0.1091444
2728.6953 -2.5943544 107.09556 0.97988456 -0.05445401 0.19199215 0.15139224
2727.2292 -29.444515 102.11539 0.95345956 -0.045922153 -0.29800344 0.14475161
2729.4136 10.684321 108.23392 0.9230482 -0.053825382 0.3809 0.18101263
2746.6809 14.595919 64.994919 0.76241821 -0.49796724 0.41321564 0.11207239
2738.9897 1.1314865 63.331963 0.79328412 -0.4957805 0.35341483 0.11413077
2728.3606 -16.057062 102.86431 0.96909052 -0.10943615 -0.22110462 0.1437887
2729.6685 -40.899681 103.26473 0.91459924 0.15091038 -0.3751457 0.15868461
2757.6106 28.274849 64.762497 0.62677693 -0.65428388 0.42315871 0.081048243
2772.0132 42.712036 64.316963 0.60636789 -0.68916959 0.39669046 0.059611049
2717.2998 11.647929 143.092 0.85628468 0.42878613 0.28795663 0.15145749
2774.4192 -152.73125 104.90611 0.90078986 0.40279505 -0.16227692 0.17585449
2758.4009 -77.908974 107.42637 0.83042312 -0.01145502 -0.55701542 0.24502333
2734.2117 -48.392796 101.64528 0.86487925 0.43343908 -0.2532084 0.19863914
2761.0828 -90.094566 110.57911 -0.61267203 0.093750834 0.78475714 0.17200039
2761.6851 -133.58067 104.76991 0.871795 0.15270965 -0.46546024 0.16708858
2710.1343 39.338261 144.1116 0.98526353 0.16866146 -0.028445313 0.13078678
2744.3484 8.2689543 60.780125 0.66147345 -0.4614504 0.5911991 0.10795521
2735.3232 5.3670716 101.18788 0.96293575 -0.23189788 0.13776097 0.20196612
2751.2043 20.828276 62.176666 0.64671004 -0.53907806 0.53959334 0.077842109
2733.6406 -36.554001 106.38118 0.85747206 0.064548284 -0.51046568 0.18745863
2731.9224 -7.6702719 102.49937 0.98940265 -0.080005616 -0.12116738 0.16116981
2756.7278 -104.44627 108.79277 -0.5918057 0.076704487 0.80242282 0.16581431
2715.1238 59.583248 186.83354 0.92869979 -0.34437871 -0.13754983 0.09048976
2711.3315 26.485212 143.4317 0.98152435 0.14294934 0.1271826 0.14899014
2744.332 -0.23113649 56.344276 0.62501609 -0.4351126 0.64809871 0.14244595
2783.6619 51.626297 59.932358 0.65620917 -0.58518994 0.47638455 0.079660736
2732.0605 -21.633135 105.37965 0.93469721 -0.038358755 -0.35336915 0.15613858
2769.0054 36.551105 59.363312 0.58369023 -0.66980934 0.45897833 0.049183954
2745.5676 -60.802258 102.81548 0.73852658 0.63211292 0.23454571 0.16667508
2755.5417 -119.51869 105.81765 -0.66799146 -0.10018685 0.73739409 0.16659023
2708.4414 54.100327 143.93666 0.99662942 0.06936612 -0.043796863 0.12569822
2737.354 101.40932 189.26746 0.80232155 -0.54216313 -0.24967842 0.11046261
2723.5225 75.706642 189.83604 0.87752229 -0.43063954 -0.21096018 0.089185655
2729.7346 89.139046 189.0713 0.86162651 -0.45162767 -0.23158623 0.087428048
2751.3274 25.164902 71.621056 0.71367311 -0.60809392 0.34769601 0.10872193
2729.2695 7.6731434 112.16624 0.95019633 0.11374779 0.29015225 0.19652614
2738.0652 1.5651993 69.740067 0.83249563 -0.50335145 0.23149157 0.11775515
2725.5518 21.694031 112.1558 0.84990525 0.1795519 0.49540102 0.15742356
2733.4207 -4.1378174 113.65654 0.99284899 0.024524566 -0.11683092 0.18496281
2738.3582 -54.372864 109.80989 0.74274272 0.50278223 -0.44220284 0.13897827
2737.5139 -33.960426 73.432938 0.69644773 0.53881782 0.47395775 0.19036105
2761.2385 -98.975365 113.89372 0.90947646 0.093899295 -0.405013 0.19021486
2759.4939 -85.901627 113.93733 0.9732241 0.19386537 -0.12349497 0.22357097
2762.1655 -112.98212 113.90727 0.86847425 0.093892552 -0.48676145 0.16718464
2733.9304 -43.965405 110.27359 0.80309373 0.21140072 -0.55709082 0.15025346
2726.8997 -25.697672 70.469833 0.99078178 -0.058089379 0.12238105 0.10894082
2740.2263 -31.011404 117.20683 0.76201606 0.0023029069 -0.64755404 0.16266522
2744.9946 -67.542885 110.042 0.79432976 0.50616139 -0.33591798 0.13062859
2750.02 -51.876152 85.349854 -0.063542731 0.072872423 0.99531502 0.15008005
2746.9937 -67.706573 87.731407 -0.59884053 0.45244196 0.66082239 0.24457142
2751.7837 -87.230621 80.51931 0.99520868 -0.03968386 0.089358278 0.10383011
2755.4197 -68.835335 127.3728 0.84824622 0.52508277 -0.069039725 0.14569674
2766.2747 -109.77515 127.74958 0.96685964 0.17057164 -0.18996768 0.12710717
2763.3904 -94.832939 126.70097 0.97096819 0.11666627 -0.20882955 0.14151633
2756.0063 -76.16671 123.56716 0.83920497 0.45914957 -0.29140463 0.15263017
2727.0422 -29.38274 79.178909 0.99650806 -0.075640604 0.035357203 0.13394678
2732.999 -12.294064 79.432289 0.94605368 -0.3199527 -0.051114403 0.12115888
2737.3176 0.75168377 78.606743 0.89886779 -0.42757699 0.095992632 0.10641749
2747.167 18.144651 76.684357 0.84276038 -0.49085754 0.22093856 0.12382597
2758.2026 -53.323036 87.169632 0.44069982 0.49044207 0.75183129 0.23039964
2712.3833 60.386799 165.52972 0.98395038 -0.10522932 -0.14411275 0.098765716
2717.4092 21.126045 125.02598 0.91916651 0.1913448 0.34426755 0.11108287
2746.2976 22.198093 79.538368 0.78061652 -0.59521163 0.1906856 0.10438175
2715.1377 34.593678 124.0252 0.9355396 0.17700848 0.30566925 0.12143514
2730.1548 -39.682949 83.050987 0.90524137 0.26918799 0.328749 0.14830616
2716.1455 75.570808 166.35376 0.94261515 -0.25291529 -0.21796907 0.068738408
2782.0527 42.947113 52.045048 0.60492879 -0.60618585 0.5163331 0.065805078
2731.2795 -41.660004 95.135674 0.95387751 0.29866907 0.030239688 0.18187107
2741.1213 -53.617859 96.748299 0.73453194 0.60280061 0.31159949 0.15319924
2794.8374 57.123848 51.838039 0.62371391 -0.47480279 0.62092131 0.07783246
2728.314 -30.031698 94.861038 0.99416703 -0.02398563 -0.10515062 0.16704006
2733.5752 -2.5540195 94.611588 0.98541605 -0.12831949 0.11175554 0.15233341
2736.1917 8.5944643 95.245819 0.92912632 -0.31620741 0.19166936 0.14996313
2729.0271 -16.942928 95.011688 0.98798013 -0.15456922 0.0019162114 0.14211588
2750.7092 -82.835884 105.26137 -0.23834153 0.12112014 0.96359909 0.22520474
2741.1667 16.900833 95.108833 0.71094257 -0.70313811 0.012546599 0.14478672
2756.3943 -67.914635 103.58364 0.28067294 0.36170188 0.8890413 0.20810908
2758.0813 14.945967 51.067066 0.68679684 -0.45601165 0.56600654 0.10486138
2770.6975 30.336605 50.92765 0.60512596 -0.62097752 0.49820626 0.053052302
2749.1125 0.74572176 53.545067 0.59721857 -0.35456619 0.7194531 0.12977153
2738.0564 -56.87962 106.12202 0.76857597 0.55770212 -0.31346348 0.1318281
2759.3411 -104.03292 111.48549 0.80444592 0.040186107 -0.59266508 0.18252112
2731.8689 -46.465775 106.11681 0.83046985 0.26168561 -0.49177283 0.15221985
2729.8975 -21.540653 107.06969 0.94680083 -0.08679726 -0.30989429 0.14099924
2730.1096 -7.2504454 107.50993 0.9977051 -0.030812049 -0.060292013 0.15397814
2763.6604 -117.85277 113.26269 0.92044365 -0.025380528 -0.39005041 0.15211464
2728.7734 -17.408312 66.804497 0.96313143 -0.2152995 0.16131961 0.11039916
2734.4585 -3.969945 66.584381 0.85116535 -0.46311831 0.24706075 0.11283313
2730.3928 5.0063982 109.09376 0.97256953 0.01583736 0.23207259 0.1911228
2757.4802 -89.5728 108.92155 0.90582937 0.15602009 -0.39386654 0.21798497
2727.447 -33.573822 104.25395 0.94980967 0.035361663 -0.31082338 0.15358186
2754.0398 -74.066582 110.03085 0.84375024 0.5366677 0.008562021 0.21734212
2784.3157 56.231068 62.605282 0.70694345 -0.48761415 0.51231182 0.088546582
2728.3162 19.089767 109.30811 0.87024313 0.033726316 0.49146664 0.16018054
2774.7358 43.602592 62.719795 0.60227889 -0.65008342 0.46330518 0.057226367
2755.4573 25.450283 65.642967 0.68669611 -0.56961197 0.4516533 0.1053001
2739.2939 6.6146092 68.022011 0.80761945 -0.48557597 0.33461443 0.094275162
2758.7588 -60.049389 94.023849 0.47730619 0.59790236 0.64396548 0.20866713
2736.0847 6.3429747 91.86512 0.92761135 -0.34763017 0.13671312 0.13505676
2740.2109 15.739655 92.297661 0.78947121 -0.61124545 0.055805292 0.12170871
2730.042 -19.576406 92.252037 0.99509472 -0.085015923 -0.050584849 0.15104462
2730.8655 -7.4912453 92.041969 0.9855184 -0.16895305 0.014433357 0.12861888
2755.238 10.5931 50.95285 0.68093729 -0.42808053 0.59419823 0.10916046
2782.2817 40.740185 49.360554 0.59187233 -0.60994351 0.52693081 0.061769534
2767.9797 26.021404 48.983032 0.59587026 -0.62934178 0.49886626 0.055752426
2727.9783 -33.209015 91.846489 0.9986459 -0.041929573 -0.030794915 0.16982622
2757.062 -70.183586 102.9378 -0.1790984 0.35270652 0.91843444 0.23177464
2736.9905 -44.33128 93.746231 0.78117347 0.52241522 0.34183377 0.18425559
2791.3743 51.849186 51.282829 0.62345403 -0.52210039 0.5819934 0.07331638
2761.1997 -88.190926 118.2452 0.98542488 0.10450917 -0.13422255 0.1948629
2754.7673 -73.526016 116.90009 0.84557581 0.52237481 -0.11011865 0.19791307
2764.6135 -114.90656 118.81727 0.94834715 0.14443664 -0.28244594 0.15514012
2763.2283 -102.12476 118.18867 0.95962745 0.15514468 -0.23461737 0.17667159
2760.3772 117.27902 204.82986 0.59980142 -0.78391957 -0.16033827 0.044862829
2745.3352 103.78521 203.86089 0.70693702 -0.69098324 -0.1509378 0.052511524
2722.1072 22.035685 115.05157 0.86311316 0.28734344 0.41529435 0.14963524
2741.1284 5.3093457 71.061722 0.84338063 -0.5047338 0.18426307 0.12376873
2732.7109 89.692909 201.63681 0.83195752 -0.5068593 -0.22569954 0.073022775
2768.8906 43.259445 72.296577 0.60961229 -0.69207162 0.38653553 0.062913463
2808.8037 32.256985 29.508682 0.33359075 -0.43692946 0.83535016 0.043913677
2746.0024 15.852826 70.749405 0.80162764 -0.49551329 0.3344543 0.11521092
2734.4841 -5.1811476 116.77188 0.95375705 0.068674624 -0.2926282 0.18675363
2708.2788 43.874363 157.302 0.99802893 -0.011117016 -0.061763134 0.091659509
2737.1743 -31.973713 114.84436 0.71263999 0.015953539 -0.70134848 0.13707379
2735.322 -18.078884 115.09585 0.82441223 -0.049193911 -0.5638479 0.14350264
2725.8926 77.417679 199.64467 0.84918451 -0.38543198 -0.36100948 0.077734321
2727.825 7.6104174 114.27197 0.93489712 0.16745453 0.31293184 0.19291432
2740.3674 -45.88797 115.67269 0.72802293 0.22200111 -0.6486125 0.16018441
2739.9548 -55.239628 112.78791 0.7692914 0.48579437 -0.41496336 0.12537092
2752.1521 26.090591 72.965492 0.70914119 -0.62920213 0.31815639 0.11059684
2710.3513 57.096985 158.17737 0.9864738 -0.12117566 -0.11038958 0.11796531
2714.0483 70.194901 158.29498 0.93357623 -0.3338207 -0.13038103 0.074932307
2741.1606 -56.362453 104.22129 0.7943294 0.6020152 0.081353851 0.15297295
2755.5269 -70.749489 105.28393 0.64846545 0.53113711 0.545331 0.22908112
2752.2058 -85.678917 103.12572 0.79142243 0.21073006 -0.57379735 0.23238389
2742.7405 8.3071642 65.43663 0.77699298 -0.47996661 0.40732539 0.12453024
2763.1729 34.718086 66.277863 0.6390444 -0.67110634 0.37581706 0.068578884
2758.761 26.773642 62.89185 0.68089849 -0.58307278 0.44317415 0.10528285
2728.9963 17.080412 108.02865 0.88836622 0.035782311 0.45773914 0.16053395
2731.1355 3.9740176 107.21214 0.98274797 -0.022484718 0.183578 0.17869787
2731.4458 -16.992538 64.844597 0.93533593 -0.26941845 0.22926055 0.13442427
2757.2061 -75.870293 108.09159 0.79215026 0.49855456 0.35205308 0.23598497
2751.8113 -89.457642 105.4648 0.73511535 0.14182365 -0.66294152 0.20031966
2766.2356 -116.56264 113.5819 0.95096523 -0.092579097 -0.29511744 0.14794925
2763.8474 -103.31561 115.13382 0.79729563 -0.066931076 -0.59986663 0.1967054
2730.4917 -22.118464 106.44647 0.93495333 -0.074244991 -0.34691483 0.14312035
2730.1233 -34.528622 105.16143 0.93771702 0.086276956 -0.33651602 0.16152869
2735.1929 -4.3455071 64.720642 0.82074684 -0.50360841 0.26972798 0.12273043
2731.6533 -47.357632 104.61046 0.84872156 0.29954824 -0.43582398 0.15759337
2729.9546 -8.432725 106.61256 0.99734473 -0.054255538 -0.048577584 0.15809812
2741.9531 -59.830521 107.15456 0.78528416 0.57687992 -0.22480728 0.1451885
2788.4744 -155.24684 152.22841 0.8423239 0.39559829 -0.36604977 0.060285989
2766.3691 -83.563034 150.5186 0.90333611 0.28829256 -0.31760243 0.098043561
2780.386 -139.46335 150.47273 0.87888032 0.34028026 -0.33433324 0.058099762
2761.7585 -92.387993 113.11092 0.71347177 -0.083308339 -0.69571382 0.1918235
2759.5713 -69.685684 104.70258 0.82701278 0.45975268 0.32353872 0.22204947
2761.4475 -80.485321 107.4571 0.98657203 0.15340088 0.056069538 0.22842103
2768.9028 -98.981468 151.88254 0.99410039 0.080652863 -0.072522536 0.11742695
2761.5735 -71.529991 151.64418 0.89994884 0.40183163 -0.16918467 0.092881612
2722.4446 72.283897 192.58897 0.86819535 -0.43036926 -0.24702051 0.090117186
2707.8752 65.839798 150.37625 0.94795007 0.036817748 -0.31628338 0.10065499
2755.4644 23.79142 62.967636 0.68716878 -0.56712288 0.45406023 0.098214492
2709.104 53.014111 148.86662 0.99270076 0.012687917 -0.11993439 0.12011471
2737.4263 -37.934669 111.46693 0.82145751 0.1167953 -0.55818141 0.17512314
2746.479 17.515003 108.10587 0.70384252 -0.69580418 -0.14304633 0.23140728
2729.886 87.56398 193.73355 0.86627692 -0.42627296 -0.26049113 0.09307988
2737.3237 -23.321344 112.25928 0.87823504 0.029165577 -0.47733903 0.15237561
2710.4819 25.900892 148.02528 0.9904719 0.13766082 0.0038629496 0.13261391
2781.7095 52.382244 63.466827 0.67561162 -0.58819777 0.44449106 0.079456769
2734.1282 3.7358389 106.39953 0.99280012 -0.092804268 0.075731926 0.2103675
2741.6143 -53.088665 108.57113 0.79158574 0.4883264 -0.3673273 0.1969149
2733.5608 -9.5849628 108.7082 0.97319788 -0.054295447 -0.2234679 0.15994324
2736.6704 97.666107 193.04582 0.80288315 -0.57312518 -0.16403097 0.097861364
2709.8987 39.095917 147.95557 0.99315417 0.10599042 -0.04909987 0.13181524
2769.3601 38.602409 62.251205 0.60781878 -0.67131102 0.42414364 0.054181803
2748.0466 6.1814566 57.068001 0.80813754 -0.48552126 0.33344084 0.15368144
2744.2271 8.8558245 62.973969 0.74214584 -0.49309704 0.4539547 0.12381323
2748.0876 -49.742416 134.56714 0.81850785 0.26071727 -0.51192909 0.11064582
2764.2627 -95.626305 135.63762 0.91384417 0.23418725 -0.3317306 0.094914101
2711.6882 55.321644 180.91258 0.9298473 -0.32000849 -0.18159996 0.08362513
2772.6309 -128.62329 139.67526 0.95650697 0.22094776 -0.19046403 0.08372438
2720.8389 73.075233 184.62602 0.87899613 -0.44205061 -0.17876531 0.084718853
2711.3857 23.560465 138.36511 0.9806509 0.14734185 0.12889606 0.14633594
2742.8232 105.30567 186.87459 0.75931382 -0.64036208 -0.11566729 0.10528782
2708.6345 51.648144 138.94051 0.98593575 -0.029817283 0.1644433 0.080644526
2756.7754 -68.619568 139.22784 0.88026279 0.44532877 -0.16376731 0.10489284
2761.1067 -80.873238 137.34697 0.91494536 0.31864583 -0.24766868 0.11415115
2709.9434 37.259315 137.75317 0.99113804 0.043244321 0.1256 0.12768656
2754.199 -37.145325 138.07605 0.78844374 -0.095573746 -0.60763651 0.12711555
2769.4126 -113.7448 139.75154 0.96965259 0.17517558 -0.17055024 0.10138026
2724.1099 82.794838 181.95837 0.88011479 -0.45097795 -0.14838068 0.078408122
2762.7888 20.815945 49.399502 0.63103199 -0.53030807 0.56619072 0.064624339
2758.196 9.2598114 45.990387 0.69527012 -0.43028024 0.57572418 0.11427446
2775.4656 34.32539 48.900768 0.59497637 -0.6308642 0.4980095 0.057604905
2791.9441 57.328587 53.673016 0.63607824 -0.545564 0.5456779 0.086707473
2749.4058 -53.959671 137.14317 0.82547575 0.32051122 -0.46460983 0.09229555
2788.0259 -158.4791 147.47171 0.82302547 0.40474513 -0.39851037 0.059185848
2767.907 -79.190269 110.62057 0.80089313 -0.1107003 -0.5884859 0.20707758
2728.5583 -38.373787 96.919983 0.96448213 0.13249712 -0.22851419 0.18228474
2756.8818 -68.902832 141.78752 0.87507206 0.393828 -0.28133324 0.09101893
2764.3423 -85.631813 142.70374 0.94303423 0.241514 -0.2288174 0.10605387
2744.6831 -53.276215 98.80468 0.6835627 0.59594721 0.42141306 0.1677561
2752.5312 -44.745239 138.78329 0.79472792 0.03660417 -0.60586113 0.14162949
2762.4172 -67.699509 99.210793 0.48362386 0.58057022 0.65501618 0.21720271
2773.0811 -127.50146 143.73434 0.93289745 0.27513808 -0.2323819 0.059626032
2769.4421 -112.23276 143.00816 0.95368487 0.19963934 -0.22500964 0.08670672
2767.3801 -99.380447 142.80742 0.93805861 0.20585564 -0.27869242 0.095888332
2780.1963 -143.28751 146.33128 0.87778443 0.31398913 -0.36180839 0.063749067
2729.2058 -24.817705 98.876625 0.97326714 -0.04676095 -0.22486545 0.15788011
2774.4697 34.695156 51.667343 0.57873464 -0.64111775 0.50401813 0.04994829
2733.3416 1.1904716 97.729774 0.98070139 -0.11263917 0.15980375 0.15562482
2753.3137 8.2458782 50.395622 0.73121303 -0.44548464 0.51659548 0.13087592
2754.4844 16.628836 56.041431 0.67040569 -0.45621249 0.58517212 0.095332563
2705.3372 62.944725 140.12149 0.98031706 0.08175768 -0.17970571 0.10905501
2736.8604 13.294256 98.680817 0.90300727 -0.39901662 0.1592595 0.16553321
2785.9587 47.890697 53.133797 0.64230061 -0.54946679 0.53435582 0.069043472
2730.7227 -11.968247 98.020439 0.99085313 -0.11346406 -0.073047802 0.14577347
2737.7527 3.097362 74.360504 0.87453425 -0.45037204 0.17987457 0.11368758
2741.8345 13.401567 75.60244 0.82879442 -0.51116079 0.22762775 0.098991662
2793.7788 24.329189 30.491079 0.34281731 -0.51020807 0.78877378 0.053930614
2733.718 -8.0967598 73.850479 0.92809069 -0.36735496 0.06081083 0.12751076
2742.0249 21.775183 78.45755 0.78598022 -0.5566684 0.26898944 0.079975165
2775.051 -150.80573 129.49509 0.90353942 0.26636833 -0.3356553 0.064757966
2712.7351 40.131439 130.38629 0.97344589 0.073738977 0.21671565 0.1432078
2749.6047 -41.636005 132.86978 0.91214514 0.1319889 -0.38803369 0.14032142
2765.0146 -108.09374 128.80887 0.94017422 0.22361827 -0.25703558 0.11136507
2785.2856 38.661327 44.252769 0.57412165 -0.59782082 0.55945921 0.065872401
2759.9194 -80.713791 130.22563 0.93383211 0.30645677 -0.18450432 0.12904884
2764.698 21.81407 46.798256 0.63919848 -0.56952792 0.51678157 0.054952636
2714.3159 61.190201 173.06119 0.95988733 -0.26691654 -0.085859731 0.097065546
2770.8022 -136.41084 128.67758 0.94068366 0.19159999 -0.28000656 0.059619159
2729.3154 -35.771095 87.475677 0.99260134 0.052650161 0.10940991 0.17462111
2718.3582 13.617326 130.36211 0.88469797 0.40209341 0.23586106 0.1114546
2742.4331 17.017551 88.238625 0.81713325 -0.56016201 0.13605773 0.10809173
2799.012 53.138664 45.184971 0.56835836 -0.4837673 0.66553581 0.066831581
2714.6167 27.615244 130.36591 0.92387646 0.15716742 0.34892797 0.13267402
2768.146 -122.44328 129.93718 0.95604551 0.24216205 -0.16533162 0.10438354
2748.8582 -54.607651 129.65492 0.8541528 0.39048228 -0.34343356 0.1342887
2763.6096 -58.909969 95.815956 0.068931147 0.46254471 0.88391227 0.22528319
2731.2224 -8.039938 88.0065 0.98384982 -0.17666973 0.028764162 0.1065563
2764.7124 12.165305 42.733337 0.67556936 -0.38846579 0.62665808 0.09820538
2741.1296 -45.031422 91.550644 0.61281788 0.58892149 0.52690202 0.16975951
2734.9148 3.636564 88.125092 0.92192572 -0.36627731 0.12607087 0.10515256
2729.7891 -21.580584 88.12812 0.99080187 -0.12941734 -0.039532285 0.13474926
2710.7251 46.789288 171.48257 0.99656689 -0.031225191 -0.076677524 0.089540206
2762.2217 -94.022507 128.7789 0.94037586 0.22617851 -0.25404048 0.11723375
2717.7798 72.836586 172.47932 0.90900028 -0.38043454 -0.17025888 0.063042819
2754.8757 -68.075035 131.02357 0.84519041 0.50988382 -0.16022386 0.12929687
2756.5725 108.90671 221.77063 0.6115222 -0.73528624 -0.29222378 0.064885236
2740.5649 93.281525 219.11963 0.80047691 -0.53486544 -0.27047312 0.075035274
2738.6077 87.682899 223.47862 0.84958434 -0.48947674 -0.19651717 0.11396977
2735.0498 9.364831 100.59066 0.9209516 -0.28535977 0.26536372 0.18249989
2727.239 -29.424994 98.412361 0.97518271 -0.057251044 -0.21387149 0.16140807
2757.7188 18.30216 54.554138 0.69878119 -0.49028498 0.5208891 0.11040777
2739.4199 15.180374 100.27854 0.64358145 -0.76499623 0.024159852 0.20233107
2745.8994 3.5007958 55.517784 0.70564598 -0.50414187 0.49790037 0.14325696
2767.6545 31.403267 55.803749 0.58945984 -0.61474085 0.5240522 0.055056952
2734.6335 -51.474369 100.34314 0.82331336 0.56170142 -0.081526779 0.16694489
2730.1448 -15.669282 100.4632 0.98070538 -0.11359609 -0.15910029 0.14811632
2750.9617 0.52766997 66.383865 0.27528781 -0.7176522 -0.6396811 0.16656405
2732.5078 -1.7024444 100.90701 0.99603891 -0.084870584 0.026522592 0.16776408
2729.3303 -41.492245 98.956955 0.94434762 0.1439791 -0.29576606 0.17118005
2756.8071 -69.208054 102.81639 0.57874489 0.56782198 0.58534825 0.23378593
2780.1985 44.817059 56.346622 0.60822016 -0.61992908 0.49573803 0.062556282
2763.9963 -96.102272 112.13949 -0.50802565 0.075964443 0.85798562 0.15732926
2749.96 -83.011482 101.03405 0.74445635 0.21341915 -0.63264292 0.23475003
2761.3186 119.85883 199.22878 0.60840625 -0.76688445 -0.20427932 0.048619885
2721.6726 69.151596 195.10329 0.87238663 -0.40395874 -0.27524325 0.088290468
2740.2852 100.23722 196.54041 0.78195506 -0.60317183 -0.15725796 0.078909747
2729.001 84.505005 195.70453 0.86654007 -0.42856306 -0.25581625 0.084440321
2765.1912 29.616943 55.457455 0.60037768 -0.62788242 0.4952881 0.053440455
2743.574 -6.5925603 59.046989 0.45104396 -0.074783877 0.88936311 0.13328846
2781.2747 44.631508 54.58773 0.61054069 -0.62805408 0.48248127 0.063736349
2792.0388 59.102673 55.343449 0.67421383 -0.48365855 0.55813086 0.090449475
2758.0908 18.491083 53.80724 0.66402018 -0.47921556 0.57395959 0.09426298
2747.4167 4.7062931 55.250271 0.65155506 -0.4373962 0.61980689 0.11000294
2765.4788 -117.2555 118.88379 0.96752232 0.070205212 -0.24284108 0.15137093
2763.2104 -102.97009 117.93529 0.94714296 0.1345934 -0.29121265 0.17493096
2747.7249 -61.210617 116.11481 0.75366431 0.57709426 -0.31456679 0.15940742
2746.7488 105.24888 203.42386 0.69918251 -0.699763 -0.14654541 0.05214458
2762.4065 -90.457443 117.37508 0.98339671 0.16678362 0.07151302 0.1921809
2762.4309 37.539631 73.245857 0.63670737 -0.68018574 0.36325073 0.083008662
2734.4712 90.971291 201.85487 0.83033478 -0.48529115 -0.27392811 0.094859645
2760.5596 -78.435013 116.72451 0.96012521 0.24765189 0.12972315 0.19773
2728.0159 19.736807 112.26862 0.86244935 0.076066718 0.50039482 0.19204096
2800.4138 28.888962 30.695246 0.31525111 -0.47075078 0.82402086 0.054333299
2729.9182 6.5928159 113.39706 0.95090801 0.076193482 0.29994756 0.22466128
2727.0823 77.481407 201.86644 0.85188258 -0.41969925 -0.31328684 0.08229211
2709.2319 41.098728 155.3822 0.99499869 0.015762895 -0.098636404 0.11750742
2740.9629 -47.013134 116.03207 0.73037791 0.25879231 -0.63211918 0.1558717
2709.9231 54.628983 155.40022 0.98989463 -0.074599847 -0.12059647 0.1145048
2749.4753 22.915796 73.590462 0.7668981 -0.56360716 0.30694348 0.10983952
2711.6721 67.489304 154.75972 0.94544131 -0.25180078 -0.20672953 0.081112981
2734.8918 -20.051075 114.38568 0.82263768 -0.047108512 -0.56661105 0.13983603
2762.7454 119.71284 204.39555 0.59368569 -0.77798676 -0.20560619 0.063199915
2738.6855 -33.002426 116.2916 0.73332739 0.0056572901 -0.67985213 0.13686912
2732.655 -5.9419236 114.87671 0.97904027 0.086789832 -0.18424913 0.17772761
2730.5295 -45.457092 102.76951 0.8978191 0.25051951 -0.36216125 0.16519527
2754.6084 -89.019516 106.32413 0.7697705 0.038367063 -0.63716668 0.23136123
2773.6389 41.499199 60.906437 0.59143949 -0.65145403 0.47519156 0.053099461
2731.7881 5.9722648 105.17801 0.97485483 -0.03430685 0.22018433 0.18533705
2784.293 54.536839 61.481937 0.6878252 -0.52232444 0.50405717 0.081772424
2747.3809 11.753903 61.228729 0.74988544 -0.48458636 0.45038635 0.11923124
2737.5662 -2.4871411 62.019722 0.81820339 -0.47416529 0.32513154 0.13412997
2759.8574 27.035261 61.217987 0.6609084 -0.5988245 0.45233759 0.093585044
2751.9851 -72.014656 106.04029 0.80031651 0.59952313 0.0080908071 0.21781601
2728.8394 -8.5409536 104.29031 0.99134296 -0.1290281 0.024308093 0.14812277
2730.2107 -33.859184 104.2435 0.94442171 0.06015851 -0.32318509 0.16518688
2748.8506 -62.020195 105.67223 0.73143101 0.6492303 0.20858727 0.19309071
2729.0127 -20.595488 103.51443 0.95262146 -0.11316747 -0.2823216 0.14408904
2725.8806 21.024939 108.0471 0.85493284 0.12735158 0.50286323 0.1340926
2706.8938 62.996078 141.61253 0.99115479 -0.0013435486 -0.13270417 0.11848005
2785.7229 48.826996 54.210274 0.66498333 -0.53352237 0.52263856 0.073488191
2770.9426 34.151596 55.100639 0.58625418 -0.63848639 0.49863935 0.052126288
2717.1511 66.597 185.21402 0.89843583 -0.43227148 -0.077164955 0.07577315
2709.2134 35.294495 143.09183 0.99065441 0.035520341 0.13168947 0.12113672
2731.5298 94.77346 185.12721 0.8161667 -0.52827817 -0.23408146 0.10491569
2709.2795 49.132687 142.10281 0.99923164 0.030982077 0.024005525 0.12564388
2723.5188 80.781601 184.0616 0.87807602 -0.43481275 -0.19980077 0.078345142
2776.9114 42.037254 56.708878 0.60620594 -0.64043009 0.47155449 0.05998487
2785.406 53.589924 59.158813 0.68793523 -0.53243899 0.49320772 0.082640022
2741.1709 0.075715303 59.022381 0.66274631 -0.40217763 0.63168067 0.11523411
2752.6167 14.946269 57.347675 0.68683821 -0.4476833 0.57256699 0.10451701
2763.9609 29.032127 56.706524 0.62558806 -0.63012689 0.45997787 0.063203096
2741.842 -9.105402 62.703102 0.26280975 0.12763715 0.95636803 0.14572664
2770.6482 -132.06409 128.08534 0.95691073 0.17438322 -0.23219033 0.083948225
2773.0051 -145.82178 127.37373 0.92807949 0.21847522 -0.30155775 0.062091954
2766.0508 -114.36255 126.25915 0.93007731 0.25169688 -0.26759088 0.12161992
2761.0032 -98.112808 122.88494 0.92478228 0.15861391 -0.34586027 0.12969227
2715.3528 35.860535 122.78369 0.92923027 0.20022719 0.31054816 0.12346341
2725.7446 5.0936785 123.43245 0.90358222 0.36309719 0.2273754 0.15982029
2719.2371 20.278618 122.44953 0.88911921 0.36384422 0.27764085 0.10945468
2746.6814 -23.232996 127.79454 0.83870155 0.045248345 -0.54270834 0.13592349
2759.8665 -83.551262 125.86548 0.93536544 0.27845931 -0.21806397 0.15320612
2735.5754 86.738091 212.37215 0.86494642 -0.44812462 -0.22594696 0.093094394
2716.3162 73.19371 167.59509 0.93179661 -0.32437643 -0.16289569 0.068623997
2713.5391 59.699059 169.40926 0.97368634 -0.19666725 -0.11513862 0.10437563
2740.9492 97.326149 210.67821 0.7851119 -0.58278245 -0.20967568 0.072419159
2743.4663 -38.728752 122.83324 0.74870741 0.082343347 -0.65776652 0.14630274
2709.7771 43.893261 167.41501 0.99771285 -0.012133395 -0.066497147 0.097598612
2747.353 -53.814457 125.82265 0.80883521 0.42508712 -0.40630847 0.14492264
2755.271 -70.095543 126.27854 0.83698744 0.53034896 -0.1348408 0.15521188
2764.4429 118.64697 214.25694 0.62478787 -0.72566265 -0.28819063 0.076443017
2784.9326 20.902699 32.695114 0.41405135 -0.44931847 0.79162765 0.050616968
2756.3225 114.61787 204.8806 0.62744796 -0.7432248 -0.23221965 0.04308404
2712.7065 25.315306 157.95782 0.9972868 0.073474757 0.00452655 0.14508998
2727.5969 71.47319 208.42039 0.84974808 -0.44706818 -0.27938908 0.1064093
2739.9746 98.017029 204.00668 0.81214416 -0.54304415 -0.21336585 0.089204021
2731.2861 83.363594 204.81575 0.8629691 -0.4335908 -0.25939032 0.082883574
2709.8125 56.956711 156.71471 0.98756266 -0.023587069 -0.15544644 0.12368409
2710.1531 41.066013 156.86719 0.99183065 0.05677757 -0.1142292 0.12037989
2781.0422 -140.32445 151.37036 0.86569422 0.35884193 -0.34900719 0.056455106
2767.7798 -87.557678 153.20233 0.93573016 0.27921453 -0.21551885 0.10682955
2775.8145 46.04826 64.15863 0.62440479 -0.67166573 0.39872769 0.073880829
2732.7661 -9.722765 106.39467 0.96501827 -0.051116996 -0.25715128 0.15669493
2750.5598 18.895821 63.967564 0.72817051 -0.51548737 0.45170841 0.11012918
2761.2278 31.694891 64.419022 0.63547325 -0.65752208 0.40476969 0.071819812
2760.1226 -80.767212 108.42769 0.97948337 0.095394462 -0.17751701 0.23607489
2709.6733 51.027946 146.13284 0.99871314 0.010440543 0.049629826 0.12567213
2762.1523 -72.313156 151.23561 0.90768898 0.33533227 -0.25229543 0.095132239
2769.4189 -94.787094 105.35186 0.97270674 0.066109292 0.22242123 0.15586729
2732.3359 -23.834547 107.25871 0.89956069 -0.031910155 -0.43562868 0.15301648
2732.5024 -37.150627 106.30337 0.88528472 0.053388767 -0.46197465 0.17255937
2739.4495 16.303974 104.8918 0.86271471 -0.47641113 0.16957512 0.21810056
2709.6147 37.316612 146.18637 0.9968459 0.06839186 0.0402591 0.1222651
2732.991 3.2473478 104.68694 0.99508435 -0.061393321 0.077704303 0.19466415
2762.9583 -71.25882 103.43539 0.86676699 0.41281438 0.27982002 0.21691287
2730.0107 88.514801 192.6855 0.8679896 -0.41670275 -0.27009782 0.093392313
2735.9602 -50.497112 105.53756 0.81482083 0.42671955 -0.39239958 0.17586625
2722.6213 73.684547 191.27351 0.8675527 -0.43536305 -0.24043991 0.08702305
2743.2502 6.5097313 62.643253 0.7695393 -0.52319205 0.3661685 0.121979
2717.0322 60.244251 191.47751 0.91120797 -0.33884901 -0.23426779 0.091113679
2711.2087 24.351828 146.31323 0.99379444 0.083077602 0.073964201 0.14538874
2770.573 -100.27585 152.3658 0.95212817 0.18406042 -0.2440773 0.10405237
2735.7844 -4.821219 62.470997 0.82028973 -0.55580044 0.13494676 0.16248801
2738.5759 101.16944 192.27101 0.79428244 -0.5644381 -0.22477783 0.10165259
2733.5337 -20.084969 113.14631 0.87272739 -0.048352737 -0.48580751 0.13797115
2737.8386 -55.917347 109.78882 0.76492643 0.49599218 -0.41094929 0.12257435
2731.9448 -6.8399487 113.31826 0.97287339 0.052873697 -0.22521493 0.16557623
2733.3301 -34.000656 111.39429 0.78755146 -0.0001555042 -0.61624885 0.14375322
2774.98 46.446178 66.954887 0.62039876 -0.66431981 0.41687477 0.069816835
2733.8645 -46.130932 110.28368 0.81564671 0.25994885 -0.51686269 0.14280874
2762.5737 -103.93336 115.78266 0.92968988 0.10798002 -0.35216057 0.18382616
2765.0645 -118.14047 116.92296 0.95296752 0.045601204 -0.29962215 0.15003215
2755.5427 -75.683182 114.9081 0.85452306 0.49885061 -0.14470096 0.20811258
2811.803 29.930464 26.952669 0.33925417 -0.45190024 0.82504106 0.056780916
2753.3503 25.546877 69.635429 0.70294893 -0.5917961 0.39451256 0.11098496
2755.9067 -87.41552 111.56196 0.84193319 0.22584486 -0.49004352 0.18415242
2729.856 5.6231022 112.86517 0.96080124 0.087382816 0.26310691 0.20725965
2749.5542 -73.313873 103.00405 0.87702233 0.48044941 0.00041569505 0.1742969
2750.3206 -63.863274 104.69034 0.70463032 0.60649246 0.36832461 0.19282497
2728.0278 -45.048885 99.996971 0.88647085 0.43860671 -0.14762662 0.14370474
2756.978 22.017599 58.984535 0.68511111 -0.54717028 0.48086113 0.10796008
2729.8804 -10.568347 101.58704 0.99293888 -0.095968395 -0.069731064 0.15200035
2778.6072 41.723457 55.344566 0.59011668 -0.62629628 0.50942641 0.061376236
2786.248 52.72681 56.978508 0.6777848 -0.49260813 0.54584336 0.082879573
2744.6299 7.2431216 60.808578 0.72183478 -0.48221734 0.49640808 0.12936185
2730.4504 2.4396636 104.07099 0.96095127 -0.072271347 0.26711339 0.15483436
2727.4048 -36.295177 99.730881 0.9622854 0.080696933 -0.25979775 0.15268596
2741.783 -0.81975347 56.514366 0.7224108 -0.54480207 0.42580909 0.16436496
2731.7861 15.782575 103.79675 0.90222156 -0.051810417 0.42814949 0.17534709
2728.4124 -23.425714 100.90485 0.96632504 -0.093232237 -0.23984098 0.1511438
2737.5129 98.775909 193.05026 0.80200863 -0.57297009 -0.16878217 0.10551734
2766.6311 36.316517 63.402496 0.62256318 -0.67433059 0.3971062 0.059659906
2720.8213 71.151276 191.46643 0.87407541 -0.42774701 -0.23027074 0.078574784
2710.3066 37.798817 145.97356 0.99289602 0.11797088 0.015503177 0.13774197
2733.5 -47.809544 102.24561 0.87110931 0.41481349 -0.26286554 0.18586515
2710.2334 25.179728 146.83157 0.98497903 0.14113514 0.099484727 0.12366103
2729.4617 86.769859 193.29785 0.86675221 -0.43314728 -0.24723284 0.090345755
2743.3323 7.5152531 63.338871 0.75921661 -0.4833433 0.43585482 0.12764959
2734.1018 -7.0109801 63.209049 0.85293591 -0.42088962 0.3087917 0.12986425
2731.0349 -21.763878 105.54539 0.93030638 -0.055398397 -0.36257556 0.14963046
2782.4348 52.24192 61.866714 0.6814006 -0.54064435 0.49335277 0.075312264
2730.9514 -9.1262665 102.88816 0.99628496 -0.064465597 -0.057099964 0.15172595
2757.9329 20.879007 106.11677 0.55625719 -0.7747637 -0.30053154 0.13557388
2754.1917 22.047855 62.783279 0.69496322 -0.55529273 0.45681074 0.10604443
2733.6396 4.456347 103.47147 0.98741895 -0.10333982 0.11968579 0.20404157
2709.1377 51.075562 146.05357 0.99956453 0.024071585 0.017068848 0.12090315
2729.8569 -35.858719 102.40522 0.9498446 0.072271168 -0.30425671 0.16990088
2715.074 57.64082 190.97995 0.92094028 -0.35769966 -0.15466085 0.093283989
2776.9414 -146.48044 131.95218 0.91743356 0.33464795 -0.21523568 0.077936128
2712.6765 53.586918 172.52132 0.98391336 -0.1335648 -0.11863774 0.1005854
2746.709 -41.754429 128.85815 0.8256073 0.11863723 -0.55163199 0.1502251
2755.7791 27.22537 84.960258 0.7065987 -0.70756078 0.0087179188 0.13519895
2762.4688 -86.136154 130.07085 0.96070212 0.2462364 -0.12813707 0.13295761
2748.6077 -27.826487 132.02637 0.85766828 -0.043869667 -0.51232862 0.15509169
2722.812 10.721476 128.47734 0.82047236 0.51849532 0.2408064 0.11481503
2735.2449 86.060242 215.70543 0.85277158 -0.47798979 -0.21049085 0.0953428
2715.3257 66.882942 171.95325 0.93254554 -0.33529112 -0.13393532 0.073388137
2710.8789 38.021378 170.93941 0.9973377 0.024260558 -0.068767421 0.11115524
2721.2053 23.013306 126.38321 0.8774485 0.41056275 0.24803692 0.10318965
2754.2605 -69.134216 129.07335 0.84268081 0.48221484 -0.23949499 0.13157561
2742.8887 12.336507 83.237289 0.87248939 -0.47634569 0.10889014 0.10564935
2752.7415 -60.785599 130.27921 0.85503101 0.51717222 -0.038143013 0.14524019
2729.6426 -18.748995 83.050644 0.98266947 -0.18170507 -0.03666006 0.11492759
2734.5066 -36.383869 85.132446 0.93605906 0.33365449 -0.11166047 0.19717509
2771.9487 -131.1225 132.2121 0.96469575 0.17894964 -0.19323327 0.086143091
2727.0059 -1.1765684 128.39343 0.91460574 0.3593981 0.18528195 0.15841967
2768.7766 -117.13966 131.70081 0.97766334 0.17903621 -0.11009298 0.11913136
2766.0352 -101.47876 131.4395 0.97680897 0.15773049 -0.14479414 0.13015495
2732.7078 -4.45119 84.163597 0.96270573 -0.2543475 0.092222378 0.097716928
2747.0054 101.21687 216.89085 0.70821732 -0.65583265 -0.26136518 0.05720979
2768.6155 120.4202 221.14064 0.65530133 -0.71631479 -0.23973595 0.099444464
2772.6025 -97.43293 155.83868 0.89565027 0.19515161 -0.39965793 0.096944414
2709.7444 59.609043 153.21713 0.98341191 -0.081038892 -0.16227673 0.13674431
2744.1443 101.59225 204.4258 0.74767977 -0.64151788 -0.17155114 0.068740383
2710.2954 28.184235 153.73453 0.99522704 0.055638928 -0.080171093 0.12730768
2723.8105 68.514984 203.01646 0.86802465 -0.41231513 -0.27663946 0.089440398
2783.1416 -143.13814 153.68094 0.81421918 0.44029078 -0.37840605 0.05227305
2768.2771 -81.318535 155.9884 0.88149506 0.26381782 -0.39162058 0.098812751
2710.04 43.901066 155.17244 0.9792195 0.10092303 -0.17590813 0.11961567
2731.9814 85.060028 204.1769 0.86112195 -0.44143742 -0.2521944 0.083076209
2765.0991 120.83401 207.05112 0.58946073 -0.77905041 -0.21358009 0.069081806
2770.7668 41.617352 65.947823 0.61375564 -0.68668789 0.38956869 0.055752262
2817.822 32.053322 26.442961 0.20350599 -0.48188385 0.85227537 0.059008848
2755.7251 25.956778 66.647148 0.69112772 -0.59448653 0.41100875 0.10461839
2731.8713 4.9281626 109.89776 0.97758305 0.013693321 0.21010448 0.21590516
2731.9102 18.070702 108.58069 0.86059839 -0.014876958 0.50906694 0.21281435
2758.9524 -101.91424 111.33069 0.81595391 0.073474109 -0.57342893 0.17711857
2733.9531 -47.15834 108.68701 0.76817 0.21893141 -0.60165095 0.15938461
2766.5046 -130.56607 114.23126 0.93238235 0.15099412 -0.32842651 0.11836131
2758.1897 -88.62999 111.05443 0.90721405 0.15329403 -0.39174432 0.21552218
2762.0737 -116.08522 113.58159 0.84435135 0.077679604 -0.5301289 0.15909609
2742.8774 -59.055637 110.61272 0.76944703 0.51993728 -0.37096703 0.1427642
2728.9609 -33.592968 106.50066 0.8697142 0.044468082 -0.49154839 0.14863625
2730.4695 -8.0098629 110.1966 0.99426466 -0.001312859 -0.10693941 0.1614859
2754.0139 -73.766685 111.80217 0.84981704 0.5204249 -0.08348009 0.21752754
2734.2864 -4.2230482 67.888016 0.87306577 -0.45281175 0.18088014 0.11088799
2731.1843 -21.271774 109.18475 0.91576439 -0.059481088 -0.39728782 0.14093648
2730.5601 -39.880215 91.979324 0.97725338 0.20898509 -0.036070257 0.19984503
2755.301 6.3814397 48.405685 0.70342988 -0.38390943 0.59816378 0.12716062
2734.645 0.77145159 91.553993 0.96648866 -0.22224073 0.12848645 0.14017521
2732.8203 -11.845665 91.84417 0.9920454 -0.12474883 0.016840633 0.14879364
2778.301 34.851181 47.459206 0.57643545 -0.62805599 0.52275026 0.055127203
2729.1443 -25.665291 92.326553 0.99272549 -0.08617872 -0.084079303 0.16036502
2740.0244 13.840125 91.524467 0.89846569 -0.38208303 0.21626833 0.13021918
2762.3489 18.725176 49.301422 0.64995676 -0.51203072 0.56158769 0.077225111
2787.7859 46.323341 49.681435 0.63332987 -0.54528975 0.54913783 0.068506256
2800.8914 61.088188 48.872292 0.57379705 -0.46537924 0.67392814 0.081586711
2753.4226 -53.613071 91.507507 -0.59178275 -0.62843722 -0.5048365 0.17386885
2761.0396 -63.501625 101.24226 -0.6137315 0.30846864 0.72676045 0.23217258
2769.9448 -135.50597 119.80454 0.95486146 0.15814097 -0.25145778 0.11213981
2772.5886 -148.86333 118.84451 0.94334364 0.21906008 -0.24922977 0.11742476
2724.7583 73.475105 200.73561 0.86165339 -0.37781578 -0.33883432 0.07712698
2731.7156 86.934769 201.28961 0.85213262 -0.45699421 -0.25500247 0.084943295
2710.7061 26.479147 157.74652 0.99343133 0.10114792 -0.053509701 0.13049997
2761.312 35.608456 72.67337 0.64709371 -0.68628317 0.33209202 0.091059998
2746.7893 5.4627838 69.540855 0.89009339 -0.43767428 0.12718099 0.15529016
2759.5647 -91.390915 115.32754 0.93167537 0.12431774 -0.3413592 0.17936216
2740.4766 -22.880125 118.09411 0.75114566 -0.025556564 -0.65964156 0.14264861
2709.8374 53.054165 157.84291 0.98087466 0.06344638 -0.18400945 0.11030566
2750.3955 16.520222 66.148567 0.81908059 -0.45276523 0.35229343 0.12501812
2765.2673 -121.08981 118.23869 0.94441283 0.11577966 -0.30770028 0.13244568
2710.1748 40.056065 157.86772 0.992607 0.047366887 -0.11174855 0.11869329
2730.4268 2.4874146 114.63162 0.98475301 0.14126249 0.10152023 0.20382258
2756.8867 -78.118484 116.74406 0.8992244 0.42013738 -0.121984 0.20160994
2808.9006 28.489569 27.323793 0.33781067 -0.45774823 0.82240534 0.059494801
2737.7612 -36.93668 114.24767 0.7099669 0.059062134 -0.70175403 0.15210363
2726.0654 16.91655 113.39981 0.83906734 0.07492099 0.53884399 0.17757507
2745.4358 -61.684669 114.35693 0.77086389 0.51948506 -0.36865181 0.14104404
2763.2983 -106.78904 117.57726 0.9397217 0.15268593 -0.30595765 0.17575325
2725.0352 66.927048 207.31931 0.85893816 -0.4246937 -0.28611267 0.095625699
2735.3127 -9.0218306 115.68879 0.92575663 0.011977891 -0.37793013 0.16998452
2749.3699 22.047762 71.588425 0.77436268 -0.53826612 0.33261389 0.11195035
2739.7537 -50.128082 113.72768 0.75086713 0.37335035 -0.54480088 0.1553818
2762.9104 120.26848 206.47704 0.62663472 -0.72943687 -0.27431878 0.074215628
2744.6553 102.54727 203.59802 0.73936492 -0.64892077 -0.17955872 0.065983415
2747.9155 3.0573635 53.921566 0.65620452 -0.44544697 0.60907525 0.12483262
2715.5657 17.209015 138.23969 0.91168815 0.29622573 0.28473684 0.14522958
2764.342 -79.770248 108.38274 -0.58053499 0.28361633 0.76324368 0.19288346
2752.3806 14.81008 56.966106 0.67583066 -0.43778718 0.5929547 0.093377709
2762.0554 -78.194466 140.40921 0.91907281 0.37281635 -0.12772281 0.10351358
2729.5334 -27.953016 97.51857 0.97349238 -0.0070731039 -0.22861005 0.16408962
2740.9443 14.721367 95.989693 0.90174794 -0.40523723 0.15044419 0.16547382
2732.3457 -14.333037 96.751236 0.99558425 -0.06232347 -0.070198424 0.14841233
2744.9761 -54.330074 97.422607 0.66930205 0.56558305 0.48182005 0.16243193
2769.2512 -94.709526 111.55509 -0.46084872 0.19569422 0.86563402 0.15646054
2766.4739 -93.065384 141.4315 0.99279863 0.1110339 -0.044970468 0.096085347
2733.3269 -0.79042029 95.822205 0.98677349 -0.12361641 0.10486689 0.14910986
2774.321 -67.885612 100.63175 0.076196037 0.50167322 0.86169493 0.2301711
2732.5994 -42.855858 96.373802 0.93195349 0.33226883 -0.14512117 0.21096563
2756.7002 -66.57177 140.48381 0.89665389 0.43509969 -0.081853658 0.1127127
2717.6899 66.780251 184.61351 0.90303707 -0.40949741 -0.12975319 0.080014952
2709.094 45.012619 139.0009 0.99108022 0.13292871 0.0094836392 0.1327309
2765.6411 29.328926 55.565865 0.58975309 -0.61738998 0.52059668 0.056887098
2725.3394 82.328003 185.18214 0.86957198 -0.43170944 -0.23973213 0.085936904
2786.6748 47.599037 52.177456 0.65492791 -0.51189077 0.55591118 0.069179185
2711.8203 31.351765 138.42422 0.97915566 0.15185791 0.13488297 0.15208438
2733.334 97.478378 186.88176 0.84010106 -0.46586049 -0.27785638 0.10606387
2712.2554 52.242767 183.11414 0.9539097 -0.2679683 -0.13508983 0.094787605
2729.1841 5.1601858 110.93275 0.95855385 0.04822363 0.2808007 0.19538045
2764.0493 23.771818 113.54705 0.61873072 -0.7473098 -0.24228151 0.097900979
2755.8464 -76.088402 111.99992 0.86674243 0.49875584 0.00044962313 0.22050571
2733.3403 -4.3699918 68.655441 0.89029318 -0.40873492 0.200783 0.10555686
2753.9292 25.058979 66.95504 0.69014484 -0.57551819 0.43872422 0.099371217
2755.176 -89.222435 108.54839 0.85146761 0.15854099 -0.49986759 0.19972759
2732.5352 -46.60231 107.23994 0.82608324 0.25459725 -0.5027591 0.14827807
2745.1794 12.095131 66.102417 0.789361 -0.47482175 0.38917026 0.12262753
2744.4438 -60.942715 110.2767 0.74805105 0.54773217 -0.37471202 0.14706071
2731.6177 -21.105101 109.32712 0.92166138 -0.059877388 -0.38334715 0.14193131
2731.031 -7.0011125 109.59719 0.99504435 -0.00027464668 -0.099431708 0.15811467
2729.1726 -34.449242 106.29224 0.88627154 0.068052806 -0.45813927 0.14543244
2711.5066 51.629562 164.06548 0.98524386 0.056206461 -0.16166446 0.10644747
2748.0432 -60.241383 119.54066 0.76193476 0.55401343 -0.3354468 0.15369593
2763.6104 -93.671509 121.42199 0.97849363 0.19495019 0.067413904 0.17038976
2710.1255 37.069988 161.74159 0.99635136 0.022311486 -0.082378067 0.11977167
2767.8396 -123.6081 123.26836 0.96480089 0.11369155 -0.23713584 0.10822733
2743.0247 -45.991528 119.98128 0.76890707 0.26362285 -0.58248168 0.15564072
2760.0229 -78.940598 120.14169 0.96639305 0.23510034 0.1039824 0.18825963
2764.5669 -106.72506 121.5784 0.95208484 0.16706136 -0.25617373 0.16292956
2738.4187 -30.042784 116.4737 -0.6915006 0.012231875 0.72227228 0.13283278
2739.562 -15.002998 119.34324 0.78701955 0.0053891828 -0.6169045 0.16007319
2731.459 -1.6891217 118.60567 0.96659285 0.24960534 0.05827073 0.2047037
2726.8943 12.439503 115.20466 0.88563848 0.22635461 0.4054727 0.19381769
2712.8174 64.339973 161.32491 0.92765802 -0.36195564 -0.0918625 0.075483553
2737.3076 93.229073 205.64101 0.83831328 -0.49422958 -0.23014775 0.087851807
2749.5908 107.24722 206.52638 0.68005133 -0.72254795 -0.12431657 0.054638248
2729.7346 79.604141 206.38991 0.86943865 -0.41509748 -0.26790026 0.080013685
2761.7183 29.268084 60.501102 0.62926108 -0.6412943 0.43905827 0.069491133
2749.6316 14.91583 61.110168 0.72462881 -0.48148769 0.49303415 0.11443843
2760.3167 21.325823 102.85316 0.4122417 -0.83732235 -0.35909334 0.14189099
2740.7312 1.4905981 60.355877 0.76202965 -0.53083253 0.3708472 0.13921596
2780.5891 46.343773 58.066784 0.62159538 -0.6042968 0.49844214 0.064177543
2752.8796 -62.778149 102.26243 0.71212363 0.67231345 0.20217438 0.21499088
2730.1113 9.4193039 106.08685 0.93252534 -0.066759825 0.35487971 0.18032934
2731.2305 -2.2381163 103.3908 0.99011505 -0.072979726 0.11977553 0.15891783
2729.4995 -16.443813 102.12599 0.96293789 -0.1221206 -0.24049351 0.14650345
2729.6641 -41.605156 101.04281 0.9406926 0.19689627 -0.27627751 0.16339964
2726.6008 -29.350054 100.10719 0.9839108 -0.032490302 -0.17568141 0.1381249
2735.9143 -48.479385 112.59272 0.75876862 0.32337493 -0.5654192 0.14907794
2757.9448 -90.683189 114.68982 0.88976598 0.16870706 -0.42409247 0.171937
2767.3828 -120.50744 120.87061 0.96911943 0.064559497 -0.23799072 0.11714
2729.6497 -36.175846 109.15067 0.81348848 0.069478348 -0.577416 0.13893071
2758.1575 -79.357307 117.97522 0.92030972 0.39025325 0.027063055 0.20419368
2749.8347 -64.372459 117.68403 0.76501936 0.57520711 -0.28962418 0.16027631
2763.8899 -106.01398 119.03059 0.95634359 0.12154888 -0.26576823 0.17613937
2769.7324 42.8325 70.880157 0.62296247 -0.68977094 0.36896315 0.061651003
2731.8167 -23.113035 111.61456 0.784603 -0.013010321 -0.61986196 0.14117229
2730.1624 -9.9920483 115.11326 0.99415028 0.0009685012 -0.1080013 0.19118498
2727.6326 2.9422853 116.89545 0.95102555 0.14938597 0.2706182 0.19938646
2812.866 29.370312 26.3799 0.35809088 -0.43271166 0.82736421 0.060498886
2814.8579 41.038017 31.086111 0.34988037 -0.39229032 0.85070091 0.043029096
2749.2373 22.830488 74.098984 0.77058983 -0.55036521 0.32138678 0.11411587
2729.8601 -29.972517 104.36577 0.94639915 0.013983086 -0.32269669 0.15920682
2770.1443 -105.64295 148.2153 0.91746509 0.17427297 -0.35761249 0.085625485
2785.2202 -148.89046 151.90691 0.83739501 0.41651952 -0.35395071 0.062981553
2761.3711 -74.716576 103.80239 0.72034597 0.53925687 0.4362382 0.2480682
2749.7559 -61.005196 104.95605 0.71397173 0.66140342 0.22976041 0.19405171
2757.293 -63.494991 148.84181 0.86627531 0.3959069 -0.30467162 0.081019357
2764.2593 -78.61898 149.59108 0.91401762 0.27654788 -0.29680479 0.095944941
2728.8589 -42.250801 101.80438 0.90726107 0.2019352 -0.36891669 0.15304661
2730.3733 -17.041386 104.91876 0.97145694 -0.10767736 -0.21136931 0.1471007
2755.8264 -86.064819 106.77228 0.83446842 0.046091661 -0.54912472 0.2334033
2768.1802 -91.683029 149.20033 0.88229156 0.27797526 -0.37985709 0.096104443
2775.5989 -131.11021 147.64526 0.88905621 0.2987819 -0.34685507 0.06548208
2708.8494 19.077749 145.91539 0.98777151 0.1382107 -0.072147384 0.15022478
2775.7734 43.275646 60.114243 0.61982018 -0.64459074 0.44757757 0.059639104
2734.9602 9.4876938 104.38827 0.93368757 -0.22322409 0.27999747 0.20905618
2763.1223 29.793196 59.722889 0.64894629 -0.61972767 0.44136876 0.075997822
2753.9744 17.072681 57.833275 0.71028578 -0.48658064 0.50865835 0.11450972
2731.7388 -3.0405369 104.98965 0.99840045 -0.054781456 -0.013984357 0.17191373
2741.1624 1.5835826 59.593609 0.76236957 -0.53106308 0.36981705 0.14085449
2769.0696 -88.694855 152.94391 0.85809314 0.27519047 -0.43352783 0.084287897
2772.3 -106.28374 156.45168 0.95413357 0.15925305 -0.25351056 0.076671638
2709.3215 48.934551 153.13315 0.97692132 0.09423025 -0.19169085 0.12014721
2709.8296 33.572296 152.4584 0.99341029 0.083245113 -0.078780018 0.13365078
2732.5564 88.226845 201.14442 0.8551085 -0.43734115 -0.27842796 0.086672507
2724.9438 71.995461 201.67416 0.86325282 -0.41794437 -0.28304952 0.093009636
2711.9678 18.081213 152.68852 0.98268545 0.17804055 -0.051291499 0.15224567
2741.3289 100.56508 200.98544 0.77047729 -0.61135745 -0.18057355 0.074664943
