# .PCD v0.7 - Point Cloud Data file format
VERSION 0.7
FIELDS x y z normal_x normal_y normal_z curvature
SIZE 4 4 4 4 4 4 4
TYPE F F F F F F F
COUNT 1 1 1 1 1 1 1
WIDTH 615
HEIGHT 1
VIEWPOINT 0 0 0 1 0 0 0
POINTS 615
DATA ascii
2601.1868 -892.08685 -265.06311 0.86712676 -0.40297112 -0.29275486 0.07408192
2623.3401 -798.16553 -265.66983 -0.44219521 0.21518444 0.87072331 0.072734594
2616.0886 -880.95386 -220.0043 0.88601667 0.46164441 -0.04311515 0.067972682
2590.6025 -847.60138 -353.38226 0.72351557 0.63145679 0.27890414 0.034757055
2582.9868 -920.60773 -262.04739 0.84865659 -0.51141655 0.13503727 0.082233064
2625.5415 -896.52924 -222.23758 0.69295466 0.67910123 -0.24214739 0.093030691
2592.3696 -932.40302 -309.4935 0.99253082 0.093022682 0.078926399 0.073315002
2607.9326 -877.65308 -264.46481 0.85842603 -0.27900082 -0.43042225 0.054289412
2610.7307 -973.03613 -312.25955 0.79286104 0.57021958 0.2149906 0.081855163
2593.2805 -905.8797 -264.09799 0.8226096 -0.5651111 -0.062951379 0.063423946
2636.3391 -873.42389 -403.96106 -0.64412451 -0.70940274 -0.28609681 0.056093864
2616.2209 -833.06311 -219.47374 0.80526388 -0.58435506 0.1003953 0.077776946
2571.1235 -810.64948 -308.53555 0.9204517 -0.2131359 -0.32763046 0.13105476
2645.1221 -807.16345 -222.00887 0.59746909 -0.80071384 -0.043451544 0.11411407
2591.542 -917.19556 -311.16913 0.99486691 -0.076540172 -0.066192806 0.072649442
2615.3818 -829.9776 -264.00366 -0.52709985 0.019099539 0.84958869 0.068554513
2609.9275 -846.02313 -218.57179 0.96236175 -0.25070009 0.10492501 0.076132283
2608.0417 -858.0705 -218.78777 0.99304485 0.11478276 0.026208485 0.064365432
2607.998 -810.9892 -270.91425 -0.52229339 0.20786999 0.82704276 0.054840975
2569.7288 -825.15985 -307.48193 0.97633266 -0.023189856 -0.21502745 0.099320658
2612.5195 -884.24854 -240.59976 0.9458338 -0.28654325 -0.15261526 0.11891207
2597.1001 -892.74841 -283.83972 0.94920379 -0.26538917 -0.16905843 0.075873159
2601.5193 -852.71521 -277.0162 -0.62164426 -0.16452943 0.76582533 0.070945926
2597.2109 -876.30359 -284.76672 0.87314248 -0.082550488 -0.48042446 0.071463563
2584.967 -856.5589 -326.53229 0.80106497 0.43344596 0.41281894 0.063781053
2613.7573 -854.10571 -240.34258 0.93512207 -0.056248289 0.34983262 0.094570242
2620.6077 -885.11029 -194.36002 0.82053334 0.56916595 -0.05268044 0.056211118
2642.2551 -817.31165 -243.5923 0.63417715 -0.58609933 0.50428855 0.10429394
2584.6753 -827.35034 -285.05634 -0.67006981 0.063870452 0.73954517 0.052018479
2597.5173 -802.38708 -283.52365 -0.62194133 0.46549666 0.62968391 0.053595137
2633.0396 -880.59399 -378.19888 0.72363228 0.61013144 0.32263908 0.051878043
2634.8838 -818.30121 -195.84402 0.54751724 -0.83328915 -0.076512158 0.070667408
2569.3108 -817.51331 -321.27151 0.99050069 0.076385029 0.1143401 0.15939121
2656.6643 -806.36682 -244.41692 0.40482271 -0.76369369 0.50288218 0.1517539
2618.7703 -840.37769 -240.64265 0.82888758 -0.40634695 0.38448352 0.11309205
2612.386 -868.21771 -239.15704 0.96849769 -0.06227909 0.24110894 0.10432459
2620.5125 -830.4964 -194.07198 0.71472067 -0.69217074 -0.10036945 0.10002126
2605.9312 -896.31653 -239.70499 0.82057077 -0.52474642 -0.22650567 0.091943815
2611.2644 -842.65625 -194.10129 0.94446361 -0.3035593 -0.12585811 0.10316195
2612.7461 -870.7196 -194.32121 0.94315457 0.32236564 -0.080869503 0.086328767
2590.0378 -814.52448 -283.12823 -0.64054215 0.32371691 0.69635701 0.057131525
2616.5535 -864.43011 -377.8071 -0.67696959 -0.69715887 -0.23596975 0.057546865
2609.6006 -856.12262 -193.56198 0.9874782 -0.033637375 -0.15412749 0.10050005
2574.7461 -836.74146 -323.71356 0.88824862 0.30777106 0.34101525 0.084417619
2626.7759 -828.51764 -240.59035 0.76159805 -0.50816464 0.4021655 0.1400011
2585.9949 -935.38257 -284.20288 0.91194952 -0.18735994 0.36502653 0.10275102
2604.1348 -951.36786 -327.43732 0.81121594 0.42237201 0.4043892 0.058202326
2593.937 -906.96173 -284.0939 0.96862334 -0.24752277 0.022389766 0.080935277
2652.7717 -914.44055 -197.11905 -0.56873989 -0.82162917 0.038215615 0.039859194
2590.0823 -921.53564 -286.07364 0.92629808 -0.28830338 0.24259646 0.07832519
2635.3315 -816.24097 -253.7307 -0.59697014 -0.030816717 0.80167139 0.1445871
2608.8896 -861.45428 -210.08098 0.99009085 0.13890734 -0.020612912 0.063075237
2622.9636 -838.54889 -258.07797 0.71051502 -0.30923554 -0.63209319 0.15779158
2613.1426 -837.26086 -211.21722 0.85855901 -0.50527114 -0.087048709 0.075171597
2631.8271 -827.86627 -255.16608 -0.53847748 0.19240326 0.82037979 0.12712689
2630.6536 -799.93134 -258.4884 -0.55730641 0.11049031 0.82292253 0.12439249
2634.5415 -815.34613 -212.50015 0.64505291 -0.73146248 -0.22106421 0.072800308
2616.2126 -864.02124 -255.85599 0.87720895 -0.25573358 -0.40633094 0.071144931
2620.5378 -851.45624 -256.96072 0.80430871 -0.35865191 -0.47376814 0.11707167
2623.6689 -825.41315 -211.49881 0.66259265 -0.73530626 -0.14246282 0.066745929
2609.0474 -849.22382 -211.05777 0.97649741 -0.20868938 -0.053866185 0.083166182
2572.1504 -833.08026 -318.88644 0.94445312 0.20929097 0.25338826 0.097158544
2637.3911 -813.59668 -231.03275 0.65329069 -0.7094838 0.2642802 0.11322603
2598.4253 -889.12878 -280.10825 0.92986023 -0.2816644 -0.23669635 0.078120857
2614.7119 -843.34204 -230.09291 0.83707952 -0.34321955 0.42602602 0.07244423
2594.7163 -877.45636 -323.95544 0.7274974 0.4134115 0.54757506 0.054793496
2614.823 -880.69604 -235.52142 0.99405676 -0.058369417 -0.091892324 0.1286553
2595.6038 -814.01776 -278.91614 -0.56126875 0.31425315 0.76565158 0.059732169
2592.3589 -905.96771 -280.77264 0.93797624 -0.34440798 0.039795198 0.095114082
2649.3105 -914.24939 -239.72231 -0.63622713 -0.76869971 0.065694749 0.033939589
2628.5835 -785.10419 -274.55069 0.51046616 -0.68313622 -0.52225399 0.045525175
2646.1926 -802.9173 -231.71677 0.54818761 -0.83582073 0.029900553 0.13878879
2622.5935 -853.94269 -414.49997 -0.60205436 -0.67977065 -0.41885847 0.16477942
2599.6733 -938.47632 -331.3226 0.89023542 0.2785874 0.36037466 0.07549192
2612.801 -859.0307 -232.83498 0.92327756 -0.01011541 0.38400024 0.071894802
2588.6375 -916.93225 -328.50195 0.97810698 -0.028046081 -0.2062043 0.093515612
2601.915 -853.37408 -275.56583 -0.64613402 -0.11592261 0.75436914 0.059613317
2600.9211 -871.66187 -278.61987 0.82556969 -0.13427851 -0.54809117 0.06917391
2615.6731 -865.37769 -373.55545 -0.66616857 -0.69169736 -0.27888018 0.060255334
2569.6177 -814.00391 -317.44189 0.99123359 -0.11547641 0.064196095 0.1599849
2622.7935 -828.64832 -229.57384 0.73812383 -0.56178653 0.37358949 0.083286807
2596.6733 -831.90137 -277.10382 -0.51929384 -0.07603737 0.8512063 0.038934991
2575.7356 -847.98297 -317.29538 0.84779114 0.38985276 0.35953441 0.072661459
2624.3455 -966.7821 -335.16971 0.52196717 0.47252545 0.71011966 0.061427709
2641.8979 -808.08472 -234.77118 0.65755457 -0.69991559 0.27881932 0.16431966
2590.8743 -925.82874 -324.44626 0.99759126 0.024854429 -0.064760707 0.086545959
2606.5991 -960.36609 -322.84344 0.75830495 0.49215123 0.42750528 0.048870638
2584.6272 -926.31433 -275.86594 0.90326774 -0.31543759 0.29087204 0.099024653
2573.3357 -839.04071 -318.39343 0.90332478 0.33170444 0.27198616 0.08096835
2594.0078 -833.99872 -279.01221 -0.53091902 -0.088664882 0.84277135 0.04185459
2589.885 -912.05878 -324.13565 0.98633236 -0.065506928 -0.15118651 0.10302793
2633.1685 -854.73627 -419.53717 0.51731992 0.55946213 0.64759731 0.14958203
2600.0923 -883.96985 -279.52713 0.90850735 -0.23949583 -0.34242681 0.066947699
2598.0891 -944.84521 -324.23529 0.91247588 0.34112009 0.22588675 0.066697694
2596.8381 -851.03442 -278.7887 -0.60337925 -0.1283161 0.78706318 0.053810358
2627.8831 -821.25354 -233.68648 0.73898369 -0.64372867 0.1987877 0.1196757
2622.2681 -871.71576 -372.38895 0.66839087 0.65355855 0.35512659 0.044694461
2627.7292 -899.31763 -235.69803 -0.68491203 -0.71021247 0.16276896 0.14050451
2599.7568 -804.47546 -279.91977 -0.5901621 0.37071812 0.71713096 0.059423458
2620.7122 -833.44006 -231.33224 0.73452079 -0.5362373 0.41584709 0.073227011
2569.2915 -821.50024 -318.16263 0.99315459 0.059861932 0.10030188 0.14339468
2596.2795 -818.71375 -277.86768 -0.5250001 0.20858495 0.82514679 0.059094545
2610.3511 -845.59827 -228.85605 0.87794459 -0.35564891 0.32051075 0.079955891
2599.175 -868.0083 -280.13235 0.79721791 -0.037878916 -0.60250211 0.070619553
2632.6484 -820.44031 -190.98825 0.53170973 -0.84674031 -0.017765913 0.088447377
2589.3435 -912.90295 -276.91562 0.89958531 -0.42080545 0.11691477 0.083191194
2611.8298 -845.68237 -188.86693 0.95931315 -0.26041394 -0.10910018 0.11522539
2620.2654 -831.37585 -189.88071 0.72904819 -0.68262351 -0.050139338 0.11516828
2579.4978 -854.83441 -317.93442 0.82762843 0.40320098 0.39046142 0.068208918
2611.3835 -860.75928 -189.25114 0.96981227 0.16874662 -0.176036 0.098046951
2611.2542 -857.46582 -230.62706 0.9240368 0.059800491 0.37759751 0.068932898
2611.3972 -873.89404 -233.33981 0.99241352 0.01948729 0.12139054 0.10493419
2595.5947 -898.21094 -279.47113 0.94044852 -0.31680259 -0.12325875 0.085336998
2608.3347 -855.16705 -390.06595 -0.49157956 -0.85987777 -0.13769428 0.084756486
2620.8733 -830.6955 -182.54068 0.7225455 -0.67782205 -0.13596049 0.12755604
2608.7056 -820.09509 -270.36899 -0.45721084 0.061640419 0.88721967 0.041607771
2613.0332 -840.00452 -224.04161 0.87589127 -0.43531105 0.20813178 0.08044342
2614.9421 -842.16779 -181.98627 0.88738757 -0.35221833 -0.29746521 0.12666908
2613.2141 -855.58984 -180.91626 0.95621341 -0.1035951 -0.27372241 0.12498293
2570.7622 -833.08569 -311.02914 0.98204523 0.18854973 -0.006009256 0.096757039
2610.5889 -852.39777 -224.18684 0.96962911 -0.10747573 0.21970074 0.085247211
2618.3706 -795.25751 -270.85699 -0.5214864 0.4784382 0.70650464 0.061629567
2651.5498 -799.82715 -224.98045 0.38967407 -0.85923237 0.33147225 0.10629178
2620.6965 -829.09015 -225.34138 0.77602732 -0.60154223 0.18954809 0.083591834
2614.8928 -836.47406 -265.42389 -0.55921364 0.094659567 0.82360166 0.072759233
2574.0569 -845.2049 -310.52045 0.92787856 0.36751261 0.063054025 0.098213851
2609.9612 -848.9549 -267.95288 -0.70396256 0.030563427 0.70957911 0.074226186
2639.3782 -809.30237 -226.56158 0.64822668 -0.75961173 0.052841567 0.10812963
2631.1606 -818.08124 -226.68436 0.71626282 -0.68994123 0.10463614 0.10779717
2646.3442 -813.32172 -183.53966 0.34687594 -0.93543416 0.068117552 0.11177836
2568.4106 -816.95343 -311.59897 0.98585868 0.0048813643 -0.16750786 0.1324687
2608.9707 -805.42407 -272.30109 -0.54832292 0.26285055 0.79388386 0.060934719
2631.4231 -820.98737 -182.83298 0.5190053 -0.85402209 0.035774413 0.10470657
2610.4971 -864.0246 -267.15872 0.83187199 -0.1801984 -0.52489763 0.054227728
2572.3477 -812.06781 -310.3295 0.78837997 -0.61467612 -0.025104921 0.15896337
2607.3953 -876.86383 -267.21045 0.86200905 -0.27168861 -0.42793187 0.053998291
2595.3169 -943.36255 -314.73151 0.95820922 0.26363903 0.11103872 0.07779067
2587.6399 -914.35413 -266.53262 0.8573252 -0.50984877 0.071047224 0.076529637
2591.4583 -914.81604 -314.62616 0.99315101 -0.051591244 -0.10483016 0.066672415
2592.2046 -926.95514 -313.49023 0.99748683 0.0062104561 0.070579834 0.072283849
2593.478 -875.34924 -316.18515 0.86433053 0.44902182 0.22652192 0.10851019
2609.8442 -862.32703 -223.75676 0.97333449 0.18411861 0.13682218 0.064392664
2616.5186 -884.22369 -225.93484 0.9001568 0.41818818 -0.12180449 0.10148414
2591.9966 -900.94043 -314.62186 0.99197513 -0.019667106 -0.12489411 0.061749026
2601.5527 -889.53058 -267.85645 0.87986588 -0.37503219 -0.29186788 0.071215957
2609.1152 -972.17114 -314.38785 0.79695374 0.49898049 0.34041625 0.063154906
2595.428 -901.68365 -267.95374 0.87290055 -0.48275948 -0.07062532 0.073489167
2600.3933 -956.4657 -314.43732 0.8754577 0.41137585 0.25366062 0.051040202
2639.5427 -881.19983 -391.49506 0.74673039 0.61484617 0.25368869 0.052608196
2571.6582 -820.60992 -326.6214 0.94322729 0.038096573 0.32995591 0.13991767
2583.1511 -832.98956 -288.14474 0.72131646 0.049718902 -0.69081879 0.076287568
2588.4915 -813.73944 -285.38861 -0.65427065 0.32875606 0.6810649 0.058585342
2591.9849 -858.45837 -287.69351 0.74327612 0.26997173 -0.61209142 0.086559489
2584.239 -848.87018 -334.88455 0.80893636 0.43935633 0.39062509 0.063278742
2600.5322 -797.73901 -285.64719 0.62163538 -0.53409857 -0.57298183 0.063210122
2594.9927 -876.99963 -291.99719 0.93386173 -0.043382693 -0.35499319 0.085832447
2591.6848 -917.78137 -295.14194 0.98092151 -0.16305602 0.10585722 0.07347279
2590.1948 -936.89117 -295.46582 0.97051263 0.048129555 0.23619653 0.08967267
2594.8267 -898.77557 -293.51328 0.99185377 -0.053338706 -0.11567676 0.072935008
2611.4836 -880.88544 -341.55072 0.71773529 0.53778517 0.44231573 0.0478696
2618.2087 -858.05298 -401.13763 -0.5596751 -0.79084003 -0.24766064 0.105011
2629.1086 -819.16943 -221.02338 0.6879617 -0.72560191 -0.014508273 0.091671273
2611.7771 -843.28192 -219.89169 0.93208116 -0.33816051 0.12989295 0.087775052
2603.8984 -862.24939 -354.04041 0.68910861 0.63545603 0.34831735 0.033371318
2624.9678 -830.55243 -260.1059 -0.55337071 0.1986625 0.80889684 0.11693057
2620.4614 -850.84937 -173.59146 0.77767175 -0.21745776 -0.5898633 0.13519299
2608.4006 -854.97821 -218.77234 0.99910456 0.0040356833 0.042116404 0.074916922
2613.877 -841.97919 -264.85931 -0.65449935 0.11075862 0.74790579 0.094974957
2591.9846 -907.97058 -306.76236 0.99301469 -0.014484002 -0.11709815 0.064976089
2649.5251 -809.99829 -176.77591 0.43927482 -0.88773441 0.13771453 0.113157
2630.9304 -786.93494 -266.65594 -0.43949267 0.44161594 0.78219026 0.062362935
2611.9495 -871.02356 -219.88129 0.94863188 0.31406927 0.03818424 0.063074604
2572.8586 -838.10297 -303.9248 0.94852489 0.22050504 -0.22732797 0.091870032
2616.751 -831.41656 -219.66821 0.79227597 -0.60844845 0.04570885 0.071062461
2600.6836 -896.45709 -262.56931 0.83806652 -0.52037299 -0.16387951 0.059812874
2622.5295 -799.2431 -265.9834 -0.46322298 0.21268426 0.86034292 0.073372439
2623.2524 -836.44861 -175.69618 0.71053445 -0.45698151 -0.53507823 0.16839646
2640.0447 -809.63416 -222.33563 0.64059991 -0.76462084 -0.070616357 0.10170043
2571.2898 -823.36035 -303.95117 0.93630266 -0.063784473 -0.34535319 0.098951019
2579.1816 -834.05042 -347.11838 0.81922078 0.49560344 0.2885386 0.061540116
2606.3948 -884.45135 -262.55298 0.86205935 -0.37030709 -0.34601495 0.05711231
2576.1814 -811.44666 -303.62289 0.83892339 -0.31715879 -0.44228706 0.13781489
2617.1189 -812.28357 -266.13077 -0.46169594 0.11702194 0.87928534 0.061807368
2614.3423 -857.28064 -263.39465 0.83389044 -0.22569397 -0.50367546 0.071581736
2574.6501 -848.75531 -304.68762 0.91903609 0.36628455 -0.1456306 0.10164428
2629.6357 -822.28717 -175.09627 0.62242228 -0.7814483 0.043920822 0.14461078
2654.4839 -799.44086 -222.345 0.48417926 -0.86560386 0.12767313 0.13587308
2611.0195 -871.44293 -262.59457 0.86678028 -0.27098745 -0.4186379 0.053678684
2630.7051 -898.45734 -221.67227 -0.67930961 -0.72741091 0.097014517 0.04650861
2593.6162 -939.40344 -307.10165 0.98510599 0.16673619 0.042014323 0.07309638
2600.8169 -958.52991 -308.5162 0.89182121 0.42864788 0.14462352 0.055216886
2592.0439 -922.96075 -306.98047 0.99895006 -0.041019451 -0.020400226 0.062485352
2605.658 -967.90137 -307.05856 0.82105309 0.54619855 0.16594885 0.071666636
2581.7551 -922.15448 -261.57825 0.81911123 -0.53880858 0.19683029 0.087278411
2591.6499 -909.41406 -263.10736 0.82832634 -0.55896652 0.037840966 0.06793458
2607.1499 -855.70312 -383.56277 -0.44286433 -0.88641107 -0.13470922 0.067861661
2644.7073 -887.20367 -390.91122 0.69309747 0.66614062 0.27544975 0.043878641
2572.4431 -836.36481 -315.47165 0.94729751 0.24629332 0.20485854 0.097876266
2620.9797 -829.80023 -227.68633 0.74572462 -0.56908184 0.34646878 0.088109851
2616.1758 -890.27441 -230.507 0.95534694 0.14372386 -0.25817749 0.1272819
2613.6199 -870.22504 -184.94231 0.94161022 0.29739344 -0.15788402 0.11154327
2623.5176 -828.48285 -184.93694 0.6794517 -0.72832382 -0.0888246 0.11906588
2592.9216 -907.91449 -275.39688 0.88702559 -0.45357972 0.086319245 0.07843028
2637.6704 -817.39545 -186.02982 0.47824258 -0.87716192 0.043254998 0.087934524
2613.2017 -872.95728 -229.97163 0.96917152 0.20528181 0.13625671 0.097111166
2597.979 -895.22614 -274.94287 0.92483616 -0.32674465 -0.19472046 0.082671985
2630.8167 -886.10406 -369.11215 0.76778281 0.43575609 0.46970865 0.042758156
2577.6338 -851.58643 -315.46127 0.85077465 0.44313419 0.28251484 0.082335882
2585.5415 -923.03894 -273.29181 0.89631158 -0.36639965 0.2497537 0.087157361
2599.5352 -815.5672 -276.19495 -0.5607115 0.20715699 0.8016786 0.060874242
2622.7939 -853.60101 -416.89615 -0.61883605 -0.69504929 -0.36598963 0.18523459
2604.7292 -865.62146 -274.32126 0.79699934 -0.13284825 -0.58918875 0.061638955
2613.9734 -842.39685 -185.19803 0.91000456 -0.37097338 -0.18512282 0.12189517
2634.2686 -816.30847 -230.51289 0.67244512 -0.69364256 0.25822008 0.10777186
2646.2202 -806.0249 -230.93591 0.56925362 -0.77557361 0.27282932 0.12471042
2620.1946 -789.32782 -273.66141 -0.53182554 0.49256665 0.6888684 0.065525368
2596.5359 -829.90332 -276.67825 -0.49724051 -0.031291839 0.86704826 0.038180612
2568.7944 -818.05713 -315.07861 0.99992228 -0.0073276088 -0.010084509 0.14442503
2612.9441 -865.03302 -366.57202 0.66661471 0.65210253 0.36109158 0.04195584
2613.4453 -841.47546 -227.29915 0.87563837 -0.39806116 0.2735047 0.086066999
2601.519 -880.11731 -276.24234 0.88765675 -0.20064268 -0.41449732 0.066983461
2611.946 -855.07288 -227.69286 0.94912571 -0.017532146 0.31440896 0.078759998
2611.1128 -856.12347 -184.44469 0.97696555 -0.057084415 -0.20562029 0.11681937
2604.5764 -958.61255 -320.83676 0.81818485 0.44059011 0.36939672 0.056998089
2593.5132 -935.16827 -317.58502 0.97165382 0.1870895 0.14452116 0.085446946
2579.429 -936.31207 -271.14771 0.88992542 -0.26363993 0.37219182 0.11933109
2578.0112 -831.76526 -293.18256 0.78255612 0.04580012 -0.62089306 0.073464908
2612.9106 -871.22998 -249.05128 0.96811306 -0.24450694 -0.054529436 0.10307935
2626.5071 -823.3916 -201.91776 0.62599647 -0.77279663 -0.104469 0.06945049
2614.2417 -858.90002 -385.94046 -0.53246337 -0.83590007 -0.13324362 0.070664763
2584.3013 -848.27899 -336.32855 0.79727954 0.44171685 0.41137761 0.053045247
2613.3433 -980.43011 -305.1272 0.8257525 0.54088193 0.1599361 0.1178848
2592.1145 -912.23645 -296.10553 0.9777593 -0.16992585 0.12293077 0.08704184
2597.8083 -953.6731 -301.98886 0.92700261 0.37483677 0.012789276 0.049974967
2571.9912 -822.07947 -329.67474 0.91964066 0.19643177 0.34011126 0.14830191
2589.9778 -801.54797 -292.14584 -0.59254867 0.50699848 0.62597013 0.059344273
2619.1865 -853.88776 -249.31206 0.92506248 -0.36569491 0.10259958 0.14307523
2595.377 -904.84235 -250.53903 0.75942796 -0.63919866 -0.12121981 0.048763309
2591.5159 -932.00366 -298.91293 0.98603058 -0.0069535328 0.16641909 0.080873646
2638.8953 -880.8949 -390.37744 0.75103515 0.60836333 0.25659356 0.050787378
2594.0439 -893.50208 -296.53052 0.99277669 -0.082467921 -0.087140806 0.079751655
2582.011 -816.38403 -290.95474 0.70076156 -0.26623559 -0.66185486 0.066107817
2651.0186 -806.34271 -249.33043 0.80138218 -0.53485924 0.26779127 0.19267255
2621.1648 -886.14905 -205.20761 0.83272749 0.54724097 -0.08421541 0.042402282
2612.9226 -838.95667 -202.19247 0.89170164 -0.44373226 -0.089273952 0.088239513
2627.9363 -837.51581 -250.43336 0.81700855 -0.49945021 0.28817791 0.17184936
2584.7617 -916.95056 -251.00388 0.76290828 -0.64650232 0.0023863437 0.066356502
2609.269 -855.96954 -202.82611 0.99483937 -0.017499307 -0.099941939 0.082216017
2643.6785 -822.93842 -251.257 0.60482091 -0.53707755 0.58799607 0.11259496
2606.6511 -888.47858 -250.58603 0.85752994 -0.47823846 -0.18955305 0.068518944
2585.1501 -853.92639 -293.1149 0.73982179 0.36280721 -0.56659919 0.066094659
2640.4143 -880.7218 -398.48605 -0.62654859 -0.74917305 -0.21488748 0.042343348
2604.668 -853.54065 -393.88776 -0.41517365 -0.90706325 -0.06976448 0.097958207
2603.6057 -854.67743 -375.16705 -0.49208137 -0.84523052 -0.20842564 0.061012588
2643.0579 -888.87543 -382.34546 0.70750785 0.65737271 0.25941035 0.050096974
2628.9756 -858.66467 -418.55902 0.68857664 0.6577161 0.30540425 0.15892245
2618.2874 -869.67511 -368.38278 0.67638069 0.64072126 0.36329794 0.046004198
2571.637 -834.30682 -308.34637 0.97804683 0.18640532 -0.093152814 0.10500442
2602.4377 -813.35907 -274.14011 -0.54001445 0.23427695 0.8083927 0.059113186
2607.5381 -849.02789 -269.66806 -0.67781001 0.012294125 0.7351343 0.07596717
2616.2773 -855.68549 -405.52856 -0.51089048 -0.82847714 -0.22938301 0.12278537
2569.4954 -816.29932 -308.9147 0.97495389 -0.034351248 -0.21973836 0.13252409
2613.738 -799.82703 -271.18225 -0.51445669 0.34328333 0.78580588 0.062769517
2630.6492 -785.63232 -268.4733 -0.47938648 0.50236535 0.71959549 0.064808011
2605.3386 -829.77826 -271.28085 -0.47894448 -0.04540626 0.87667012 0.036194775
2610.321 -864.69708 -362.0202 -0.64673942 -0.65368426 -0.39296946 0.040998306
2587.3516 -914.76599 -265.49197 0.83986902 -0.53385878 0.098055243 0.07299953
2600.7068 -955.01489 -315.62677 0.88715422 0.39263356 0.2424795 0.063365757
2592.4617 -930.65967 -312.70038 0.99487573 0.075887904 0.066808239 0.069158599
2579.2017 -928.64136 -265.008 0.85786587 -0.43979129 0.26580024 0.10327975
2604.7583 -864.17798 -272.78476 0.79580384 -0.12083142 -0.59337682 0.074171789
2574.8372 -848.03107 -308.8252 0.91207427 0.40962791 0.018041801 0.10095892
2597.4036 -898.51868 -267.57629 0.85998803 -0.49063867 -0.14033632 0.071114808
2603.5276 -883.65326 -268.64029 0.8579492 -0.36687976 -0.35961431 0.066534959
2620.6082 -829.29346 -181.58798 0.63423932 -0.67947072 -0.36886317 0.14571013
2629.26 -898.74908 -227.84692 -0.69550276 -0.70397335 0.14386605 0.089694656
2614.5022 -836.1358 -184.38419 0.786044 -0.32290059 -0.52713376 0.14667436
2609.6758 -844.55115 -221.71945 0.94990528 -0.2793242 0.14020674 0.075954206
2642.6204 -801.98334 -227.52419 0.50187087 -0.75680649 -0.41877145 0.10877074
2610.8821 -871.82068 -224.78133 0.96349156 0.26640096 0.026729869 0.072367176
2667.3499 -792.94104 -220.86916 0.17456478 -0.8975625 0.40485635 0.11858625
2631.2368 -813.05157 -224.90674 0.65482336 -0.71958846 -0.23108186 0.081424035
2609.2063 -857.33319 -222.69101 0.98435217 0.079985693 0.15701304 0.083018854
2616.2756 -862.65002 -181.101 0.84185976 0.21542524 -0.49483749 0.12441675
2623.8552 -822.80249 -222.44633 0.70870459 -0.70231539 0.067013785 0.077141233
2611.2251 -846.1698 -185.07208 0.85114598 -0.07528498 -0.51950234 0.13208595
2615.7185 -833.99042 -222.07756 0.81298727 -0.56732094 0.13114356 0.078262851
2616.7808 -857.42798 -402.21222 -0.25222132 -0.95781279 -0.13776459 0.12496221
2639.2749 -875.72455 -404.88553 -0.67768395 -0.67904395 -0.28221235 0.052699614
2609.3069 -860.35297 -198.53152 0.98777896 0.12043706 -0.098932698 0.07964725
2620.6729 -885.21619 -200.7614 0.83078194 0.55339998 -0.059580397 0.046368927
2640.6174 -813.48242 -198.39433 0.54113477 -0.83052319 -0.13192575 0.07991223
2609.0513 -846.30762 -197.67123 0.96651089 -0.24641302 -0.071675375 0.087346986
2620.5374 -826.8808 -197.55829 0.64633626 -0.76154941 -0.047874227 0.08057896
2613.3096 -836.24554 -197.38657 0.84495646 -0.53338867 -0.039307803 0.096755199
2637.5156 -787.53345 -262.92209 -0.38128087 0.3672055 0.84840143 0.068908632
2618.4312 -858.46912 -400.50131 -0.52858031 -0.83191007 -0.16890378 0.095216416
2592.6252 -935.67169 -307.80484 0.98958129 0.12376097 0.073566705 0.078138955
2572.2852 -812.42712 -305.46075 0.91103727 -0.20685865 -0.35667992 0.11968724
2613.9321 -813.63068 -266.65994 -0.52911574 0.11380243 0.84088379 0.077713519
2601.4714 -894.10162 -261.5441 0.83494931 -0.49075297 -0.2490404 0.060830221
2640.8826 -809.17578 -219.53769 0.64318472 -0.74334908 -0.1836998 0.095107295
2592.0718 -920.91241 -308.96512 0.99880731 -0.045357332 -0.018074676 0.064923421
2608.3228 -859.9856 -215.78458 0.99012023 0.13716199 0.029128356 0.061812416
2617.8972 -884.06152 -217.9929 0.85661244 0.51255637 -0.059169963 0.062601238
2587.0989 -867.23834 -307.00516 0.8218776 0.56965101 -0.0038666283 0.09560208
2624.7749 -834.45831 -259.478 -0.55950558 0.26745448 0.78448808 0.1066765
2644.176 -881.81183 -403.9353 -0.6627748 -0.70811343 -0.24352607 0.048105102
2655.7747 -799.53027 -220.87489 0.44402987 -0.88500565 -0.14000894 0.14590339
2613.6853 -873.6123 -353.90326 0.68983227 0.56799144 0.44890663 0.039723534
2582.5623 -920.37585 -259.8671 0.81577545 -0.54527915 0.19282407 0.083804831
2592.1367 -850.00555 -351.53125 0.71878821 0.6288619 0.2964392 0.032579303
2608.2332 -879.08759 -262.10031 0.86844182 -0.32603684 -0.37350869 0.059009582
2619.3416 -799.99628 -267.58905 -0.49060842 0.29310453 0.82060534 0.065581448
2615.9407 -833.69257 -216.91887 0.80335087 -0.59146136 0.06928841 0.074549519
2598.9292 -955.13483 -308.79129 0.90804529 0.40719271 0.098223761 0.047201909
2616.4172 -848.82635 -262.56387 0.77883202 -0.2320113 -0.58274478 0.11128563
2574.7158 -844.64551 -305.44928 0.93352169 0.34028956 -0.11287263 0.10273933
2591.8564 -908.35187 -261.06812 0.80802673 -0.58839947 -0.029646825 0.060318142
2570.3015 -826.96021 -305.05478 0.9507162 0.0060049053 -0.31000429 0.092508636
2609.739 -847.63483 -216.86214 0.97300917 -0.22550957 0.048975348 0.081579566
2612.0759 -864.01752 -263.03845 0.87385887 -0.20150718 -0.44245398 0.069380082
2628.8325 -819.80945 -217.98059 0.6582548 -0.7489177 -0.076307796 0.087644443
2603.9075 -855.80426 -370.58392 -0.58256733 -0.76763612 -0.26711431 0.048272863
2640.8906 -883.0954 -391.03647 0.73099834 0.63737261 0.24371612 0.046326715
2572.3831 -824.64417 -332.4122 0.90399379 0.36012927 0.23043914 0.11457123
2607.0034 -875.99713 -339.99786 0.69347823 0.57685649 0.43165326 0.042195588
2583.9268 -848.03644 -335.03497 0.82310063 0.40970662 0.39325032 0.066276252
2630.5544 -866.2381 -408.37949 -0.65541267 -0.69365096 -0.2988019 0.07511691
2593.2034 -937.51837 -312.3136 0.97525561 0.20059921 0.092932805 0.072563134
2621.9207 -876.70624 -363.2421 0.70182192 0.57591176 0.41925126 0.043770377
2569.5127 -833.9787 -308.89261 0.97861707 0.18816021 -0.083092585 0.072459757
2568.717 -817.92712 -308.96698 0.98009384 0.0073508117 -0.19839856 0.11442359
2599.3682 -955.72034 -313.21579 0.89201653 0.3970513 0.21600176 0.045145784
2577.5339 -853.93158 -308.56378 0.87876308 0.47453851 0.050879274 0.10213093
2592.0032 -922.93414 -313.96442 0.99929827 -0.03295004 -0.017809981 0.072654113
2634.7952 -813.46167 -232.47243 0.71469772 -0.67358387 0.18839291 0.12094972
2656.9675 -801.52417 -234.83485 0.32868114 -0.85749561 0.39581552 0.135077
2623.3567 -827.38336 -232.63609 0.73237956 -0.59930158 0.3231993 0.096758954
2590.4028 -840.69824 -281.97775 -0.57410759 -0.12350358 0.8094117 0.047131408
2614.394 -876.50903 -238.9044 0.99415493 -0.10597292 -0.020633446 0.1202635
2612.5786 -855.28394 -233.46344 0.90934145 -0.046281956 0.41346842 0.073408909
2618.2566 -956.85925 -337.73108 0.64577168 0.35407972 0.67646617 0.071772426
2603.103 -865.13367 -276.87228 0.77819413 -0.075772576 -0.62343603 0.077449024
2587.1384 -930.30908 -286.32037 0.94411457 -0.13646373 0.3000423 0.085808069
2620.1868 -883.13159 -193.85999 0.84653175 0.52830964 -0.065367319 0.059520721
2596.1672 -808.15204 -280.59497 -0.6067422 0.32253706 0.72652167 0.053677693
2570.4331 -827.98303 -318.86349 0.95288551 0.13036589 0.27388671 0.10116841
2611.3352 -861.46295 -191.56752 0.98538488 0.12447573 -0.11628613 0.11304434
2577.8152 -848.22296 -322.35742 0.84445065 0.39334068 0.36357418 0.068052731
2595.8821 -897.4967 -284.75827 0.96696168 -0.22979268 -0.11036474 0.089823939
2631.0779 -879.0968 -376.4982 0.72188741 0.60491586 0.33608839 0.047890544
2623.1296 -828.14551 -190.0085 0.66466379 -0.74587023 -0.043584459 0.1105899
2615.3418 -840.50751 -230.75034 0.79979849 -0.3820985 0.46295041 0.066722021
2621.4343 -867.70941 -378.17398 -0.66256613 -0.67706543 -0.3202945 0.051845867
2612.2942 -892.60065 -236.84698 0.88263226 -0.34463701 -0.31966493 0.12020311
2591.2817 -914.49615 -286.38196 0.93848485 -0.27518326 0.20861547 0.080376245
2592.8928 -869.15961 -325.02646 0.70969278 0.55705035 0.43131322 0.056927226
2589.6094 -823.46149 -281.05405 -0.60731459 0.17416248 0.77513641 0.05794834
2569.8086 -824.50562 -319.47113 0.85733879 0.48780802 -0.1643579 0.14886966
2612.9592 -842.46582 -190.63472 0.93156111 -0.35369775 -0.084212974 0.11492436
2598.679 -880.78455 -283.45667 0.91448849 -0.14915499 -0.37611645 0.070929497
2642.4797 -814.49054 -191.11053 0.5177688 -0.85469186 0.037646823 0.079017684
2593.7771 -803.32648 -286.74179 0.63019454 -0.47041586 -0.61770844 0.05839549
2593.0461 -908.30609 -286.90329 0.95601386 -0.27968922 0.088382214 0.095064871
2609.5857 -857.24542 -381.44684 -0.52555698 -0.83439851 -0.16603906 0.067891926
2597.8772 -871.49634 -330.84439 0.70348763 0.56351566 0.4330765 0.054076236
2635.3223 -879.8327 -384.46982 0.71792227 0.63381362 0.2878679 0.059485786
2595.7449 -890.64954 -287.52002 0.96864283 -0.18271233 -0.16836663 0.087551154
2580.1919 -830.95483 -289.49918 0.74192327 0.0046571391 -0.67046857 0.076417007
2584.3164 -817.56958 -287.4921 -0.65474206 0.30986539 0.68941736 0.057479292
2603.9883 -965.44159 -289.08554 0.86816943 0.4905473 -0.075134672 0.048545014
2571.8152 -826.60834 -324.62646 0.9272818 0.18935435 0.32294485 0.10103253
2588.1567 -925.32086 -286.66446 0.92803967 -0.2574214 0.26921469 0.081100605
2599.8528 -860.62213 -279.18512 -0.67372465 -0.058645502 0.73665178 0.080803476
2589.7966 -942.66882 -286.50308 0.94895154 0.17492729 0.26247171 0.094235823
2581.8125 -849.61548 -329.62329 0.83362329 0.39454436 0.38653192 0.060109235
2569.6145 -822.2663 -306.98874 0.96699148 -0.033817884 -0.2525546 0.096198805
2601.9985 -890.3855 -264.10751 0.86069697 -0.39767525 -0.31789175 0.071024969
2609.0955 -971.25482 -311.70285 0.80678296 0.5488224 0.21884978 0.078561112
2657.1479 -797.89795 -221.77853 0.37012234 -0.92861801 0.026039606 0.15095235
2578.3726 -853.29248 -307.54416 0.84120715 0.5371362 -0.062090669 0.10362568
2576.3857 -809.65015 -306.66833 0.82968765 -0.38923246 -0.40014559 0.15146478
2622.4529 -795.84296 -266.81778 -0.44288206 0.25696564 0.85896689 0.078553021
2615.2202 -843.85248 -264.20987 -0.69635719 0.13171166 0.70550603 0.097524613
2612.3354 -859.0683 -264.2085 0.83691007 -0.17041558 -0.52013463 0.072476782
2593.5522 -905.01459 -263.50302 0.83024341 -0.5497992 -0.091742694 0.067508973
2610.8291 -843.87244 -218.74217 0.95198941 -0.29357925 0.086760193 0.083216563
2614.2551 -826.01031 -264.40424 -0.5337373 0.021544829 0.84537584 0.070562206
2615.3442 -856.56561 -402.93582 -0.42578509 -0.89229864 -0.15003401 0.12100851
2620.3018 -829.37689 -220.07732 0.7435891 -0.66354847 0.082332522 0.084696218
2586.9788 -843.40143 -352.23453 0.74489057 0.60175514 0.28814718 0.038807031
2645.0498 -909.89185 -221.96252 -0.60409129 -0.79687816 0.0076732831 0.039169271
2596.887 -949.02386 -310.58807 0.93877631 0.31742361 0.13394493 0.061656743
2632.5693 -816.56506 -219.92516 0.69836146 -0.70537597 -0.12139192 0.092134997
2608.8877 -874.96661 -263.94528 0.86867273 -0.25808635 -0.42284641 0.053800955
2610.3726 -808.78998 -269.87509 -0.52414948 0.21457417 0.82415122 0.058827501
2593.1479 -899.98834 -309.83359 0.99906355 -0.0030216703 -0.043160856 0.056639619
2591.7876 -914.34344 -310.30078 0.99281335 -0.090032324 -0.078840822 0.071038261
2572.1672 -838.59326 -306.56943 0.95947492 0.26120597 -0.10573228 0.091871306
2608.1826 -856.62579 -217.94809 0.99861944 0.052029792 0.0072182226 0.069451079
2584.343 -918.27472 -261.30597 0.84742212 -0.51938325 0.11007652 0.075989947
2647.447 -805.63593 -221.07266 0.5725137 -0.81459588 -0.093067907 0.11522378
2611.6301 -869.37604 -356.62149 0.6535055 0.64716625 0.39256382 0.042158805
2592.2732 -929.64716 -309.85913 0.99741429 0.066742651 0.026647691 0.075022906
2616.0134 -879.95154 -219.97726 0.90183604 0.43195516 -0.010321916 0.066162296
2619.0579 -859.63745 -399.06952 -0.62273175 -0.7568512 -0.19844766 0.094314851
2609.2605 -851.34851 -199.2816 0.98091865 -0.15122108 -0.12219165 0.086583264
2622.2947 -828.23828 -199.92528 0.67761666 -0.73190278 -0.071791328 0.079416014
2612.5168 -839.22168 -199.3864 0.89469135 -0.44007853 -0.076539665 0.089301348
2590.5398 -910.63196 -244.76326 0.71873641 -0.69183373 -0.069167033 0.057943784
2618.6758 -882.20416 -199.97076 0.84369183 0.53140527 -0.076108642 0.049225293
2599.4062 -901.98853 -245.5939 0.75724524 -0.62581509 -0.18690927 0.049576361
2617.7793 -866.2196 -247.14827 0.95369601 -0.28758156 -0.088095151 0.087857902
2650.907 -819.57037 -252.77925 0.49322143 -0.57254368 0.65492469 0.11799765
2635.4373 -829.11438 -251.17239 0.70223957 -0.5687772 0.42819637 0.14833969
2626.4233 -840.03363 -249.59897 0.80526036 -0.52192461 0.28133693 0.16830638
2648.4482 -911.92108 -202.76128 -0.58479553 -0.81022787 0.039305858 0.036237519
2637.5676 -815.50745 -200.28455 0.60230249 -0.78833377 -0.125545 0.061325099
2642.1912 -807.21234 -247.58623 0.97866035 0.030522462 -0.20320509 0.21658865
2613.6809 -878.77557 -245.84528 0.92955416 -0.32722414 -0.16986299 0.090719976
2607.47 -889.6734 -245.90205 0.84102201 -0.5182001 -0.15540487 0.078770638
2622.1567 -853.13647 -248.20894 0.92212588 -0.38586411 0.028155284 0.13988326
2610.4883 -864.40485 -199.2733 0.967062 0.23131745 -0.10622293 0.07405784
2655.157 -799.07397 -226.72203 0.36157721 -0.85055679 0.38185737 0.10285366
2596.8738 -896.51282 -279.05902 0.9458127 -0.27440038 -0.17361662 0.086685434
2638.501 -816.72192 -185.76085 0.46169451 -0.88647819 0.031538244 0.09645512
2583.1838 -937.66846 -279.6593 0.90483868 -0.1899686 0.38102347 0.10153592
2619.2119 -831.7558 -226.89958 0.77111995 -0.55569482 0.31076884 0.080859043
2616.9944 -878.27612 -189.18109 0.86546552 0.49822694 -0.0523392 0.076762207
2595.3372 -832.53436 -277.72531 -0.528503 -0.10528658 0.84237719 0.041778017
2600.3516 -865.09521 -278.15927 0.75796938 -0.053382877 -0.65010202 0.069957547
2598.1062 -848.73132 -277.52994 -0.58009374 -0.14089116 0.80227238 0.05224102
2600.314 -881.31201 -278.56125 0.89845502 -0.21334447 -0.38374826 0.065182865
2625.1936 -825.61621 -186.28322 0.56821209 -0.82133776 -0.050391056 0.10394384
2614.4009 -889.99603 -232.53143 0.95965302 -0.0023838654 -0.28117675 0.13850935
2629.0481 -819.95343 -228.31595 0.71024752 -0.6936456 0.12001774 0.099521652
2610.1729 -859.17261 -188.57385 0.98172605 0.088551179 -0.16844197 0.11379668
2611.2878 -847.32556 -186.94072 0.95585853 -0.23961805 -0.17005181 0.11181997
2611.9202 -871.43982 -230.35081 0.97690374 0.13960107 0.16177326 0.085650481
2615.3389 -835.8913 -187.07401 0.843485 -0.51779222 -0.14291339 0.12591642
2605.3242 -805.62238 -274.79745 -0.57133895 0.26853183 0.77554011 0.0651296
2610.6287 -842.90552 -226.7467 0.89159334 -0.41150123 0.18901865 0.077903792
2635.7917 -809.54266 -228.60909 0.71630794 -0.69601744 -0.049625237 0.1112845
2609.7217 -854.23785 -227.42009 0.96627438 -0.023641368 0.25642711 0.083686858
2596.7383 -819.20697 -277.12701 -0.53715485 0.23677011 0.80957061 0.060638629
2615.7937 -794.77118 -273.95496 -0.54298282 0.52758265 0.65331936 0.056708634
2586.9097 -924.30432 -279.68799 0.90182161 -0.30171749 0.30932885 0.079665765
2592.5576 -910.0589 -280.75699 0.90537047 -0.39560375 0.15427873 0.085911311
2612.7446 -844.31348 -184.18347 0.92724252 -0.22013581 -0.30292159 0.13176219
2609.9966 -853.34631 -226.27 0.96964508 -0.047994327 0.23976028 0.08466319
2610.2651 -866.11285 -227.90767 0.97340757 0.19826135 0.11476102 0.071268566
2613.8796 -886.57269 -231.92581 0.96715605 0.10651879 -0.23078753 0.13144846
2624.9773 -825.46149 -181.38641 0.57187152 -0.80954838 -0.13264403 0.1237837
2638.2773 -808.92072 -226.30716 0.67516893 -0.73485714 0.064279951 0.10464568
2609.0854 -842.39252 -223.89348 0.90228009 -0.40948999 0.13493915 0.070620589
2617.9189 -830.68829 -225.04837 0.7963869 -0.57205451 0.19626915 0.081284493
2647.5029 -800.72693 -223.87921 0.4418878 -0.86135769 0.2505956 0.11477768
2638.6614 -816.13403 -180.05145 0.37035203 -0.92392296 0.095946588 0.1022336
2615.853 -833.77844 -184.75865 0.81971896 -0.46878183 -0.32909638 0.15003777
2610.5002 -855.4248 -185.23288 0.93741804 0.04688412 -0.34503517 0.12661158
2624.5901 -820.21521 -224.18767 0.74817234 -0.65103346 0.12803741 0.080264926
2640.561 -891.125 -376.75751 0.72772294 0.56891853 0.38308099 0.05349033
2585.4878 -925.79846 -277.17941 0.88474894 -0.34812519 0.30988413 0.09015996
2594.9392 -812.68286 -279.82852 -0.57500768 0.32922474 0.74898416 0.056989893
2591.3174 -911.16797 -277.26578 0.88754159 -0.4388791 0.14019661 0.080550782
2614.2937 -872.61584 -235.07719 0.96695668 0.12653726 0.22132117 0.1047529
2587.5735 -945.39392 -277.9252 0.92381901 0.14996682 0.35223341 0.11873853
2573.8032 -835.67834 -321.71231 0.91268706 0.28182787 0.29593143 0.093372561
2597.9661 -943.6662 -324.77332 0.92275858 0.31880045 0.21652459 0.076245718
2651.0659 -914.5965 -237.02737 -0.60475314 -0.79626149 0.015532265 0.038575906
2576.2061 -847.71558 -317.95813 0.86181962 0.37817046 0.33801484 0.067361586
2596.4692 -896.21753 -277.59424 0.93149436 -0.32689619 -0.15955313 0.082303949
2642.4431 -811.39417 -235.32375 0.62977731 -0.6850912 0.36610186 0.12261414
2619.4666 -868.57117 -373.21591 -0.66514772 -0.67503786 -0.31922156 0.052740831
2615.4839 -889.01855 -232.2459 0.95297313 0.0032103092 -0.30303776 0.13480628
2591.3853 -827.24591 -279.2319 -0.59272361 0.061113037 0.80308402 0.046113428
2620.3223 -838.20917 -233.79002 0.73597819 -0.47776359 0.47966456 0.062787153
2616.3596 -968.44177 -328.47687 0.70179278 0.48412526 0.52259892 0.076977789
2615.3696 -853.52808 -235.27824 0.8879292 -0.1593219 0.43150699 0.070605263
2629.9189 -824.93085 -234.04758 0.69415313 -0.59298706 0.40806589 0.082542591
2662.4053 -802.06781 -236.3109 0.30388877 -0.8004899 0.5165922 0.067280106
2568.6345 -814.79358 -318.91626 0.99812698 0.056688692 0.022996997 0.16747931
2600.2632 -880.74463 -278.41763 0.89773166 -0.20486405 -0.39001104 0.067054823
2620.1196 -813.02539 -264.21808 -0.47841671 0.10152663 0.87224412 0.074965551
2629.4517 -796.73376 -262.74139 -0.39207119 0.19038828 0.90001804 0.085034788
2572.698 -812.4845 -306.04587 0.91959864 -0.16513294 -0.35646808 0.13665697
2620.4849 -832.19391 -262.02368 -0.52690715 0.16885954 0.8329798 0.098333217
2579.429 -831.00897 -289.42395 0.70731264 -0.00075447315 -0.70690048 0.063456625
2591.2458 -923.18011 -328.72388 0.99948269 -0.017571693 0.026936628 0.087205172
2580.2458 -849.87164 -326.02359 0.83290839 0.41847861 0.36213154 0.059462547
2618.6147 -968.14563 -330.51761 0.62603146 0.49433011 0.60309398 0.070525922
2588.5574 -865.08752 -323.8136 0.71268767 0.53390616 0.45499507 0.062990174
2632.0493 -878.35907 -379.73071 0.72105986 0.6244877 0.30014643 0.053582199
2593.2024 -855.9447 -283.23859 -0.63710082 -0.17402026 0.75087917 0.066950187
2596.6746 -804.46661 -282.69183 -0.62862325 0.43486014 0.64477086 0.051216431
2595.0183 -873.14807 -286.68283 0.85278475 -0.020980582 -0.52184093 0.080788933
2591.7676 -908.95685 -283.27533 0.94034648 -0.31904477 0.11814785 0.084436305
2585.4641 -818.9071 -285.5105 -0.67368132 0.28780353 0.68067807 0.056065023
2583.5652 -923.54803 -277.78073 0.92002279 -0.28727871 0.26651275 0.095026821
2572.0605 -828.13074 -323.42316 0.94213903 0.16183341 0.29357108 0.097330362
2607.2107 -949.87207 -332.85635 0.73858243 0.4484354 0.50339019 0.065527603
2612.5071 -859.80884 -379.52878 -0.6209442 -0.75236791 -0.21993355 0.06606435
2596.6228 -893.46191 -284.25522 0.95098746 -0.27065638 -0.14955933 0.0787251
2611.6704 -856.62543 -392.3924 -0.4478434 -0.88429052 -0.1321612 0.083738707
2648.2837 -887.67499 -398.64758 0.69091958 0.67428869 0.26070082 0.050887819
2613.1433 -837.56915 -191.05623 0.88978833 -0.44464761 -0.10278729 0.11578733
2609.365 -857.53284 -190.97014 0.98144889 0.044237491 -0.18655056 0.10615644
2610.7256 -847.89325 -190.50694 0.96403831 -0.23113273 -0.13117847 0.11112134
2609.8911 -867.11322 -189.94952 0.94137561 0.33116677 -0.064346917 0.093127191
2636.2114 -817.94293 -192.10811 0.48901665 -0.87194675 -0.023908826 0.082780927
2622.2661 -827.92731 -191.20482 0.65424824 -0.75562733 -0.031409532 0.10263839
2637.1992 -902.90192 -192.91902 -0.6942997 -0.71940595 0.020075474 0.063973829
2621.1389 -828.11804 -222.97566 0.7552622 -0.64192003 0.1323543 0.084943935
2631.9814 -820.42401 -177.21609 0.61547005 -0.78540176 0.065884069 0.13153967
2611.7266 -842.48114 -222.20616 0.91160357 -0.36231408 0.19418393 0.081951447
2620.0876 -835.77594 -177.48056 0.76601356 -0.54650044 -0.33846781 0.14172748
2615.4087 -805.66077 -268.57385 -0.46837872 0.21969801 0.85577691 0.054797206
2612.3562 -873.93976 -225.97571 0.95352775 0.3012262 0.0069009033 0.080210812
2623.2285 -879.62329 -362.13202 0.72995639 0.53738058 0.42235741 0.046710685
2575.8271 -849.33533 -308.55789 0.90727007 0.41487655 0.068836622 0.092969544
2647.6677 -804.5191 -222.93983 0.55193073 -0.83365226 0.019909944 0.11597946
2613.9907 -838.78149 -265.54172 -0.63137609 0.068653971 0.77243179 0.081268325
2606.8159 -869.95209 -269.89386 0.84516972 -0.21985559 -0.48718756 0.058474403
2610.3088 -856.76215 -223.41087 0.98206085 0.070598751 0.17484947 0.079443626
2601.3145 -856.729 -359.37735 0.68051058 0.65802121 0.3223561 0.032913085
2570.4873 -832.10077 -307.78058 0.98356801 0.1363385 -0.11834589 0.093060777
2671.2341 -793.22205 -223.34241 0.16628419 -0.86833853 0.46726629 0.09644679
2607.8108 -853.04547 -269.75873 0.72953027 -0.040904973 -0.68272424 0.069005333
2625.1426 -791.93298 -267.07428 -0.44887275 0.36654603 0.81495845 0.074866772
2571.2136 -818.34137 -306.92355 0.95612735 -0.10156108 -0.27478322 0.12159258
2632.863 -815.83575 -223.04362 0.71787202 -0.69522876 -0.036286838 0.10216148
2614.3088 -850.06757 -178.10825 0.92422569 -0.20215911 -0.3239423 0.14396563
2618.5164 -823.84528 -263.3497 -0.47090778 0.029335264 0.88169456 0.060630985
2595.8516 -901.10376 -271.7951 0.90858001 -0.41529357 -0.04487361 0.081129782
2580.7119 -930.91113 -270.13913 0.87023383 -0.35295802 0.34367672 0.11063113
2593.375 -930.05316 -317.05548 0.99253058 0.084375396 0.088112839 0.074189492
2588.3633 -916.18781 -271.93213 0.87633955 -0.45301932 0.16371478 0.080900587
2596.3457 -944.60138 -317.29147 0.94065332 0.30273828 0.15336519 0.068756297
2602.8765 -886.76416 -268.5184 0.87788951 -0.32053131 -0.35576627 0.067896724
2642.218 -883.68781 -393.55142 -0.65988094 -0.7109744 -0.2430485 0.040688593
2614.0476 -858.30914 -389.27295 -0.58009732 -0.79740214 -0.16624366 0.067455664
2654.1138 -892.11584 -405.38416 0.72944528 0.65018779 0.21252166 0.061018392
2592.3323 -852.4411 -347.28125 0.7340759 0.56371033 0.37863344 0.041404154
2618.0493 -880.80511 -352.14355 0.72763318 0.52374631 0.44298959 0.043672264
2612.3704 -856.38159 -397.56711 -0.45501935 -0.88659543 -0.08310207 0.09829174
2657.4026 -808.70984 -243.94742 0.34962294 -0.75515389 0.55453259 0.08243794
2604.3418 -962.81329 -283.05869 0.86781162 0.47403136 -0.14898761 0.058946922
2588.5671 -944.50446 -282.31097 0.9255209 0.1359937 0.3534357 0.10670839
2622.4839 -828.32202 -195.87485 0.66936868 -0.74087232 -0.055260785 0.085455619
2595.2002 -902.01593 -281.63138 0.96382236 -0.24960713 -0.093502484 0.085274279
2609.2349 -852.64246 -194.69356 0.98408186 -0.1207663 -0.13037769 0.10562348
2614.3372 -883.04651 -239.26982 0.94260705 -0.28810805 -0.16877714 0.11583477
2585.2551 -855.96429 -327.87936 0.80079758 0.4425464 0.40357885 0.064121708
2600.0764 -905.20941 -237.97437 0.70116025 -0.66923428 -0.24596699 0.057717375
2589.8003 -866.24097 -324.58917 0.71989822 0.52265865 0.45669961 0.05396742
2611.9578 -840.69879 -194.78206 0.92724401 -0.35966128 -0.10422229 0.097035863
2623.4946 -841.66632 -243.92915 0.76900303 -0.39832973 0.49996772 0.08111912
2635.6238 -901.12915 -196.3792 -0.6816842 -0.72816116 0.071330234 0.052982774
2632.9255 -829.6145 -244.59006 0.71692318 -0.47829771 0.5072006 0.073021345
2616.675 -871.09296 -242.3187 0.97967905 -0.16497222 0.11407528 0.1116833
2618.3271 -881.35974 -195.40465 0.85093403 0.51921022 -0.079573654 0.055109728
2588.3389 -840.09296 -284.00223 -0.63110995 -0.17145175 0.75650811 0.064299695
2590.8054 -914.87079 -282.59872 0.92845219 -0.32817459 0.17400576 0.086019889
2587.7375 -928.89441 -284.62979 0.90715396 -0.26300403 0.32848227 0.087179542
2594.7305 -814.88068 -279.61334 -0.55429763 0.2454474 0.79530478 0.055540998
2597.8982 -888.87189 -281.68231 0.9341566 -0.281039 -0.21992837 0.082512766
2640.3469 -818.39215 -242.5031 0.63767236 -0.59342438 0.49114299 0.099805668
2611.3416 -865.76837 -195.69492 0.95083058 0.26973879 -0.1521914 0.087417237
2589.0886 -828.02899 -281.46567 -0.59615326 0.015884809 0.80271351 0.050454739
2618.3655 -856.61548 -243.53389 0.86800444 -0.18113536 0.46234 0.080084682
2571.8364 -831.3551 -321.63788 0.92163813 0.22175393 0.3184467 0.097385116
2607.6819 -895.27319 -238.58 0.84347385 -0.46509802 -0.26876688 0.11062503
2640.6292 -814.82843 -196.60948 0.59886581 -0.79966468 -0.043544028 0.064108163
2638.8193 -814.17261 -201.38264 0.60180128 -0.78026187 -0.17037195 0.063169792
2625.3655 -825.03949 -200.76532 0.63769007 -0.76483309 -0.091552012 0.067073397
2612.3179 -837.80811 -199.55548 0.86432213 -0.49961549 -0.057720017 0.093739234
2609.6362 -861.45935 -200.32199 0.9853546 0.14650388 -0.08725217 0.072261676
2627.8862 -894.16748 -202.15855 0.71592897 0.69557446 -0.060182508 0.046831694
2614.7903 -875.59985 -200.36867 0.88761324 0.44540814 -0.11727899 0.068582155
2609.752 -848.1864 -200.09235 0.96381575 -0.23886119 -0.11834068 0.0843466
2631.8108 -809.30682 -253.11713 0.75391936 0.10567158 -0.64841276 0.1936481
2575.7524 -817.45178 -298.29987 0.79670602 -0.24337959 -0.55319607 0.086570956
2594.7207 -897.84167 -298.84073 0.99766338 -0.048168387 -0.048451602 0.067462854
2613.8735 -874.71649 -251.96616 0.89473426 -0.33349958 -0.29703304 0.069920391
2636.0669 -834.17169 -255.94356 0.81305993 -0.58216488 -0.004197543 0.12033413
2601.4053 -898.0083 -252.383 0.77951759 -0.5983271 -0.1853565 0.053121183
2574.1655 -830.64325 -298.33475 0.86989391 0.074504577 -0.48757938 0.075904563
2609.0867 -848.26685 -210.06265 0.96962172 -0.23813261 -0.055915609 0.080920041
2591.0938 -936.81769 -298.42511 0.98152381 0.057834245 0.18239014 0.08482144
2583.1057 -921.66888 -251.0683 0.8544507 -0.51684564 -0.052768972 0.085062459
2609.4238 -861.75818 -210.0434 0.98543811 0.16735987 -0.030039383 0.06525448
2616.324 -880.42651 -209.92963 0.84244043 0.53160268 -0.087708235 0.047378093
2575.6816 -841.46698 -299.11823 0.85701817 0.32489413 -0.39995453 0.0885024
2603.7256 -966.70721 -299.90475 0.86677462 0.4984915 0.014420575 0.062252488
2616.1799 -834.17102 -209.69972 0.80203384 -0.59394217 -0.063042946 0.076625831
2596.9553 -952.73059 -299.91629 0.91851759 0.39452305 0.026017973 0.047263138
2590.7007 -805.06586 -292.22641 0.74687725 -0.47660241 -0.46370739 0.108162
2624.3687 -824.29883 -210.84332 0.66005421 -0.73313969 -0.16381267 0.066446625
2590.5762 -910.48279 -251.02708 0.76599675 -0.64183527 -0.03600622 0.058669526
2616.5483 -861.2478 -253.33667 0.92555356 -0.28397062 -0.2504223 0.10029035
2593.0369 -911.49493 -299.95538 0.99482197 -0.10123891 -0.0089408681 0.070434876
2622.7253 -848.56702 -253.45012 0.84051639 -0.36780724 -0.39780656 0.15262704
2591.5688 -924.72107 -299.27167 0.99362212 -0.080782458 0.078671932 0.068401292
2632.1838 -898.8064 -212.01723 -0.68726909 -0.723544 0.06438379 0.036607366
2647.0635 -825.53992 -259.70386 0.66750884 -0.586707 0.45848325 0.15021287
2607.645 -886.81836 -252.89072 0.85856336 -0.43931481 -0.26433209 0.066436142
2640.9275 -811.30164 -209.76669 0.63812536 -0.71684438 -0.28094506 0.063890241
2577.5869 -853.63196 -311.65625 0.85991216 0.44394535 0.25191975 0.093869656
2608.084 -853.87537 -270.07718 -0.70510674 0.045868982 0.70761609 0.063242652
2571.9941 -836.34814 -311.03311 0.97705734 0.21270221 -0.010803408 0.10350569
2569.7163 -817.29761 -310.33023 0.98001939 -0.043422364 -0.19410448 0.14656389
2650.6089 -811.04828 -178.58658 0.36765027 -0.92515242 0.094478667 0.12355342
2600.9976 -886.99908 -272.99915 0.89505947 -0.33043104 -0.29947269 0.069678053
2646.3835 -805.36938 -223.85219 0.57714891 -0.81585431 0.035789412 0.11461382
