# .PCD v0.7 - Point Cloud Data file format
VERSION 0.7
FIELDS x y z normal_x normal_y normal_z curvature
SIZE 4 4 4 4 4 4 4
TYPE F F F F F F F
COUNT 1 1 1 1 1 1 1
WIDTH 635
HEIGHT 1
VIEWPOINT 0 0 0 1 0 0 0
POINTS 635
DATA ascii
2391.0908 784.91815 450.02759 0.88742024 0.13377836 0.44112203 0.083708458
2375.8699 966.30878 458.4281 0.99306917 -0.099919587 0.06188494 0.048902374
2383.75 821.21747 450.60889 0.75740761 0.21962681 0.61489654 0.042682614
2388.0735 896.13403 417.54782 0.7380026 0.20545053 0.64276141 0.060188353
2398.9619 861.8584 414.92975 0.81420285 0.23596448 0.53046626 0.071499266
2367.5105 809.37836 488.80582 0.98042738 -0.064081967 0.18616019 0.034020577
2393.7466 879.01672 416.15457 0.74899739 0.20325634 0.6306265 0.061333243
2370.3337 925.82538 498.9462 0.98411638 -0.032213867 0.17457733 0.02854472
2373.5085 870.83826 453.15475 0.96099836 -0.020702166 0.27577823 0.056267578
2375.3003 853.69385 452.64316 0.88882136 0.11635309 0.4432365 0.054444749
2369.6628 908.95953 497.11044 0.98462331 -0.060132936 0.16401517 0.034670901
2399.0916 959.61591 378.0098 0.76228964 0.24192482 0.60032237 0.08123643
2393.9683 870.65808 419.61349 0.78078192 0.26056942 0.56787598 0.056976914
2373.3264 748.06183 487.45248 0.58151138 0.11013255 0.80604917 0.039653178
2384.4893 905.22491 419.90918 0.81802392 0.22320731 0.53010881 0.066164359
2389.5876 887.67218 418.8912 0.79017788 0.20524986 0.57748717 0.054671049
2374.4097 901.89014 457.32861 0.9948765 -0.032053594 0.095882006 0.053329498
2376.4475 730.0304 486.62753 0.58018959 0.039406911 0.81352758 0.084066071
2373.3374 862.30634 454.61313 0.95579726 0.054851364 0.28886488 0.053211872
2367.458 877.57581 497.12778 0.99189323 -0.1216741 0.036650863 0.030027775
2375.2661 845.16333 454.67444 0.87479681 0.19324951 0.44428045 0.053220373
2368.6445 897.78076 499.33789 0.98859715 -0.081964396 0.12632319 0.034542512
2366.5645 803.0528 490.52847 0.94947672 -0.034905557 0.31189033 0.036198925
2388.7161 792.79041 452.65094 0.86256963 0.14455973 0.48484647 0.062748171
2367.9387 783.23083 489.01288 0.88143104 0.10496058 0.46050251 0.038390543
2380.3206 828.41425 452.89679 0.80073738 0.2512086 0.54379576 0.047504555
2368.0745 820.85187 492.33176 0.98500824 -0.070335843 0.157517 0.037835792
2370.4844 766.13074 488.40314 0.75266343 0.20312193 0.62629002 0.026600128
2367.47 858.40942 494.85965 0.99688441 0.074613854 -0.025579216 0.033983722
2384.7297 810.66998 453.00845 0.79017282 0.19394062 0.58138967 0.052737601
2373.3584 881.65094 455.88806 0.97686321 -0.078233637 0.19904207 0.053560857
2380.0801 922.23926 420.4816 0.88649929 0.15516804 0.435938 0.074608959
2374.4624 921.2674 458.2926 0.99607778 0.059692219 0.065313496 0.058515348
2367.9753 841.73682 494.87201 0.99535125 0.086614341 0.042117346 0.03673343
2404.033 934.75854 378.8559 0.89544779 0.16842151 0.41207701 0.090691142
2389.5752 986.25397 381.75339 0.8863439 0.14672135 0.43916669 0.097815953
2380.7781 961.83173 421.31348 0.98056459 -0.092788897 0.17286776 0.04589773
2374.6033 940.91943 460.04782 0.99966228 -0.022344152 0.013269682 0.055382472
2393.4119 969.59369 381.86282 0.79150641 0.23308949 0.56496626 0.076297529
2375.4307 960.64038 461.93256 0.9943617 -0.10422505 -0.019544834 0.04841147
2376.9473 980.75146 463.95862 0.99796945 -0.062829517 -0.010462971 0.065422915
2399.7915 952.91998 379.90912 0.79649466 0.26248875 0.544698 0.0768269
2381.6169 981.862 423.35608 0.98951995 -0.052179869 0.13463846 0.052411966
2380.1006 941.8725 419.71738 0.97348213 -0.040033039 0.2252329 0.056146625
2385.3564 743.90594 479.14291 0.59816545 0.08740931 0.79659134 0.046632424
2375.1934 777.63995 479.67609 0.79639924 0.15870595 0.58357573 0.028791271
2377.0408 759.51624 481.76047 0.74365401 0.18811773 0.6415531 0.027959477
2371.1912 794.07562 481.70569 0.85908103 0.054554053 0.50892395 0.038919382
2375.3921 908.0047 447.59674 0.99089569 0.0010570706 0.1346277 0.052019484
2386.2112 930.17358 409.87488 0.80522859 0.11538447 0.58162993 0.056983307
2382.9155 837.18964 446.40469 0.73554099 0.22347106 0.63956249 0.040559426
2405.1321 958.85999 370.34988 0.78127044 0.21451889 0.58617246 0.090179048
2375.7117 888.60516 447.35617 0.9707576 -0.067104474 0.23049225 0.056755692
2371.6997 924.87726 491.51709 0.98983896 -0.032844137 0.13834792 0.024063587
2370.8301 907.01312 489.97556 0.98693544 -0.07614284 0.14198847 0.026154118
2374.9258 927.3017 448.51093 0.9928233 0.060808893 0.10297653 0.048119105
2401.5083 975.65387 370.41476 0.70803434 0.18457074 0.68163115 0.081254281
2378.1621 852.8988 447.78842 0.79836845 0.13900682 0.58590519 0.045796771
2385.2341 949.01807 409.57608 0.8747378 -0.020600963 0.4841584 0.059635092
2394.8853 990.85187 373.45511 0.72930229 0.10556473 0.67599869 0.11501262
2389.4873 820.84955 443.58902 0.76052445 0.22319554 0.60974282 0.047437355
2376.5911 965.76947 451.25879 0.99117142 -0.088195093 0.098999053 0.04444284
2383.4351 984.94043 411.37436 0.9880991 -0.024174076 0.15190731 0.055434156
2396.2966 896.79065 408.3277 0.70677364 0.21036087 0.67544013 0.057094906
2372.9739 963.95557 494.45071 0.98860121 -0.014779852 0.14983045 0.024700688
2392.167 802.67719 445.05362 0.82584935 0.1765912 0.53552622 0.073521711
2369.0459 884.2879 487.72855 0.98022109 -0.13833113 0.14153115 0.025670759
2368.1299 867.03979 486.51511 0.98664802 0.012542725 0.16238342 0.027642881
2372.5022 943.69336 492.59995 0.9819935 -0.085974649 0.16821751 0.021220241
2377.6865 985.91547 453.16611 0.99760246 -0.031383149 0.061679546 0.053418685
2390.4795 913.85345 408.55811 0.74540007 0.20987253 0.63271821 0.049497329
2375.4092 945.82684 450.34036 0.99378467 -0.050475322 0.099218585 0.048371989
2383.8416 966.89734 410.48361 0.96580607 -0.053853653 0.25361085 0.047813024
2369.5444 831.0047 483.91275 0.98210156 -0.010076615 0.18808237 0.032726206
2369.6689 810.90228 482.99741 0.93617147 -0.034275658 0.34986883 0.036641713
2376.7329 871.01813 446.82153 0.89869887 0.0043697734 0.43854448 0.053816464
2368.6362 849.82343 485.63806 0.98579794 0.07362505 0.15093641 0.026981199
2397.3811 950.28815 385.25031 0.80631256 0.24564479 0.53806943 0.08414565
2392.1277 968.78711 387.5885 0.87472725 0.21775688 0.4329367 0.075645067
2387.5532 987.57959 390.25116 0.94357216 0.16211376 0.28877446 0.084343545
2368.0928 817.56274 490.58734 0.98982173 -0.084982716 0.11415267 0.034615435
2367.5835 781.57947 489.69159 0.85723674 0.10837398 0.5033887 0.037699874
2367.8416 837.09711 492.29962 0.99391311 0.033966627 0.10479982 0.036437556
2390.01 792.61041 449.58542 0.89772719 0.1169742 0.42473862 0.062175646
2366.6987 797.9035 490.28741 0.94625866 -0.013631112 0.32312348 0.039336316
2370.7561 765.21252 487.73212 0.70420748 0.19791485 0.68185157 0.024684962
2375.3523 728.97864 486.89972 0.57991421 -0.0091711218 0.81462592 0.086874694
2380.6213 826.11353 453.55112 0.79284728 0.24379472 0.5585314 0.044806838
2375.312 747.86969 486.04633 0.58151138 0.11013255 0.80604917 0.039653178
2376.1907 843.01215 453.47455 0.84305149 0.20360994 0.49780229 0.04974528
2367.4556 857.02936 494.02518 0.99642092 0.064152218 0.055044167 0.031622034
2385.8127 808.71948 452.15262 0.77824652 0.19906002 0.59557325 0.05365188
2380.9592 917.78107 419.96204 0.86185652 0.17133664 0.47733337 0.067987971
2369.832 914.96594 499.15771 0.98170972 -0.040198684 0.1860916 0.033028081
2377.4854 995.90735 463.16766 0.99704278 -0.03716192 0.067265429 0.10052782
2375.0039 953.25146 458.37262 0.99571568 -0.082778618 0.041207381 0.048994508
2395.1174 964.56683 380.42169 0.764642 0.27576679 0.5824734 0.068608835
2391.2043 884.83563 417.39307 0.78429443 0.20452105 0.5857076 0.060460124
2398.2915 869.25269 414.07736 0.79553968 0.21951391 0.56473911 0.067792244
2376.6333 975.78302 461.18735 0.99690157 -0.059540376 0.051401962 0.058453288
2367.4768 875.75421 495.24014 0.99051261 -0.098297819 0.096033052 0.031211648
2374.5547 917.16626 457.22913 0.9968437 0.046622083 0.064257771 0.056763243
2391.6855 981.56866 380.54871 0.81164879 0.19044176 0.55223024 0.096196033
2381.9763 977.00055 419.99649 0.9890632 -0.023015989 0.14568533 0.049571522
2381.5383 995.12384 421.59494 0.99115372 0.027048547 0.12993342 0.074320942
2374.4851 934.20172 457.36209 0.99880898 0.023746423 0.042623561 0.05681419
2368.7607 894.58063 497.34088 0.98983169 -0.11038017 0.089718983 0.031200865
2380.4058 935.95129 418.80151 0.94867259 -0.0085428683 0.3161445 0.058678214
2385.6514 901.39783 418.66342 0.76458305 0.22976887 0.60217851 0.059832748
2373.8062 859.56171 453.50851 0.93549711 0.077208892 0.34479558 0.058827728
2373.6189 877.69232 454.3187 0.97216874 -0.053237274 0.22815284 0.05940339
2402.0066 948.30139 378.55655 0.81308109 0.26408812 0.51880306 0.087549441
2380.657 953.31598 418.65506 0.97372293 -0.086983889 0.21046966 0.045689605
2388.835 997.7749 380.63248 0.9023788 0.071100786 0.42503789 0.14730206
2374.4014 897.81702 455.52524 0.9921093 -0.041248463 0.11839649 0.05160176
2404.9812 979.20074 366.96762 0.69512069 0.17818999 0.69645929 0.091874041
2395.5508 996.22504 371.19394 0.76421285 0.17170098 0.6216892 0.13820793
2406.1687 960.00909 369.16882 0.78739619 0.20364547 0.58183825 0.099158123
2374.5076 930.96741 460.87018 0.9985615 0.013052338 0.052005291 0.049629912
2381.8093 976.00494 421.97003 0.98756373 -0.025709569 0.15510267 0.048854109
2376.9443 996.02881 468.61456 0.99850297 -0.0040778727 0.054545607 0.12974322
2388.7505 998.22357 380.91351 0.88090384 0.11251776 0.45972624 0.1423188
2380.875 955.19659 420.58911 0.97778976 -0.090453297 0.18906452 0.045373663
2380.4326 933.00439 418.4726 0.94900137 0.00094324362 0.31527051 0.056139305
2381.3342 993.09802 423.9696 0.99128729 0.013245584 0.13104978 0.071036197
2390.9866 803.62885 446.53244 0.83217829 0.16269688 0.53010285 0.074564546
2394.5559 880.8913 414.64105 0.76406878 0.18696357 0.61744916 0.063938901
2380.0791 836.48596 450.63397 0.79623836 0.21307606 0.56621826 0.044051941
2388.4521 898.44611 416.18161 0.75450999 0.23181289 0.61398494 0.058681924
2398.042 862.85254 416.00684 0.80745417 0.24756841 0.53546953 0.069454171
2374.3806 910.99744 458.93552 0.99461645 0.0040807538 0.10354452 0.055544324
2376.4434 972.0752 465.97195 0.99867296 -0.048252482 0.017998818 0.050605919
2403.9294 944.20312 375.68124 0.89378685 0.23195443 0.38385183 0.093196496
2375.3115 953.65845 463.78168 0.99466401 -0.097925924 0.032465972 0.04662665
2388.3428 820.4798 446.22397 0.76756144 0.22344051 0.60076934 0.053870101
2376.3738 853.81464 451.99356 0.84636372 0.096478969 0.52379411 0.054774713
2374.0908 874.31293 453.819 0.93698466 -0.049615402 0.34582958 0.063676961
2374.6602 894.46613 456.66574 0.98196161 -0.062362019 0.17850028 0.05385036
2392.5 979.84711 380.33636 0.8153559 0.19733973 0.54429013 0.088130787
2384.0061 915.49487 417.2991 0.82193136 0.20276622 0.53227311 0.066308171
2399.9927 962.37933 376.44208 0.76743197 0.23727894 0.59560633 0.083081499
2385.3533 764.40051 471.15689 0.7415415 0.21947546 0.63399267 0.025195409
2377.0408 957.86694 444.14771 0.98224407 -0.12557922 0.13937885 0.033082802
2373.9839 960.10938 489.59406 0.99042535 -0.035910442 0.13329695 0.031885944
2389.3386 843.74927 436.10471 0.72309214 0.23166716 0.65074426 0.040266037
2386.2634 963.08551 403.40796 0.9493857 0.019047398 0.31353468 0.049107112
2384.6555 983.23474 403.80948 0.98400384 0.049620382 0.17109708 0.04783114
2372.2832 815.1524 475.04105 0.93859619 0.017269725 0.34458512 0.03378626
2369.3945 855.21802 477.37689 0.99187332 0.063708708 0.11012961 0.023733459
2378.5891 898.11993 438.68723 0.96556401 0.044721212 0.25629318 0.047720678
2391.7048 926.82837 401.92099 0.77344364 0.17293924 0.60981721 0.049636599
2368.9893 874.83978 479.26956 0.98780167 -0.079565234 0.1338551 0.023740735
2398.0303 909.46893 402.11493 0.67802298 0.24711636 0.69225597 0.053616296
2395.8293 826.83441 435.72058 0.70505899 0.20793357 0.67797893 0.042680699
2372.894 939.27203 486.78583 0.99384522 -0.087037884 0.068527862 0.028943973
2384.6619 861.71814 435.05524 0.80509973 0.16957301 0.56838322 0.042153642
2378.1875 978.88788 446.25897 0.99178118 -0.050823234 0.11741871 0.03486748
2406.3555 992.83936 364.0943 0.57387888 0.14299801 0.80635881 0.11405987
2379.7734 878.28937 437.90332 0.89250225 0.044732295 0.44881934 0.042489711
2371.3123 836.2049 475.87866 0.9788053 0.046512671 0.19944102 0.026643194
2371.0203 895.67017 481.35278 0.98745495 -0.10784323 0.11533678 0.024626866
2374.6289 798.50421 473.67972 0.86161304 0.093859978 0.49881184 0.034395933
2404.8542 892.09155 402.18771 0.66507447 0.18836136 0.72263128 0.074550852
2378.9963 781.77795 471.3364 0.82029831 0.18150324 0.54237193 0.027587878
2376.6816 917.21387 439.37933 0.98706996 0.078726888 0.13962421 0.038495433
2387.1746 943.47156 404.3309 0.85476077 0.056182221 0.5159725 0.053055085
2372.1357 915.92401 484.3526 0.99344915 -0.024070676 0.11171096 0.022967057
2376.2036 937.99524 442.02658 0.99130845 -0.023208 0.12949485 0.041036323
2379.2896 984.94312 443.98013 0.99133867 0.0073170722 0.13112614 0.041539144
2401.874 912.29242 395.70807 0.75198537 0.25161132 0.60926986 0.059253465
2408.5156 996.37048 357.54694 0.68385679 0.29004017 0.6694898 0.15064047
2392.2664 852.30304 429.03885 0.79938567 0.23659082 0.5522747 0.050626762
2385.1858 985.35516 400.53784 0.98014122 0.10927743 0.16547407 0.046392892
2379.8577 902.86493 434.66971 0.95451552 0.11286571 0.27597356 0.052976009
2390.7671 948.14307 397.40872 0.87083977 0.16237645 0.46397409 0.05184656
2377.554 920.05603 436.1019 0.97866213 0.099040687 0.18003148 0.04455265
2397.0706 931.84204 393.58908 0.85465246 0.16690914 0.49164066 0.058307067
2387.2883 964.73657 399.09558 0.94290346 0.11044283 0.31422192 0.048541509
2398.436 836.0387 428.21198 0.77043897 0.20780382 0.60269511 0.064950436
2387.7615 868.60468 429.77917 0.83075541 0.22127451 0.51076704 0.042837866
2383.6169 885.31372 432.36575 0.88578743 0.17968947 0.42789286 0.048575282
2376.8298 941.08527 438.69617 0.98959291 -0.038873073 0.13854502 0.041411538
2378.199 962.20978 440.71765 0.98145455 -0.1143256 0.15387218 0.031770505
2397.5535 859.44946 418.39215 0.7869513 0.25519001 0.56177014 0.067674771
2373.5149 869.01984 455.18481 0.9501605 -0.0075730775 0.31166911 0.054466121
2386.1155 815.99097 449.96185 0.77170455 0.20045464 0.60356438 0.048734345
2380.7192 833.89673 451.0452 0.80507797 0.20749111 0.555695 0.049060713
2390.3823 799.86407 448.18527 0.85693902 0.14709187 0.4939833 0.07888265
2389.074 895.02106 417.0593 0.76152813 0.21712457 0.61068141 0.055468135
2376.188 850.78015 453.01813 0.87425011 0.1060807 0.47374424 0.057156455
2393.3589 876.98492 417.5166 0.7791326 0.22846369 0.58374375 0.05892257
2374.3086 891.90045 457.28238 0.97599864 -0.10111772 0.19287778 0.056161769
2374.2104 907.03076 459.74463 0.98982906 -0.017004844 0.14124192 0.050140966
2392.5554 975.84082 381.42667 0.81063247 0.1917095 0.55328339 0.082911707
2381.0898 972.07666 423.73901 0.99001253 -0.039737251 0.13526314 0.048620604
2376.718 972.47791 468.66083 0.99837971 -0.04640257 0.032934908 0.060793176
2380.5405 952.21887 420.48724 0.97525829 -0.086788274 0.20332007 0.046890222
2374.9551 949.49823 464.80551 0.99610883 -0.082098015 0.032048307 0.048052918
2376.5942 992.96747 470.23697 0.99671966 0.0034490419 0.080858067 0.13339972
2374.4983 927.91681 461.78806 0.99789298 0.023704503 0.060396329 0.050153777
2403.6689 940.49084 377.07477 0.91088146 0.19896665 0.36153454 0.092100538
2380.8916 929.28223 419.38687 0.93977952 0.068158507 0.33491623 0.073186278
2388.9238 995.1416 381.55463 0.85002565 0.1302858 0.51037443 0.138226
2384.1736 911.54602 418.38461 0.82508403 0.20726976 0.52561927 0.067759298
2399.9666 959.0838 377.80743 0.78720665 0.23777518 0.56900668 0.085471645
2381.1689 990.11859 425.80396 0.98786592 0.022663776 0.15364656 0.063478664
2375.5811 743.93457 486.43146 0.59065348 0.092274956 0.80163199 0.042764839
2367.4927 875.38751 496.61548 0.99274492 -0.085351482 0.084691435 0.033169903
2368.3145 778.23578 488.89789 0.81684452 0.14650825 0.55794299 0.03340267
2366.676 797.00317 490.27155 0.92794055 0.0043452941 0.37270287 0.038311217
2367.8518 853.98761 494.99905 0.99651653 0.083158962 0.0062778583 0.030355142
2386.2629 805.58221 452.65613 0.79012996 0.20327672 0.57825011 0.057388596
2370.5361 760.36005 488.69348 0.66365671 0.1555559 0.73168445 0.025323611
2390.2556 788.88623 450.6225 0.8837114 0.13502698 0.44813159 0.066289179
2367.5454 817.12476 491.64325 0.96786946 -0.082989991 0.23736341 0.038441267
2374.1299 857.34161 454.24808 0.92413551 0.10086953 0.36850908 0.056660254
2376.4539 840.16083 454.63168 0.84005201 0.21894658 0.49636179 0.05272337
2381.0195 822.90839 454.20865 0.78432655 0.23595552 0.57372195 0.043216676
2367.6655 835.85913 493.49539 0.98788112 0.041729625 0.14949767 0.037325718
2393.1799 883.55157 415.55774 0.76953185 0.18961148 0.60980999 0.063500062
2381.0566 957.26276 420.34048 0.97212362 -0.086784616 0.21781668 0.047259886
2382.7495 917.36664 418.98108 0.85799694 0.17980959 0.48115465 0.07027366
2388.9893 998.35687 380.56241 0.88132304 0.10521365 0.46065152 0.14472328
2374.5371 915.9826 457.96817 0.9969402 0.037525281 0.068572193 0.054655053
2392.6748 980.64758 379.78497 0.81543458 0.19741432 0.54414523 0.089523911
2402.2119 946.06024 378.98828 0.81864226 0.2702328 0.5067535 0.090686843
2380.5269 934.0332 418.98965 0.96277535 0.0090680104 0.27015078 0.060093265
2376.6108 974.96698 463.02536 0.99768412 -0.05395643 0.041413639 0.057506241
2381.3196 995.68823 423.21902 0.98424077 0.065556929 0.16423288 0.074404806
2387.509 900.14874 417.36874 0.78805035 0.23030116 0.5709098 0.065644719
2377.3035 994.99036 465.02066 0.99719 -0.031605124 0.067920275 0.1007612
2375.3003 954.97437 461.0058 0.99618906 -0.085060149 0.019289317 0.047136784
2373.2319 875.89404 455.59518 0.96522087 -0.045815248 0.25739008 0.05502478
2381.8833 976.08112 421.51053 0.98756373 -0.025709569 0.15510267 0.048854109
2397.6616 964.22327 378.48703 0.7771796 0.26221335 0.57204545 0.078599498
2374.1536 894.81415 456.41006 0.98996222 -0.058349319 0.12872522 0.051664434
2374.4932 933.04547 459.11157 0.99975955 0.0082772775 0.020305352 0.052145742
2368.7688 896.71924 499.14734 0.98830956 -0.098301016 0.11653797 0.035830569
2397.0796 852.01923 421.04034 0.87210065 0.21074836 0.44161707 0.062520362
2375.2578 955.36023 465.93542 0.99525249 -0.095800169 0.017171241 0.045150809
2383.2839 809.85535 455.76025 0.80823082 0.19617149 0.55522943 0.051426709
2373.1689 736.55884 488.52493 0.56629378 0.042842567 0.82308924 0.071749955
2365.668 806.16498 499.61316 0.984124 -0.069628254 0.16325386 0.037009604
2376.3098 973.03583 466.97665 0.99808776 -0.05177759 0.033762854 0.052170318
2372.5039 859.95654 459.85828 0.95813113 0.083915085 0.27375725 0.055298489
2383.1111 901.34564 423.19125 0.82784843 0.21795201 0.51687896 0.063839078
2388.0564 993.00903 384.02911 0.87945151 0.14123283 0.45455283 0.12294177
2374.5452 842.89966 458.82233 0.91245025 0.20118715 0.35631201 0.047723219
2392.679 867.80408 421.84393 0.79964238 0.24002695 0.55041718 0.056733079
2396.2117 959.48169 382.79584 0.80649638 0.23375517 0.54306728 0.077571072
2379.4578 934.96539 423.12546 0.96954972 -0.0075274059 0.24477893 0.061851215
2372.6501 880.29077 460.29941 0.97530758 -0.084659845 0.20398001 0.056447737
2400.7046 943.0202 383.01697 0.83031267 0.246867 0.49963745 0.083376184
2381.1565 919.17596 422.47571 0.91579628 0.13931827 0.37670618 0.077230223
2376.8889 992.95026 468.90292 0.99938607 0.015970757 0.031182831 0.11304938
2391.2151 976.05511 384.13748 0.82345814 0.2110645 0.52665788 0.082865551
2373.5488 897.03027 461.92932 0.98578066 -0.066177964 0.15445693 0.048615199
2361.7014 785.78741 496.29877 0.80157572 0.074142717 0.59327841 0.043724395
2374.2236 936.00055 464.82513 0.99802226 -0.00019285252 0.062861152 0.049225505
2387.6277 884.92059 422.50351 0.80565876 0.20444849 0.55598092 0.056090727
2381.1174 973.94781 424.14273 0.99087811 -0.046297006 0.12655893 0.048066135
2386.6365 792.33667 456.62296 0.87043458 0.13232416 0.47416663 0.05839666
2380.0942 954.8916 423.23102 0.97386467 -0.09648411 0.20561725 0.042799886
2374.009 915.96149 462.87497 0.9913969 0.038524956 0.12509203 0.053563379
2389.665 775.12958 457.33841 0.87810481 0.17106773 0.44684207 0.055070475
2378.9355 826.06873 457.08008 0.82064152 0.24939436 0.51414973 0.048486739
2381.281 993.99023 424.87399 0.98490602 0.013366003 0.17257316 0.064829327
2381.0923 963.92914 420.18231 0.9843412 -0.063872352 0.16429473 0.047334969
2367.666 880.91559 497.04111 0.99021387 -0.12545523 0.061135355 0.02725851
2399.1736 954.40967 379.86185 0.79449242 0.26834258 0.5447697 0.073175661
2367.7849 784.44495 488.98495 0.88084811 0.10354836 0.46193549 0.040479977
2369.0073 900.99933 499.00092 0.98868877 -0.085461959 0.12325073 0.034498967
2375.6541 749.93481 485.52023 0.58135647 0.10958917 0.80623502 0.036571521
2373.9451 884.90155 455.1792 0.97738534 -0.10180674 0.18534635 0.05259151
2380.4658 943.78748 418.87701 0.96773386 -0.059348673 0.24488547 0.053075176
2389.9275 795.70135 449.82483 0.86313069 0.12437059 0.48942551 0.067233644
2376.9968 982.55249 462.98383 0.9972235 -0.07441856 -0.0026895851 0.070613928
2375.8921 964.00995 461.99881 0.99570411 -0.091929466 0.011059922 0.049736831
2380.1797 829.65967 452.54645 0.7918092 0.23964612 0.56178993 0.046551585
2373.791 865.03564 453.6333 0.94263232 0.018745814 0.33330595 0.058392979
2374.3735 922.26898 457.36432 0.99748552 0.042092841 0.057016551 0.057913713
2375.2937 846.09399 453.75012 0.87284189 0.18038242 0.45344153 0.053157706
2374.5642 941.81439 459.05765 0.99909467 -0.040627893 0.012620021 0.051768295
2385.4419 813.10913 451.33774 0.77966356 0.19252309 0.59586877 0.049927428
2381.9834 986.95337 422.3205 0.98592651 0.011441124 0.16678745 0.0628106
2395.6079 873.18219 416.43814 0.78829753 0.23623702 0.56813651 0.057889815
2390.3604 989.62109 380.12497 0.83506811 0.15434229 0.52805275 0.1147292
2368.4849 823.96692 491.06915 0.98772866 -0.067450412 0.14086351 0.034981687
2370.5632 767.43536 488.21558 0.77101445 0.21472478 0.59952486 0.029262988
2366.9929 803.9635 489.32617 0.94947672 -0.034905557 0.31189033 0.036198925
2390.6533 890.1629 416.50006 0.77896357 0.19421519 0.59623504 0.055880614
2393.3972 971.55646 381.06934 0.77811635 0.22438943 0.58667225 0.078887604
2385.2607 907.35376 417.87292 0.80109775 0.22479899 0.55471414 0.058390822
2367.4211 860.26495 494.17035 0.99747151 0.05977954 0.038432203 0.034539279
2374.7734 906.10333 456.63953 0.99331373 -0.031815846 0.11097557 0.055276491
2381.6689 925.38629 418.58853 0.91342121 0.096175492 0.39548954 0.076221026
2375.9841 731.18286 486.93481 0.55931503 0.051548459 0.82735085 0.080555879
2404.085 937.19464 376.39609 0.92630261 0.16617519 0.33815566 0.10014629
2367.7258 842.97607 492.96606 0.98873436 0.086275652 0.12231451 0.035658661
2397.354 970.01794 376.72888 0.75505209 0.22916076 0.61431396 0.082814328
2389.3562 810.08771 447.27576 0.77609402 0.19117434 0.6009413 0.056501098
2368.74 818.85687 487.37061 0.97490847 -0.080202617 0.20765604 0.034961276
2370.6245 917.01227 496.94165 0.98763496 -0.032261908 0.15341578 0.027591817
2370.8921 782.11188 484.58203 0.83289582 0.1044812 0.54347795 0.0356851
2379.3787 844.3634 449.0856 0.76931787 0.20278913 0.60582715 0.047161661
2367.8743 855.49072 489.59665 0.99374467 0.070938349 0.086251125 0.031788621
2393.7478 887.48553 413.62341 0.71797812 0.1994603 0.66687554 0.057790279
2374.9482 938.99518 455.29636 0.99719399 -0.0012148275 0.074850857 0.053287253
2370.7268 935.71631 498.82089 0.97390217 -0.074133977 0.21451968 0.022995824
2383.3289 826.07581 449.5657 0.76730722 0.24797155 0.59139639 0.043438267
2374.843 880.88354 451.58234 0.9518069 -0.060155015 0.30074075 0.057748333
2375.3904 902.14948 452.42569 0.98675287 -0.040858109 0.15700139 0.055532675
2368.1919 838.00629 489.02765 0.98924905 0.032315701 0.14262544 0.033755846
2398.8296 870.57977 413.45288 0.76008016 0.24085008 0.60354733 0.066779658
2382.177 943.06329 414.88867 0.93029463 -0.020861059 0.36621946 0.064923957
2375.8547 961.11719 457.91171 0.99188995 -0.10151757 0.076475292 0.049948845
2367.7466 874.698 492.53021 0.9869957 -0.079558477 0.13967785 0.032161757
2369.1216 897.08136 494.88547 0.98745626 -0.091434896 0.12872384 0.03034037
2382.1211 979.93317 418.28607 0.99054462 -0.03120487 0.13359478 0.051660538
2384.8721 922.97626 413.91122 0.81236446 0.15059325 0.56336993 0.068687871
2402.6614 952.11902 375.21945 0.82735795 0.25287279 0.50153184 0.089299358
2388.9746 905.68304 413.18677 0.76146543 0.23538746 0.60395628 0.059369192
2376.2632 764.21631 481.87427 0.77030766 0.22057049 0.59830993 0.023406874
2375.6438 861.29626 450.36905 0.88364518 0.099015094 0.45756668 0.058872242
2391.873 790.59442 446.98395 0.88184261 0.13533656 0.45170522 0.069044366
2384.8701 730.11499 479.34537 0.62543643 -0.033770818 0.779544 0.072245397
2380.5393 746.9173 482.37524 0.59005791 0.10591404 0.80038357 0.040841889
2368.5125 799.0127 485.75391 0.89494145 0.0075013023 0.44612053 0.039355028
2374.8499 918.23322 453.40887 0.99677837 0.039737344 0.069669239 0.055879876
2382.146 963.29382 417.01044 0.97812605 -0.059206393 0.19940935 0.051226199
2376.8826 978.70874 459.30984 0.9962284 -0.059432015 0.063220195 0.061064087
2377.9985 998.68628 461.33505 0.99347526 -0.077953778 0.083247319 0.10109227
2392.9934 986.94257 377.01855 0.7839579 0.18504021 0.59259611 0.099470183
2403.6243 941.25726 376.70322 0.9143998 0.20119597 0.35127366 0.095204532
2389.4917 996.77374 378.95929 0.80873924 0.21998397 0.54547954 0.13792855
2401.5105 961.8064 375.13785 0.80488741 0.20797524 0.55579007 0.10065737
2394.8611 978.69458 377.54077 0.81172729 0.20620917 0.54642165 0.088567853
2396.2903 999.51483 370.90442 0.67720109 0.047824658 0.73424208 0.12197823
2376.5681 751.91541 484.48508 0.63748246 0.12488715 0.76027584 0.036656052
2372.1968 768.33453 485.9418 0.76754892 0.21455283 0.6040163 0.027271761
2368.876 785.32483 486.66541 0.86126637 0.097275175 0.4987562 0.041057166
2381.7747 829.54236 450.33325 0.77666223 0.23735465 0.58348823 0.04829412
2375.0542 900.9024 452.72006 0.98982191 -0.019116482 0.14102188 0.051515188
2370.9182 937.92896 498.20905 0.97229004 -0.075220264 0.22134578 0.019626563
2368.6836 822.95953 489.13654 0.97897983 -0.057977933 0.19554311 0.036365546
2367.3516 859.20374 491.49323 0.99256462 0.046470046 0.11249918 0.030846631
2369.498 901.33527 495.37549 0.98012453 -0.093834132 0.17478849 0.032216601
2367.5842 803.94385 487.5202 0.94954568 -0.033641491 0.3118192 0.036795642
2377.137 846.6911 451.12582 0.81438571 0.17941989 0.55189168 0.055820856
2368.1399 841.25787 490.46399 0.98600924 0.08097145 0.14570308 0.032961693
2390.25 794.69806 449.42609 0.85975814 0.14121512 0.49078944 0.065276735
2386.0427 905.42804 417.0105 0.76412213 0.21638203 0.60769749 0.058572367
2374.5422 863.31598 451.2998 0.92235613 0.05258875 0.38274482 0.059632394
2374.9282 922.04022 454.08823 0.99458838 0.043098435 0.094532914 0.054645315
2387.1519 813.28778 448.84741 0.78967804 0.19728316 0.58093715 0.05545916
2383.4089 922.48633 415.58093 0.82437587 0.16643396 0.54102147 0.073481992
2393.4124 889.11224 413.3486 0.74766552 0.20348641 0.63213098 0.061363976
2373.4209 879.32227 451.9888 0.98027325 -0.063755415 0.18708186 0.055115413
2370.5845 918.93457 497.27277 0.98469144 -0.040674753 0.16949441 0.028095953
2377.0056 733.18237 486.08783 0.54404485 0.049463347 0.83759689 0.075579911
2367.7178 878.77759 493.24783 0.98172098 -0.12712272 0.14164641 0.026947042
2381.3972 997.48322 417.8848 0.98780894 0.074615262 0.13662361 0.080019556
2376.9531 978.76416 458.25085 0.9962284 -0.059432015 0.063220195 0.061064087
2371.7371 957.95007 500.1907 0.96604621 -0.06546171 0.24993894 0.033630278
2398.6445 969.50116 375.27902 0.76745903 0.23389067 0.59691024 0.078280509
2404.1201 952.77008 373.47299 0.83707941 0.21876985 0.50143576 0.097963981
2382.2593 979.99219 418.03964 0.98807609 -0.02978749 0.1510575 0.051359169
2374.6714 937.94141 454.72086 0.99653977 -0.0067348899 0.082843959 0.057287712
2393.1365 985.98914 377.13452 0.7829237 0.18721253 0.59328067 0.097533353
2381.0571 956.37927 416.35071 0.98340273 -0.075763658 0.16486041 0.04563497
2375.5288 958.6983 457.24969 0.99389744 -0.084979542 0.070330605 0.052565392
2381.2949 938.86749 415.99918 0.95290011 -0.020054562 0.30262056 0.0600091
2377.9351 996.21448 459.82996 0.99345011 -0.078544885 0.082991615 0.098293334
2374.5151 935.12793 459.12305 0.99972123 0.017015871 0.016367886 0.054322656
2403.9109 930.47943 377.95157 0.93906724 0.15466744 0.30697012 0.097976692
2374.2642 897.90723 457.27835 0.99170732 -0.040633921 0.1219241 0.053461734
2379.865 935.95068 420.20499 0.95207047 -0.0068378593 0.30580235 0.060236789
2375.2271 955.68762 462.09006 0.99705499 -0.073689066 0.021243334 0.046909679
2386.5613 902.1651 418.37878 0.80526412 0.23693644 0.54351705 0.06288296
2387.9856 1000.6993 381.78378 0.90169144 0.10534114 0.41935167 0.14597207
2381.8047 977.97247 422.11694 0.98904103 -0.033852294 0.14370735 0.052086279
2394.7703 965.96985 381.33829 0.77110052 0.26324245 0.57974774 0.07716202
2400.7163 948.64575 380.0571 0.80532008 0.2810156 0.52200562 0.084946863
2380.8174 957.92688 421.15234 0.97929525 -0.087567516 0.1825179 0.045784261
2381.0598 997.9455 423.86612 0.98838937 0.057313818 0.14071789 0.077965163
2374.4448 918.02246 459.03766 0.9951821 0.050181203 0.084228531 0.05338724
2390.3208 982.77869 382.26636 0.84556097 0.20544216 0.49276781 0.099084601
2377.3201 995.89893 465.10745 0.99941766 -0.023379868 0.024854615 0.10653058
2376.76 976.85565 464.02493 0.99859458 -0.052226719 0.00901582 0.061419204
2380.9802 918.3902 420.3132 0.8891229 0.17707787 0.42202353 0.065320522
2371.6743 857.69531 464.19962 0.96840686 0.088723391 0.23305871 0.04172023
2377.8586 820.56378 461.95496 0.85874611 0.26050913 0.44123703 0.044297229
2391.3901 865.42645 424.95486 0.79912204 0.24513905 0.54891783 0.054503296
2387.2883 788.11743 456.75876 0.86197102 0.13319114 0.48914832 0.05416549
2382.5894 804.17505 458.8078 0.82432616 0.19938573 0.52984124 0.048844151
2371.6765 877.47552 466.01752 0.97962016 -0.087508559 0.18079419 0.046130296
2396.7153 848.89398 422.686 0.89964938 0.18829075 0.39392582 0.064181864
2374.3062 837.53796 462.68057 0.93597394 0.2183229 0.27620253 0.039355867
2381.9167 899.17822 428.23801 0.88924557 0.21308999 0.40476528 0.060840629
2379.2561 916.93817 428.6214 0.95797741 0.14365669 0.24827819 0.06580539
2373.3972 915.90491 470.7666 0.99534464 0.036375873 0.08925163 0.039753053
2379.6606 999.99933 436.95209 0.99017435 0.0020157921 0.13982375 0.045255788
2386.1233 881.78528 426.87341 0.83829701 0.21076649 0.50282758 0.049955044
2377.9165 938.00366 429.98355 0.98024154 -0.042977493 0.19307879 0.045853116
2373.3882 935.04517 473.91476 0.9993186 -0.017287137 0.032611258 0.039860427
2378.8398 957.89728 432.14047 0.97920305 -0.11976706 0.16375974 0.037156001
2401.9253 926.78693 386.48425 0.88748384 0.17594497 0.42592934 0.076720178
2391.1875 962.99927 390.56271 0.86430782 0.27095276 0.42374119 0.063137084
2372.9065 897.41693 469.44839 0.99091136 -0.081113502 0.107309 0.040209994
2396.583 944.47845 388.93622 0.83301926 0.25176314 0.49264002 0.066717722
2379.9934 978.88593 434.30023 0.98726779 -0.056485567 0.14870004 0.041179489
2374.8518 956.18958 476.01923 0.9960897 -0.087895811 -0.008921585 0.036758214
2387.7874 982.35864 390.62125 0.92804682 0.18621203 0.32257423 0.07675267
2397.4868 944.24701 387.44351 0.82386011 0.24683248 0.51022375 0.070229039
2378.4182 934.97961 429.52365 0.98337168 0.0077667157 0.18143813 0.052252576
2383.8052 898.42914 425.94867 0.8780272 0.2283861 0.42060429 0.069673248
2380.0989 976.09003 433.74265 0.98987156 -0.046880018 0.1340021 0.041080087
2379.1968 956.42651 431.40073 0.98180568 -0.11011071 0.15470362 0.039700426
2393.1499 864.89307 422.535 0.81851947 0.23533019 0.52406633 0.059265219
2387.8723 880.46393 424.66257 0.82801324 0.2086128 0.52045625 0.054285716
2397.0203 847.99084 422.27533 0.8936702 0.22661297 0.38729849 0.057444882
2387.6018 980.45972 391.80103 0.94238949 0.16651313 0.29012999 0.061211769
2392.406 961.83154 389.70667 0.86897665 0.24646834 0.4291071 0.06988845
2385.6887 999.2132 392.79187 0.97616661 0.056426972 0.20955849 0.0819465
2379.2273 998.34998 436.15897 0.98790658 0.094817884 0.12267902 0.051468149
2380.467 914.90143 427.86707 0.95503503 0.17658858 0.23816927 0.064411074
2401.2463 925.09161 389.47266 0.84359783 0.21687001 0.4912332 0.066200972
2373.7163 869.02496 452.56335 0.94900054 0.0030732076 0.31525943 0.057254463
2370.5476 773.64038 486.73087 0.80984324 0.20355929 0.55019772 0.030832693
2368.2512 829.9848 491.46426 0.99408364 -0.0035488114 0.10855928 0.032867916
2367.8086 850.18726 493.10464 0.99709642 0.066474311 0.037147731 0.02830069
2367.3855 809.84149 489.60318 0.96748471 -0.064286068 0.24462348 0.032766208
2390.3225 799.49127 448.51901 0.82408422 0.17430525 0.53898317 0.070494518
2377.5776 737.14545 485.47815 0.5363518 0.049458899 0.84254414 0.056150243
2380.8494 834.48108 450.28265 0.80355728 0.20902334 0.5573194 0.047107104
2367.7522 790.57013 488.04965 0.91270989 0.10949596 0.39366391 0.040736958
2376.2141 852.61224 451.16833 0.8818714 0.12812354 0.45374799 0.053484797
2371.3521 754.685 487.75748 0.57202178 0.11689685 0.81186587 0.028992523
2398.6746 863.79248 414.9364 0.79530936 0.25121969 0.55169892 0.072858803
2386.2739 817.33191 449.00494 0.76918721 0.20039777 0.60678804 0.045066398
2367.5857 869.99091 495.03186 0.99840218 -0.015505296 0.054338526 0.0376615
2368.2786 889.96094 498.01944 0.98794812 -0.13859476 0.068920121 0.028337834
2380.6379 934.07086 417.64294 0.94498783 0.00876748 0.32698798 0.058434613
2392.978 881.37891 416.20496 0.74738467 0.20702569 0.63131332 0.06362921
2388.896 899.93872 415.34946 0.75308758 0.24410053 0.61096156 0.060662348
2374.4426 890.87775 453.21658 0.98546475 -0.083499499 0.14794275 0.051651604
2375.2197 953.06622 459.96729 0.99555117 -0.084465146 0.04175562 0.04804685
2369.2561 909.98456 500.04147 0.98540479 -0.059346911 0.15954719 0.03780733
2376.5227 973.03223 461.97888 0.99675447 -0.067346983 0.044101208 0.054513089
2393.8403 982.16827 377.82336 0.80480927 0.2118583 0.55443496 0.093559846
2374.7031 931.96228 457.94321 0.99862146 0.02904297 0.043723032 0.050426446
2381.8806 975.96088 419.40897 0.98998183 -0.013442771 0.14055334 0.053414229
2381.3147 955.81903 417.492 0.97530133 -0.076241292 0.20730311 0.049771499
2381.2148 997.09302 421.14862 0.98974735 0.075775526 0.12107152 0.075468279
2377.3357 996.10699 464.72211 0.99796832 -0.022896487 0.059455678 0.10090621
2374.7637 911.04218 455.16226 0.99551362 0.023787975 0.091579624 0.05787899
2383.8345 916.8916 416.62915 0.80998284 0.18834372 0.55538678 0.062354207
2397.8298 962.94702 378.87463 0.78084499 0.24319071 0.57544708 0.079795629
2370.9978 772.4942 486.41583 0.79976898 0.19783755 0.56677145 0.028876724
2367.9517 789.47034 487.71973 0.91152465 0.10848561 0.39667836 0.040918708
2385.8335 817.21686 449.67477 0.76181769 0.19820283 0.61672479 0.045096211
2367.9463 882.4754 494.34921 0.98748833 -0.13126472 0.0873864 0.026679458
2397.6702 877.5246 412.00894 0.75124782 0.15328686 0.64197338 0.069912739
2367.8521 847.77911 491.57913 0.98879129 0.069388233 0.13220103 0.030235019
2374.9893 755.99774 484.98849 0.67202991 0.14431573 0.72632557 0.029129086
2367.6008 808.97119 488.18527 0.95458078 -0.0457699 0.29441571 0.0342931
2380.02 738.89587 483.65436 0.58751488 0.062432434 0.80680138 0.055524949
2367.408 864.27441 491.64783 0.99164343 0.050320204 0.11879028 0.033722728
2368.7422 827.92395 489.35504 0.99134779 -0.02748362 0.12835209 0.03127563
2380.8494 834.48108 450.28265 0.80355728 0.20902334 0.5573194 0.047107104
2374.021 867.09076 452.14249 0.9420383 0.014202022 0.33520463 0.062397663
2390.2693 801.31964 447.85284 0.85608041 0.15611847 0.49270007 0.069544949
2375.7458 849.93707 452.17188 0.86667353 0.14134586 0.47843322 0.052465584
2363.3831 737.86682 494.45761 0.53611791 0.044167571 0.84298682 0.064596877
2373.7139 905.17053 465.46179 0.99434465 -0.03207707 0.10124091 0.046408016
2398.2861 947.77271 384.65018 0.81392223 0.26896647 0.51496375 0.073768415
2376.7607 979.01294 470 0.99854541 -0.0539167 3.2942811e-05 0.057839248
2396.2083 857.21442 421.40256 0.84317696 0.23725398 0.48245531 0.067239352
2400.0496 839.70697 422.48337 0.84803444 0.26144964 0.46095735 0.071278296
2374.4097 942.07098 468.01633 0.99960512 -0.027385432 -0.0063005015 0.045156512
2390.0017 873.64685 424.31924 0.80614978 0.26049489 0.53128618 0.05312172
2401.957 931.54523 384.87833 0.86034691 0.19151363 0.47236186 0.083053581
2387.5283 781.29791 457.79013 0.89166081 0.096728869 0.44224936 0.062926397
2382.0889 906.82379 424.45166 0.8797726 0.23462625 0.41346189 0.066395588
2375.4551 960.05579 469.00845 0.99468583 -0.1017974 -0.015407485 0.044920158
2380.2754 924.92981 423.7579 0.9444949 0.091496125 0.3155278 0.074908115
2373.5698 848.48279 460.92606 0.94459224 0.14243318 0.29573348 0.054549411
2380.8188 997.04761 427.7937 0.98665869 0.0097509306 0.16251004 0.079122528
2384.3955 797.4776 458.26825 0.82134092 0.1647535 0.54612768 0.052091107
2381.0164 979.96729 427.12726 0.99174511 -0.031917375 0.12418922 0.050650589
2386.519 999.07208 387.15915 0.94775712 0.13156816 0.29059631 0.12193772
2361.6511 791.97534 498.7692 0.88573003 0.0092869382 0.46410784 0.044282693
2376.3677 830.10132 461.16208 0.887281 0.24448799 0.39109856 0.04499238
2371.5662 865.99493 461.90021 0.97447002 0.011360818 0.22423001 0.047514971
2373.7981 921.0379 466.11896 0.99759793 0.021012833 0.066006258 0.04963005
2393.6042 964.59192 385.16501 0.83236754 0.24335739 0.49793714 0.073855102
2372.2017 883.98047 463.03256 0.98273683 -0.095234729 0.15861487 0.042452559
2389.4492 981.11322 386.22882 0.86938363 0.21917337 0.44287145 0.092276648
2379.7773 958.42499 425.94366 0.98219341 -0.097762473 0.16043247 0.044685151
2379.3562 940.84613 424.64658 0.98094827 -0.044978391 0.18899046 0.057051934
2386.0437 890.30957 423.65189 0.82250607 0.24397826 0.51376885 0.056972928
2379.9561 813.98889 459.97443 0.84389925 0.21348973 0.49219525 0.043254267
2386.3008 737.26837 479.06528 0.59883666 0.069844224 0.79781979 0.069899417
2387.8328 942.92017 406.21512 0.82850546 0.056682322 0.55710489 0.055382274
2368.9023 861.04987 483.16962 0.98134398 0.054216139 0.18445766 0.028057711
2368.6968 876.4079 484.06537 0.98383754 -0.086987972 0.15651463 0.023717133
2399.4924 986.18384 369.98627 0.65919131 0.17370187 0.73163825 0.095573477
2383.6843 996.06604 408.48816 0.99117965 0.017766893 0.13132894 0.061559785
2397.9768 908.64685 403.04999 0.69386441 0.23337212 0.68124121 0.054717191
2371.4675 805.98999 479.71783 0.89828813 -0.0061173048 0.43936428 0.040265851
2379.0112 865.22864 443.78745 0.85808408 0.065150261 0.50935954 0.056184046
2382.5415 755.44556 476.06964 0.77442718 0.17466012 0.60807598 0.035633024
2378.0854 977.88733 449.25281 0.99130923 -0.053543758 0.1201628 0.040005609
2401.8201 891.68677 404.78448 0.68494403 0.18180881 0.70554745 0.064669207
2369.5425 843.65942 482.11459 0.97809565 0.074725412 0.19428061 0.026654819
2384.3242 979.00256 408.07162 0.97642636 0.0076807351 0.21571396 0.047938634
2376.0522 955.24097 446.89648 0.98641002 -0.10616828 0.12539372 0.035429705
2391.9604 925.34668 404.3454 0.74350315 0.15980548 0.64935756 0.049262512
2406.7112 969.8504 368.30969 0.62154126 0.19494991 0.75873643 0.085167497
2388.2222 832.36987 442.07077 0.73338974 0.22196369 0.64255083 0.044938818
2383.092 848.51288 442.70514 0.76150626 0.18668522 0.62069058 0.040423129
2375.4827 937.92963 445.5405 0.99509495 -0.012767287 0.098096892 0.04148148
2378.4607 771.51361 476.73856 0.7513479 0.2374192 0.61571789 0.024438551
2376.6746 900.83875 443.91116 0.98096496 -0.033843968 0.19121286 0.046271846
2373.5999 788.93408 478.72769 0.8191548 0.13495 0.55747098 0.034266517
2372.667 938.02472 488.95361 0.9877764 -0.073357679 0.13753697 0.022378875
2370.4434 898.854 486.17896 0.98743486 -0.09990304 0.12244108 0.024439624
2377.2239 882.90088 443.548 0.93870354 -0.022022169 0.34402141 0.061608408
2373.2944 957.00275 491.04068 0.99055195 0.009180611 0.13683048 0.028100008
2370.698 823.96527 480.4007 0.97307307 -0.019908465 0.22963542 0.034496296
2378.2969 996.91364 450.1499 0.99717516 -0.037503287 0.065078072 0.046499241
2371.9844 917.96436 487.27969 0.99005628 -0.017795607 0.13954158 0.023952652
2385.1714 959.94409 407.87161 0.92776477 -0.023893461 0.3723999 0.055334248
2375.7698 920.98828 444.97235 0.99160105 0.050493661 0.11907043 0.04342629
2392.5276 814.3476 442.22827 0.76735836 0.17461765 0.61698443 0.055135451
2392.1851 960.0083 392.30215 0.88888037 0.23107226 0.3955974 0.062403247
2398.1191 944.31781 389.19214 0.89562315 0.18649714 0.40382922 0.082710437
2388.5273 980.34454 394.79022 0.95078802 0.18577062 0.24797466 0.071167834
2368.0269 838.07373 489.3028 0.98838556 0.035938937 0.1476562 0.034896072
2367.6011 858.03619 491.06339 0.99270856 0.059768725 0.10467774 0.031245224
2374.7476 860.58337 451.49365 0.91342789 0.092708267 0.39630127 0.05866817
2383.3711 827.12048 449.29395 0.75970656 0.24666052 0.60166812 0.045072559
2369.9749 783.13055 485.64185 0.83003837 0.11118577 0.54651076 0.036881462
2368.709 803.07654 485.43533 0.90293276 -0.021002505 0.42926836 0.04281408
2388.7415 810.93628 447.79974 0.77609402 0.19117434 0.6009413 0.056501098
2380.7346 750.40308 481.21194 0.64831376 0.11851642 0.75209248 0.040674791
2378.4792 730.09894 485.18109 0.56091696 0.037509661 0.8270219 0.078697093
2395.2163 886.79083 412.27625 0.72086662 0.19242547 0.66582561 0.057980262
2368.7122 821.14642 488.51221 0.97610795 -0.062473413 0.20811124 0.035445739
2367.7625 878.15295 492.80759 0.98083544 -0.12124959 0.1525135 0.028760159
2369.2288 895.88342 494.14682 0.98855758 -0.093793049 0.11813859 0.029058989
2374.9243 879.90942 451.63358 0.94889575 -0.044673376 0.31241181 0.056946147
2391.1011 792.33276 448.0936 0.87841982 0.13911638 0.45719287 0.065373294
2375.4763 766.66895 482.27487 0.75277531 0.22150034 0.61989266 0.024603745
2378.4834 844.3844 450.06726 0.79436642 0.20583241 0.57150245 0.05037789
2376.8889 977.00598 457.9942 0.99719065 -0.053942233 0.051971719 0.058143333
2374.9797 919.89337 453.82886 0.99505574 0.052526612 0.084291227 0.053554632
2374.8362 935.92285 454.52078 0.99595618 -0.013161026 0.088870794 0.055766229
2394.8394 984.49518 375.46042 0.76630938 0.20629776 0.60844982 0.092446096
2375.2419 954.56342 456.32492 0.99465424 -0.08283671 0.061652374 0.047602631
2382.4072 975.9519 416.5636 0.98649836 -0.013925669 0.16317804 0.051734995
2384.7676 920.1723 414.5368 0.80591536 0.18094635 0.56370109 0.069975436
2391.4839 904.49176 411.04349 0.72950107 0.2436361 0.63911629 0.057766408
2382.1514 995.09967 417.54013 0.99136132 0.023804575 0.12898113 0.069101565
2381.6294 937.01849 415.6683 0.94076997 0.0037640722 0.33902463 0.064836122
2375.189 899.99225 453.02982 0.98697555 -0.040550817 0.1556755 0.0525214
2381.5833 955.6626 415.95154 0.97658736 -0.071898349 0.2027505 0.049699713
2390.6531 1000.5004 377.12436 0.82692653 0.088923685 0.55523431 0.14008069
2400.218 967.0697 374.17017 0.7643733 0.2444326 0.59664577 0.07977213
2377.5056 996.99426 460.04327 0.99629527 -0.011317069 0.08525084 0.096028596
2370.614 915.98547 496.09903 0.98696935 -0.023377106 0.15920098 0.027369536
2370.928 936.00555 497.98395 0.97339499 -0.07462582 0.21664076 0.022048131
2371.8008 956.05444 499.7074 0.97055852 -0.0440729 0.23679885 0.031542677
2378.3396 834.36536 453.86472 0.81893402 0.2233426 0.52864462 0.043084845
2398.2896 859.73938 417.66064 0.78315896 0.25292119 0.56806064 0.06468273
2374.7969 851.49451 454.80637 0.89683181 0.11681083 0.4266707 0.053660043
2389.4573 894.56348 416.76266 0.76175195 0.21554349 0.61096233 0.056188121
2367.981 888.64001 498.59805 0.98277473 -0.15650481 0.09828563 0.030136026
2366.9204 809.0791 491.74689 0.97113222 -0.071171358 0.22767697 0.031147132
2367.3274 866.07111 496.0062 0.99855822 0.053477015 0.0046506342 0.035674881
2388.5125 799.8894 451.63733 0.78934652 0.17906271 0.58725518 0.06043756
2373.8936 890.11676 456.79227 0.97758275 -0.10316241 0.1835468 0.048352394
2369.7122 772.69849 488.00125 0.77705318 0.18190785 0.60257608 0.031046312
2383.6465 817.17126 452.52545 0.76012164 0.20139572 0.61778224 0.042812247
2367.8647 847.90662 494.9584 0.99596959 0.081935145 0.036486097 0.032521535
2383.3335 910.79913 420.04282 0.83537036 0.20025171 0.51191366 0.068825431
2374.3123 927.10577 459.28442 0.99753308 0.024469903 0.065794505 0.05252922
2374.5088 755.4823 485.43408 0.56869841 0.11818025 0.81401199 0.028112227
2378.1497 737.8241 485.07849 0.53439724 0.050795723 0.84370577 0.05364909
2380.8926 929.14807 419.74167 0.92859906 0.072651647 0.36390314 0.075292006
2373.2148 868.95593 455.26346 0.97184962 -0.008217467 0.23545867 0.050096363
2366.584 790.05176 490.32156 0.87335491 0.07742957 0.48089072 0.042422056
2374.5312 910.0119 458.68616 0.99200559 -0.0047920053 0.12610307 0.053093579
2392.7932 875.8371 419.04788 0.783907 0.23492646 0.57471675 0.056497149
2368.2019 829.0481 493.78833 0.99279398 -0.026541501 0.11685733 0.034076348
2403.3792 940.31836 378.68701 0.87656045 0.20237072 0.43667829 0.094254613
2376.3196 969.15869 463.99011 0.99555349 -0.094015203 0.0058600423 0.045453925
2377.179 989.06879 464.95001 0.99891227 -0.037716046 0.027418815 0.081699982
2380.9937 969.00037 421.99905 0.98769861 -0.053967342 0.14676175 0.048277538
2393.333 974.85596 380.4162 0.79268759 0.203566 0.57463664 0.078667462
2380.9326 951.51416 419.92816 0.97356784 -0.098778874 0.20593299 0.048152119
2398.4893 957.74445 379.84689 0.7808978 0.23353434 0.57936203 0.077279359
2381.5945 987.02026 423.21594 0.99087608 0.012583654 0.13418715 0.061162148
2389.6714 993.29724 380.13028 0.81951386 0.14574718 0.55421543 0.1258505
2374.7617 946.83069 461.07867 0.99772334 -0.061158773 0.028420512 0.048759371
2401.2808 897.08368 403.28214 0.6901716 0.20579882 0.6937651 0.058391113
2389.1016 931.32056 405.68585 0.77455592 0.11814784 0.62137282 0.051940206
2387.0166 951.99591 405.46152 0.87710416 0.0036471535 0.48028639 0.05743755
2376.1741 946.12476 448.5712 0.98774195 -0.04361549 0.1498784 0.048202906
2393.6018 835.66187 435.73453 0.70133322 0.21336806 0.68015128 0.041071836
2385.8774 852.78052 437.11954 0.78313142 0.18643908 0.59325004 0.04603678
2408.0894 980.36176 364.70181 0.62521702 0.20883134 0.75199282 0.087156795
2384.8428 972.94781 407.91733 0.96764988 0.012140287 0.25200474 0.049027767
2377.5132 969.5224 451.13867 0.98815554 -0.079580128 0.13120829 0.04626948
2375.9609 927.47845 445.80188 0.98704547 0.064034522 0.14710823 0.048044868
2397.5007 915.64185 400.7702 0.71158278 0.21479495 0.66896421 0.055650357
2381.04 870.73828 439.74869 0.86789769 0.057356954 0.49342051 0.053743687
2378.1643 888.03699 442.37936 0.94715196 -0.019084509 0.32021704 0.053641073
2377.1501 906.96619 444.20309 0.97920352 0.0085931867 0.20269826 0.049442556
2401.0366 998.66052 365.79312 0.6093086 0.21469925 0.76331335 0.13552265
2383.5898 990.99158 409.93945 0.98906976 0.020312574 0.14604239 0.059239458
2381.5291 754.49084 478.64661 0.71619779 0.14757152 0.68211681 0.036011901
2385.5088 737.05933 479.67798 0.59883666 0.069844224 0.79781979 0.069899417
2370.3525 906.14044 492.70947 0.98135227 -0.08366254 0.17305572 0.029904848
2393.2153 995.55328 374.58633 0.77229083 0.1328976 0.6212126 0.13131723
2376.3171 771.52948 479.64716 0.76150292 0.21291298 0.61219388 0.025259143
2382.7778 990.862 416.34641 0.98771524 0.032278668 0.15289427 0.064587414
2375.1624 945.59882 453.43903 0.99342984 -0.077199236 0.084483273 0.049069315
2389.6926 913.3761 410.1019 0.75597191 0.20441224 0.62186986 0.051284675
2370.9524 789.1228 482.60504 0.83908498 0.10819028 0.53313339 0.039514195
2368.7578 885.17767 490.80042 0.97763348 -0.13982636 0.15710308 0.026882676
2395.9927 896.43542 409.04504 0.70228904 0.19751051 0.68394423 0.058335021
2376.4678 870.00415 447.73541 0.8940379 0.0025214171 0.44798422 0.053834271
2403.5786 961.18561 372.46814 0.75424349 0.24197832 0.61037964 0.089791454
2375.4287 888.97003 449.10867 0.96713275 -0.067548998 0.24513552 0.056010388
