# .PCD v0.7 - Point Cloud Data file format
VERSION 0.7
FIELDS x y z normal_x normal_y normal_z curvature
SIZE 4 4 4 4 4 4 4
TYPE F F F F F F F
COUNT 1 1 1 1 1 1 1
WIDTH 636
HEIGHT 1
VIEWPOINT 0 0 0 1 0 0 0
POINTS 636
DATA ascii
1033.5557 883.00677 108.83069 -0.6093601 -0.24004725 0.75568354 0.14562072
950.1604 984.48383 91.304543 0.25016031 -0.93296766 0.25882643 0.16058311
937.22095 945.19299 34.542854 0.064966731 -0.14935692 0.98664677 0.17695376
937.23346 949.1897 53.392479 -0.46777698 -0.45860907 0.75555438 0.16920771
943.92047 935.96765 49.092388 -0.63065571 -0.25642091 0.73247641 0.18725105
991.88837 944.23279 81.63604 0.87074101 -0.21337532 -0.44303623 0.23528172
982.61829 940.83984 99.295036 -0.64830059 -0.33644986 0.6830138 0.17752221
968.86597 999.3916 111.50145 -0.57345706 -0.3076674 0.75926793 0.11786202
943.60321 956.50372 51.64653 0.41129765 -0.75914192 0.50451738 0.23441052
969.62909 955.61078 90.793839 -0.65063876 -0.65933394 0.37675974 0.18204531
976.84937 968.05524 108.08371 -0.58558309 -0.31265569 0.74788958 0.10213906
980.84039 929.95447 93.737038 0.63977915 0.52268398 -0.56345725 0.18579775
988.31946 918.74097 93.302658 0.86301768 0.32846722 -0.38380963 0.18436469
984.92957 953.06714 106.88322 0.70180625 0.31620178 -0.63834506 0.11580536
977.87122 961.57465 106.17466 -0.5701893 -0.31270942 0.75966901 0.09892083
970.89612 969.53656 104.12322 -0.51635188 -0.26480141 0.8144083 0.10574005
934.12634 918.92816 44.752022 -0.43948698 0.24991947 0.86278123 0.1492338
968.97382 978.40607 104.09391 -0.56726706 -0.2987937 0.76741803 0.089860193
963.93109 939.77667 65.501678 -0.63579649 -0.068629608 0.7687996 0.17626232
932.15979 944.30774 47.21191 0.41079372 -0.61002338 0.67758393 0.25114903
963.9585 930.61865 62.646133 -0.60690671 -0.11336865 0.78664595 0.14743175
938.41248 956.72839 58.999424 -0.47122633 -0.57661521 0.66742837 0.23169428
919.52643 930.55347 42.621178 0.073980249 0.358836 0.93046421 0.20048909
970.5061 971.98535 102.32373 -0.53993362 -0.3622081 0.75978744 0.086465396
962.93805 984.48419 102.42383 -0.59450167 -0.14852881 0.79025751 0.10039145
950.92554 905.9978 53.101372 -0.55332935 0.00063668506 0.83296233 0.11043268
974.15149 933.50824 80.211487 0.77526963 0.34220341 -0.53089911 0.23195037
969.59033 946.53265 86.184196 -0.63201106 -0.72097731 0.28417206 0.22419125
961.03217 975.48798 98.42263 -0.61630267 -0.30243474 0.72712052 0.095153749
918.73865 931.97736 35.436993 -0.42579734 -0.23935089 0.87258685 0.25922656
942.01172 940.52618 49.785988 -0.6074037 -0.31592488 0.72887051 0.19583249
971.69055 938.53668 81.126015 0.74302024 0.42437178 -0.51752251 0.2240431
937.58051 941.40759 49.560089 -0.57833093 -0.38888243 0.71714979 0.16504756
929.72144 934.94305 40.782028 -0.033466045 0.35353458 0.93482262 0.21924892
986.69373 923.33759 79.132149 -0.6521771 -0.08141882 0.75368166 0.1707923
978.41907 954.16882 103.97598 -0.59802407 -0.28894332 0.74758208 0.096367791
988.81897 897.76141 80.096596 -0.61631674 -0.2924726 0.73117262 0.15386362
973.37823 895.53918 66.424149 -0.67048234 -0.15200295 0.72618771 0.14993608
937.94208 935.59052 43.612209 -0.61420059 -0.12221441 0.77962893 0.2092362
985.172 938.79071 76.317841 -0.51525861 0.10643239 0.85040033 0.18271597
945.71875 920.18958 50.278667 -0.24727252 0.56250674 0.78895026 0.15234415
971.40857 952.54047 69.912071 -0.47331873 0.16073936 0.86610174 0.24047351
929.85089 916.55096 47.957302 -0.13692151 0.54225928 0.82897973 0.088298716
1047.9987 878.16803 119.36747 -0.57077777 -0.16672859 0.80399895 0.17841166
1053.8777 871.02814 121.42565 -0.52309644 -0.18690076 0.83152765 0.11540125
984.25305 952.61627 73.129654 -0.5265817 0.30984217 0.79164988 0.2202241
1014.8109 894.00897 99.720917 -0.51374429 -0.42814514 0.74347734 0.089009658
924.72583 934.83795 39.962765 -0.27035016 -0.15981172 0.94940561 0.25899726
936.42706 947.5827 43.088345 0.58779663 -0.58689904 0.55681652 0.21038193
1065.9467 880.92151 133.06471 0.71012986 -0.058894273 -0.70160323 0.19069077
1069.8215 859.68011 136.49904 0.90073496 0.090654217 -0.42480388 0.18305604
1062.9594 864.34027 158.43712 0.83305776 0.37729391 0.40455416 0.17510588
1054.2045 884.21259 128.05995 -0.57846302 -0.39940545 0.71123546 0.24226092
1046.0129 893.00177 149.19113 0.69456607 0.61663938 -0.37058577 0.10808203
1002.8703 984.77075 144.81044 -0.52325273 -0.46338785 0.71517712 0.12629886
1033.5037 907.54736 130.37105 0.24448234 -0.70516956 0.66555566 0.18478821
1037.3104 870.07245 107.66326 -0.66950327 -0.15624021 0.7261917 0.12553026
1044.3837 863.29858 111.39221 -0.54404068 -0.23607695 0.80516297 0.15979333
1057.1672 916.33075 111.09344 -0.58905578 0.2339856 0.77347529 0.095101312
1068.7386 881.8819 135.20102 -0.67486364 0.10790583 0.73001057 0.20741329
1060.6835 853.29132 121.49949 -0.60409451 -0.14107548 0.78432614 0.10972723
1031.7073 878.54352 105.14267 -0.66155702 -0.21060517 0.71971369 0.13549376
1001.5913 909.07928 100.75703 0.69503284 0.4713881 -0.54288363 0.1200284
1052.4634 859.31995 117.22604 -0.58662409 -0.087938875 0.80507076 0.11996789
945.11682 987.08026 89.874023 -0.61611706 -0.42313012 0.66434979 0.15482827
939.67737 954.62854 39.145504 0.54710007 -0.52529973 0.65172213 0.15045936
1047.0173 858.00665 112.97234 -0.5200569 -0.19901371 0.83062291 0.13696472
1071.9564 915.41833 121.6572 -0.54708922 0.33273697 0.76810122 0.070182137
1072.0524 912.97656 125.94644 -0.66687381 0.29871902 0.68267578 0.16472079
1045.3644 889.9884 109.47478 -0.6511187 0.19511367 0.73346788 0.10999121
1064.8196 912.37714 118.6637 -0.48588422 0.369261 0.79218864 0.13489898
1060.7639 913.43414 115.74623 -0.48549595 0.35963029 0.79684359 0.15280861
1045.7028 884.62897 111.13511 -0.65223008 0.16872019 0.73900568 0.11524222
1054.057 911.95618 112.88522 -0.42102239 0.32344922 0.84742004 0.15729137
1055.858 932.05475 104.16087 -0.64110547 0.2472731 0.72652578 0.055348564
1012.9913 891.59509 95.975754 0.63800383 0.44624147 -0.62755054 0.090237901
1055.9463 930.63507 104.89454 -0.63078791 0.24323314 0.73684752 0.061986778
1014.0899 889.40759 95.169518 -0.57878941 -0.48251954 0.65740228 0.098020516
1049.4738 877.03021 118.21244 -0.51523441 -0.032872137 0.85641867 0.12765162
1036.0265 875.12042 112.39276 -0.57103926 -0.25359222 0.78077215 0.13361298
1067.8274 920.51404 116.72945 -0.54492474 0.23890115 0.80373085 0.041029561
1043.6479 865.90887 112.5665 -0.53569573 -0.29544905 0.79103726 0.14317738
1044.9294 877.43427 116.30219 -0.52751553 -0.078201503 0.84593844 0.14148648
1046.5984 850.39008 110.50398 -0.47778073 -0.20789976 0.85352403 0.15845683
1057.5995 858.99457 119.34365 -0.64310282 -0.062169973 0.76325202 0.12387564
1040.8043 850.74506 103.84068 -0.63503319 -0.36284584 0.68196464 0.17363481
1055.2882 906.0116 113.36282 -0.55432051 0.32757357 0.76513028 0.086323276
1041.0023 857.68695 107.14194 -0.5848062 -0.39260492 0.70983315 0.1391667
936.862 950.80859 54.943569 -0.56207293 -0.44029146 0.70015532 0.17600824
951.52625 932.86908 54.568443 -0.6304155 -0.17424293 0.7564494 0.15715826
955.57977 916.49243 54.922863 -0.56865865 0.081876807 0.81848854 0.12882778
968.71655 914.64508 59.439434 -0.44696927 0.34642535 0.8247472 0.15020299
929.92059 931.28595 42.659931 -0.010690918 0.44243905 0.89673483 0.21121895
968.71344 964.28467 63.861259 -0.48864669 0.042322841 0.87145466 0.18688643
925.46021 963.83948 61.128551 -0.48717898 -0.5405792 0.68587959 0.16694981
910.74506 943.10156 39.047199 -0.32808912 -0.5831309 0.74317962 0.18954052
944.39325 911.95996 49.006889 -0.57285571 0.01646213 0.81949091 0.13315079
933.41107 959.73035 59.901073 -0.52414769 -0.57320732 0.62984329 0.22592813
928.35474 937.70538 41.191296 -0.28016084 -0.12790754 0.95139349 0.24550425
943.49695 952.46704 48.141262 0.33855605 -0.72929853 0.59456152 0.23117179
944.81073 971.2688 42.708103 -0.59069288 0.3423346 0.73067707 0.21266939
939.35474 954.81799 44.239067 -0.60991573 -0.12770545 0.78210878 0.21870786
1060.9518 880.95435 126.98501 -0.68365103 0.032803364 0.7290715 0.16096869
1034.0176 885.22296 117.5434 -0.5867613 -0.5092749 0.62956357 0.13510935
1068.2322 847.69171 123.47046 -0.56690246 -0.36055878 0.7406882 0.11027473
1045.5587 881.10107 120.16071 -0.5676474 -0.38614061 0.72709823 0.20691322
955.9762 926.93011 59.6045 -0.64559036 -0.20176224 0.73654944 0.13971534
973.42023 994.81458 112.88183 -0.55620182 -0.33955878 0.7585113 0.10991473
958.2804 989.70428 100.10987 -0.5531466 -0.11875976 0.8245756 0.11263438
1071.0413 861.32965 139.85976 0.92890328 0.12557618 -0.34838104 0.18117228
1069.3693 870.83075 139.33736 0.82875085 0.3683449 -0.42130041 0.17559053
986.33734 943.52466 82.431961 0.93272221 0.1424133 -0.33128193 0.25386551
1054.6967 911.1781 112.52618 -0.47922093 0.28135601 0.83137602 0.14134517
990.49829 921.91364 84.913757 0.93701452 0.0077076573 -0.34920529 0.17074361
994.95312 944.19965 82.832855 0.97675645 -0.16467649 -0.13721712 0.20059873
1060.3414 905.34479 116.44833 -0.58339065 0.29509366 0.75668693 0.057987381
936.67358 964.96246 71.813057 0.50423521 -0.75927889 0.41139081 0.14788878
956.41754 973.72839 76.12545 -0.27792549 -0.87444192 0.3976289 0.16382577
942.44855 970.99542 32.998055 0.71439332 -0.49544087 -0.49414626 0.17720452
938.27405 961.98914 36.114174 0.81210631 0.0015402284 -0.58350748 0.18466488
1023.2302 906.03009 129.80315 0.63566893 0.44223499 -0.63273478 0.1162314
1031.0818 905.78253 134.52626 -0.55359602 -0.37737912 0.74237221 0.13677849
1058.5977 878.55731 152.55341 -0.6555047 -0.66151357 -0.36429843 0.16457589
1013.8764 917.90454 125.18347 0.7029376 0.16402577 -0.69207966 0.073956259
1018.6436 910.47205 128.04092 -0.55850655 -0.41759348 0.71671903 0.12249877
1050.5205 897.91876 144.22025 0.71198434 0.5054087 -0.48748365 0.15789981
1035.2012 901.43768 136.07033 -0.54809201 -0.31802449 0.77359909 0.13245887
1061.7238 874.24768 152.7713 0.74300563 0.44421786 0.50061274 0.11675316
1056.7428 886.7522 152.94131 -0.70158362 -0.71042758 0.055434931 0.17415588
1043.8947 901.73547 140.16908 -0.53772438 -0.51573938 0.66698229 0.15742496
1062.4922 865.38525 156.72971 0.78307551 0.36046663 0.50681013 0.12466262
1063.4111 855.01526 159.23038 0.87194359 0.032363392 0.48853558 0.13382673
1054.9047 894.76703 149.29721 0.66649735 0.63491863 -0.39071685 0.19116828
1017.3445 915.19739 127.72285 -0.60153568 -0.21535613 0.76927012 0.091246367
970.4541 923.83588 92.388908 0.77212864 0.25857762 -0.58047819 0.19558585
977.25031 924.79584 95.850807 -0.56217861 -0.32679114 0.75971228 0.20766942
959.33624 936.08698 78.287697 0.77198708 0.52930862 -0.35194936 0.12748775
966.24548 928.71967 87.707611 0.79737443 0.37244147 -0.47484878 0.17396121
981.46405 922.41205 102.44999 -0.26118743 -0.55068862 0.79279453 0.15916879
975.35828 927.53156 94.050041 -0.57177317 -0.2744171 0.77315629 0.20396082
958.94037 937.7077 74.67643 0.78052443 0.49830142 -0.37746164 0.1510891
966.55792 934.82159 86.807655 0.77472734 0.47187504 -0.42086998 0.18950516
963.87616 933.35992 84.232918 0.83105677 0.4450455 -0.33358532 0.15272667
985.99487 924.65167 102.20403 -0.54855829 -0.38778001 0.74074996 0.18019553
970.03046 929.32397 89.798088 0.73432952 0.31655642 -0.60045993 0.20339622
979.71722 918.20105 104.12854 -0.095872164 -0.62534791 0.77443433 0.13314986
982.0639 926.94775 100.23569 -0.49807155 -0.41937044 0.75898165 0.17096613
1009.0111 921.32495 122.08759 0.69664711 0.23012154 -0.67950493 0.094739333
960.50043 931.81122 80.46769 0.84883565 0.45725909 -0.26531512 0.12678087
1003.7925 984.06055 143.81706 -0.59411538 -0.35151136 0.72350997 0.12316214
966.33173 940.11371 65.166656 -0.57882279 0.017942583 0.81525594 0.16603246
993.7088 971.10065 125.58379 0.78280747 0.3072691 -0.54110831 0.11056729
953.3053 929.8667 43.35606 0.82331723 0.16436778 -0.54326046 0.17458062
933.88855 914.09625 47.279194 -0.35313565 0.30499464 0.88446224 0.12730825
956.6994 921.78589 55.911873 -0.61890906 -0.057595819 0.78334814 0.13603993
952.36926 930.55823 46.115875 0.77179223 0.1492016 -0.6181227 0.15615673
971.38098 957.7168 65.868713 -0.38052946 0.1684781 0.90929228 0.20517178
947.42694 929.89447 51.565136 -0.68320704 -0.2518 0.68543774 0.160593
947.52179 927.84406 47.892281 -0.58072841 0.16530715 0.79713738 0.17399937
946.01801 926.67413 47.846912 -0.64608043 0.087424859 0.758246 0.17238471
978.53601 956.54755 68.16687 -0.33870786 0.39969578 0.85177475 0.21338956
952.79846 936.28302 57.087395 -0.64122325 -0.22730586 0.73291522 0.15251777
934.70172 914.16675 46.307983 -0.41006845 0.20079817 0.88967633 0.13215502
957.32892 943.12122 64.56543 -0.58911556 -0.21711417 0.77833432 0.20737539
1004.4002 973.75122 139.55075 0.70443767 0.29218867 -0.6468333 0.12301949
950.80334 915.90332 51.55941 -0.61896509 -0.19945069 0.75967205 0.12442341
944.13922 923.23602 47.403286 -0.61036688 0.07741265 0.78832704 0.17654239
966.65143 943.0827 67.34481 -0.61037832 0.01507757 0.7919665 0.17852862
976.67957 900.68713 69.742538 -0.62701124 -0.16078979 0.76223588 0.15307923
1018.7186 880.80524 96.173088 -0.52849829 -0.59226459 0.60820407 0.11492846
1002.3443 940.27997 123.56506 0.83894366 0.22745582 -0.4944061 0.10039138
1019.0832 889.6264 102.53798 -0.48299846 -0.59809673 0.63952541 0.10826237
1003.4468 933.37738 120.00597 0.79550254 0.31891036 -0.51523966 0.11907301
973.45911 931.60406 72.38279 -0.59796119 -0.093177356 0.79609072 0.18328404
970.2749 922.57013 68.147926 -0.61869895 -0.15416989 0.77035266 0.1401784
1013.4476 893.33429 100.17978 -0.53988397 -0.49764729 0.67887586 0.079464458
994.44513 885.45978 81.074913 -0.58968312 -0.18761331 0.78554124 0.10281927
966.02594 912.90228 63.313255 -0.59465975 -0.059670739 0.80176008 0.12074091
994.19269 929.53564 100.59139 0.9473601 0.15751545 -0.27874318 0.1720584
973.44202 890.87231 66.001595 -0.64367211 -0.16312587 0.74771398 0.14611503
1003.773 924.92242 116.19207 0.73868108 0.25242862 -0.62500405 0.12930883
1004.575 956.13068 131.87018 0.79077142 0.33405873 -0.51291841 0.10845231
1002.8869 964.80725 133.51823 0.74541181 0.31891006 -0.58536959 0.11203218
1001.1831 954.98792 126.91393 0.75194412 0.28840199 -0.5927937 0.1046106
983.50024 922.55981 81.306252 0.73626107 0.21609366 -0.64126688 0.19083411
1002.5894 945.63434 125.89706 0.82433176 0.21367845 -0.52423143 0.099117428
977.87897 908.74487 72.542786 -0.63131905 -0.16333823 0.75812721 0.15288654
926.29016 942.53058 37.867428 0.19651838 0.30295765 0.93252194 0.20316081
910.05481 946.21594 44.769016 -0.17072037 -0.67289883 0.71976501 0.15672633
924.23981 943.84351 52.594528 0.75426781 -0.6008113 0.26477507 0.17492743
932.91327 964.92456 74.343613 0.42635688 -0.77088219 0.47324464 0.15142743
923.85699 937.23395 43.944618 0.69102955 -0.37184867 0.61984408 0.23622103
921.91199 940.94318 39.969631 0.31815839 0.32069379 0.89214951 0.22426721
933.99341 962.79602 69.95417 0.60904586 -0.71447623 0.34436443 0.15660837
926.93451 941.11017 44.867233 0.7025708 -0.54178339 0.46137303 0.19855142
942.25385 955.36536 52.775623 -0.39703605 -0.38091338 0.83502537 0.24751343
933.28888 960.09399 66.715462 0.602718 -0.73643756 0.30723074 0.15985411
938.80823 956.09088 46.42244 0.71479005 -0.64182591 0.27773136 0.17547107
922.21277 940.19958 42.664474 0.55223215 0.16840516 0.81650436 0.25293818
929.06061 971.36865 71.286972 -0.43544585 -0.56192034 0.70330107 0.11503213
993.69397 924.16296 99.387405 0.93593019 0.18192789 -0.30155748 0.17482005
936.44366 943.1449 35.406498 0.09743876 0.21226124 0.97234297 0.16217096
989.07837 962.62848 115.48585 0.71715784 0.33667007 -0.61019498 0.093959168
980.43945 943.93604 90.561531 -0.59721333 -0.71462572 0.36420646 0.25686058
987.54279 951.79254 109.47456 -0.66178519 -0.30028665 0.68692672 0.092990503
955.37469 906.43829 56.109768 -0.5664376 -0.073562272 0.82081485 0.088552311
995.24982 914.81421 96.374695 0.83456379 0.3598325 -0.4171617 0.15774085
976.18274 974.2832 107.52406 -0.56324005 -0.31765139 0.76279628 0.079560556
962.01996 957.45288 62.549782 -0.47185796 0.071713433 0.87875324 0.21006279
935.44238 943.72577 44.699741 -0.5958401 -0.2930235 0.74773777 0.22487362
984.26837 925.41266 82.117363 0.77919191 0.16754253 -0.60397804 0.18155108
926.82275 927.98724 40.575356 -0.29439032 -0.021224163 0.95544958 0.23010397
980.85614 937.26093 87.101379 0.72132128 0.58513069 -0.37056401 0.24200855
983.75751 907.66577 76.513863 -0.66243017 -0.098725796 0.74258971 0.15760256
974.65417 947.55786 91.825134 -0.62942129 -0.67446589 0.38590741 0.21187833
979.8562 892.97357 71.180618 -0.61880928 -0.11364169 0.77727771 0.15533005
939.60852 939.43872 43.656208 -0.61138868 -0.078143053 0.78746271 0.1920515
986.0163 896.44769 77.055916 -0.59017116 0.14278801 0.79454994 0.15577902
990.49286 936.20959 102.64054 0.76410621 0.32496646 -0.5572598 0.18928148
980.44275 965.86285 110.40165 -0.60341835 -0.31739402 0.73153764 0.11087617
977.08624 982.18811 111.76427 -0.55706424 -0.3187803 0.76684976 0.093364105
984.30823 916.33826 79.354301 0.74014789 0.18195258 -0.64735949 0.15999617
985.31738 939.10608 102.27734 -0.61920065 -0.29554227 0.72749251 0.14526153
936.09906 944.88684 37.847061 0.0071293558 -0.080127217 0.99675918 0.18575925
946.85858 925.1629 49.063553 -0.67029643 -0.12719728 0.73111117 0.17078444
992.20837 929.09595 99.886993 0.81478131 0.37530345 -0.44190359 0.20260027
980.35156 928.68115 82.485733 0.74475515 0.36622798 -0.55786812 0.2172198
970.9256 934.74152 69.526451 -0.56123459 -0.047188874 0.82631046 0.15697165
952.71252 940.21185 55.644684 -0.63817233 -0.21987648 0.73782814 0.17507769
975.98846 957.05377 98.146492 -0.57271713 -0.56029701 0.59838313 0.14461598
965.1095 973.01868 100.92947 -0.60152674 -0.29548118 0.7421971 0.09081699
974.401 963.10675 101.62086 -0.53670347 -0.39096281 0.74772823 0.082887486
985.96112 965.98083 115.0369 0.68290257 0.33659762 -0.648341 0.099846952
971.27332 942.73889 72.163574 -0.5471099 -0.052388951 0.83541971 0.21665013
1002.8994 882.95929 85.138847 -0.5711534 -0.23085378 0.7877121 0.10890251
1015.9759 874.67365 87.235054 -0.46847051 -0.5036568 0.72585481 0.12596455
1007.3712 877.23956 81.378967 -0.5577125 -0.50419062 0.65935469 0.11783926
1031.9993 886.08191 110.83586 -0.63926095 -0.39408448 0.66033542 0.15579063
1062.3394 859.35425 124.51936 -0.59669942 -0.14482515 0.78928792 0.087119438
1076.7335 915.24359 125.15091 -0.55609578 0.3051182 0.773085 0.07668601
993.62561 938.83466 109.35957 0.68723255 0.30353415 -0.65998363 0.13493048
999.86676 934.86884 114.878 0.84977365 0.25388339 -0.46198261 0.14145067
932.93713 942.83838 45.07811 0.72629035 -0.43570653 0.53165978 0.25583032
950.40173 934.8587 53.700462 -0.64196581 -0.15160832 0.7515949 0.16164251
963.97284 942.51013 72.253418 0.73246777 0.38407782 -0.56211668 0.2196545
955.29651 914.99713 54.769337 -0.53554666 0.18752573 0.82342207 0.14129297
947.51611 980.7226 87.473427 0.66140777 0.37919495 -0.64710969 0.15301511
950.32874 972.6095 84.540855 0.70930684 0.41261724 -0.57151628 0.14319968
936.52441 951.47577 54.978535 -0.49984375 -0.49294251 0.71215445 0.17884634
953.02618 948.2876 58.408169 -0.61793864 -0.22302875 0.75392973 0.20758608
969.00574 927.74426 69.196785 -0.63057315 -0.16219066 0.75899386 0.17325449
963.77832 908.73022 61.668552 -0.63158697 -0.16599506 0.7573266 0.11772343
934.15656 987.5213 91.461426 -0.20444748 -0.68081146 0.70334697 0.16374917
947.25177 921.01013 49.683754 -0.6226247 -0.02498237 0.78212172 0.14523187
939.05042 958.91962 65.034424 0.22450557 -0.87208676 0.43481249 0.27289301
956.98633 957.62622 77.609352 0.80065161 0.50833207 -0.31710488 0.21011557
959.37897 986.40405 91.478561 0.32816121 -0.9439407 0.035863463 0.17964117
954.58453 966.60461 81.751427 0.66612172 0.65668392 -0.35362136 0.18114881
934.06842 937.6214 42.05127 -0.26384765 -0.051714756 0.96317703 0.22661799
942.19244 965.03851 68.845695 0.56816226 -0.76173127 0.31137946 0.17688081
928.7702 939.90204 42.719791 -0.039419778 -0.1883748 0.98130578 0.24574897
972.34106 962.41388 66.145775 -0.36992648 0.092291266 0.92446566 0.22129239
997.01099 958.75446 70.931519 -0.35520983 0.31332171 0.88071305 0.070674896
980.72949 956.10925 67.19603 -0.35157546 0.3069514 0.88440686 0.13641693
959.37701 965.48486 62.125496 0.79804516 0.58465874 -0.1459385 0.16841474
1055.7544 914.53882 111.84479 -0.51859874 0.31701154 0.79407746 0.16946584
1050.3915 885.70447 116.87457 -0.55221748 0.14914225 0.82025141 0.11594936
1060.5608 907.66418 115.82629 -0.59514928 0.27466691 0.7552188 0.068607107
1073.201 867.78168 142.44266 0.88096112 0.15786217 -0.44607964 0.18691716
1067.5134 873.60754 139.13297 0.81078875 0.45403257 -0.36942658 0.16810983
1028.272 869.98358 97.426071 -0.5404048 -0.081640355 0.83743507 0.13106944
1002.5065 885.30585 84.781868 -0.61552495 -0.28608921 0.73435825 0.10630466
951.81256 949.76788 67.989159 0.65830207 0.51540166 -0.54863423 0.21729223
944.05927 966.31555 73.11084 0.30286419 -0.83603013 0.4575226 0.19562183
969.41132 939.17163 75.697182 0.76334995 0.31853867 -0.56198752 0.22875381
949.6925 963.17755 72.697113 -0.27425528 -0.73358232 0.62180471 0.23814309
994.82446 911.85535 87.426903 0.82754004 0.11586533 -0.54932022 0.1475977
1041.6219 887.11908 115.77809 -0.44941387 -0.032992147 0.8927142 0.21217528
1059.8971 891.05249 122.16185 -0.51742905 0.26391298 0.814013 0.074844263
1059.9381 863.72864 123.41606 -0.59300303 -0.15155555 0.79080862 0.09248998
1056.1252 873.01379 121.82601 -0.58294022 -0.064089686 0.80998343 0.11010792
1070.7698 846.09613 126.99948 0.71786207 0.20086448 -0.66657895 0.13289829
995.04517 949.83325 115.90256 0.80015635 0.29114771 -0.52438802 0.11047132
998.34943 938.7373 115.47684 0.85832417 0.23304369 -0.45713264 0.12469499
1060.7568 883.64777 128.39705 0.73074967 -0.14652035 -0.66673589 0.20112191
1010.6644 893.98407 97.061584 -0.60791832 -0.35942394 0.70798993 0.076643772
1069.7699 880.23279 133.57988 -0.61025596 0.11546699 0.78374422 0.14145653
945.28058 975.87268 45.338375 -0.66223258 -0.017864363 0.74908537 0.17534398
1005.2814 960.55573 73.713348 -0.37053978 0.28656244 0.88350564 0.047003768
966.26074 936.86456 68.917809 -0.62319314 -0.11415628 0.77369159 0.19672827
1049.7004 884.06238 120.13636 -0.57283294 -0.013232986 0.8195653 0.20947592
1059.6174 879.95258 124.27509 -0.64757913 0.049764577 0.76037145 0.12805821
965.31165 953.26636 67.184792 -0.46711239 0.073689252 0.88112193 0.23649476
999.83972 957.55896 72.998398 -0.38140267 0.27523541 0.88248372 0.081001014
982.54913 898.5238 74.779144 -0.58311278 0.088507488 0.8075555 0.15908577
977.46967 905.89362 71.053757 -0.59698564 -0.041502967 0.80117768 0.14686002
944.6308 942.66559 56.256008 -0.64809006 -0.37305754 0.66393328 0.16254714
975.83148 918.64435 70.611893 -0.63530749 -0.10420101 0.7651971 0.13215157
991.85565 896.19061 80.113716 -0.55575961 0.10769118 0.82433844 0.15548638
935.39355 953.37067 58.911182 0.54884523 -0.82813817 0.11382455 0.24776286
954.03186 961.03851 82.68277 0.70079201 0.47118652 -0.53560609 0.12150005
942.55829 937.08862 39.662365 -0.63523227 -0.055445939 0.77032828 0.22325073
941.36951 939.42969 41.271229 -0.56032342 0.031551313 0.82767278 0.20592508
983.07996 974.9472 115.99538 -0.64811587 -0.3553769 0.67353773 0.089548305
940.34161 954.28381 61.93298 0.61904275 0.51578838 -0.59224015 0.18239455
955.7171 950.65015 57.896641 -0.65741187 -0.053698391 0.75161564 0.20048611
965.21631 965.70886 65.409256 -0.65837896 -0.22236441 0.71909052 0.18571828
936.71582 937.08386 41.989273 -0.48076457 0.012279878 0.8767637 0.21468778
943.49078 925.94244 46.670364 -0.60346919 -0.06818489 0.79446572 0.17826371
939.52356 925.00726 44.716618 -0.62506205 -0.17868786 0.7598474 0.1651997
919.07092 921.94269 40.756142 -0.27234063 0.2201217 0.93668407 0.13912961
946.44769 959.46906 72.026085 -0.60231382 -0.60604578 0.5195446 0.1958712
941.56812 951.17682 50.885788 -0.57120377 -0.32837248 0.75226176 0.23218207
941.19421 955.46356 61.018623 -0.51782471 -0.56148916 0.64543587 0.20655325
933.38177 938.76868 43.143551 -0.56664127 -0.31521168 0.76128793 0.22116941
951.24597 962.82074 65.047554 -0.56368357 -0.80126572 0.2005844 0.22315596
950.3739 957.77014 58.952511 -0.28765675 -0.90147609 0.32341066 0.27474317
916.81665 921.39343 44.333412 -0.025512077 0.47212729 0.88116115 0.1077796
950.36121 959.3421 61.587864 -0.31033459 -0.90059352 0.30434158 0.24322364
952.05652 964.84302 54.044781 -0.39236751 0.35058764 0.85037404 0.25299761
937.24377 936.07428 41.347126 -0.40022078 0.22100824 0.88936985 0.1960735
981.4035 976.69775 115.51804 -0.65065974 -0.32347909 0.68702489 0.087478541
986.10059 911.82019 83.33519 0.74940777 0.29261523 -0.59393966 0.158858
985.51093 960.6629 109.39278 0.71517611 0.36778787 -0.59435272 0.11816227
997.98364 923.56775 106.66221 0.78922772 0.33567896 -0.51423657 0.15682854
985.33868 973.3222 115.97227 0.70797092 0.3348695 -0.62180352 0.10450036
992.14185 931.47363 106.47475 -0.65649271 -0.23357365 0.71725911 0.16046099
950.3714 932.77716 50.888443 -0.63254023 -0.025044786 0.77412248 0.15438944
995.71429 976.58789 129.93448 0.78302252 0.25098494 -0.56910658 0.10415285
994.61023 950.63379 116.59553 0.72250211 0.28436673 -0.63017958 0.094982043
1000.6164 907.80035 97.476402 0.64498258 0.44382167 -0.62210912 0.12708424
966.7951 919.91895 68.178955 -0.66381115 -0.33565122 0.66835093 0.14635119
990.84167 902.6875 82.298798 -0.68114161 -0.098625325 0.72547853 0.14684986
960.01129 929.77924 60.02124 -0.6873222 -0.15346751 0.70995486 0.14555553
1004.1363 891.99091 90.266754 -0.62731677 -0.3019428 0.71784693 0.095304064
984.78491 919.45233 87.513611 0.76335603 0.43991989 -0.47303075 0.18657875
994.30054 926.77649 105.31682 0.71600276 0.38538331 -0.58208227 0.15002717
999.46344 917.19946 104.97041 0.77375251 0.40313363 -0.48866174 0.12199362
994.05841 942.69275 113.09106 0.7118749 0.23957916 -0.66017872 0.10592477
988.36914 940.82513 96.343399 0.89744806 0.29039544 -0.33205038 0.20314553
1005.2215 885.48669 87.296944 -0.58487219 -0.48306635 0.65159148 0.10146252
956.06067 919.01062 55.924572 -0.62293369 -0.10888911 0.77465916 0.13296133
986.36395 903.58405 79.278381 -0.64731228 -0.15992342 0.74525923 0.14869925
994.86151 968.56049 125.81374 0.77617025 0.2996335 -0.55477881 0.10426497
971.48712 918.20471 69.43708 -0.63092178 -0.26518428 0.7291193 0.14704761
972.94904 913.89972 68.377594 -0.60551888 -0.057796113 0.79372948 0.134369
976.8443 911.85309 70.351631 -0.61318058 -0.02167817 0.78964525 0.14257172
987.88177 946.93286 99.590675 0.84480649 0.42405522 -0.3263115 0.2154108
996.09766 961.96991 123.56055 0.71316814 0.38617074 -0.58503276 0.10181601
944.34698 955.83209 37.260517 0.63320959 -0.54376215 0.55078882 0.1704644
1034.4821 869.4187 104.51033 0.69890082 0.16134402 -0.69678247 0.13880047
1056.1823 930.62726 104.99812 -0.65549827 0.22618547 0.72052908 0.064043134
1056.0613 918.39136 109.06375 -0.6000095 0.21195355 0.77140415 0.050699249
991.11517 930.68506 96.660889 0.91744357 0.24696201 -0.31194082 0.19053522
1059.7731 874.55804 126.84036 -0.62226683 -0.19583338 0.75791377 0.14791226
1028.1823 876.70142 101.98907 -0.62064123 -0.22658534 0.75064212 0.13652138
1043.6848 865.05585 110.52927 -0.62738144 -0.11144444 0.77069622 0.14636317
1079.7645 906.13159 131.3354 -0.54698449 0.30571014 0.77932614 0.11046301
974.01648 939.89948 89.268494 0.7611593 0.4793084 -0.43692097 0.23214428
1061.8571 916.61292 115.11512 -0.50181264 0.37481442 0.77955002 0.13693851
1052.548 885.12091 118.68406 -0.54541302 0.14585344 0.82537955 0.10912355
954.26849 945.45245 57.310253 -0.63134116 -0.12654954 0.76511014 0.18592414
938.8902 985.58661 85.666634 -0.56286508 -0.4382953 0.70077109 0.12134348
996.2951 977.41162 131.23788 0.77936941 0.26898348 -0.56588972 0.097035654
997.70312 960.48077 124.91976 0.71018475 0.30892074 -0.63261801 0.10830947
1045.6276 910.88409 139.13116 -0.033389218 -0.99640346 -0.077880159 0.18198878
985.10382 918.6358 83.63681 0.77379686 0.31447092 -0.54986042 0.17756142
1067.3872 911.34338 119.85553 -0.55359501 0.31021589 0.77285099 0.070082858
991.99792 911.37372 86.627594 0.75404733 0.23588693 -0.61300081 0.15125903
963.10632 970.60309 61.780262 -0.64621603 -0.2246902 0.72932786 0.11993831
1069.3394 872.03772 136.86223 0.80207729 0.33769849 -0.49257666 0.15201922
1052.6061 897.82513 129.46545 0.67001086 0.084059007 0.73757684 0.26875123
1015.9551 981.9278 147.131 -0.28726429 -0.46245244 0.83881879 0.13066053
985.27209 948.39832 74.817101 -0.4815211 0.38966838 0.78504521 0.23781058
957.35162 965.18243 53.091602 -0.56832653 0.11897286 0.81415623 0.082648903
936.25275 952.55316 45.898731 -0.55120558 -0.29029211 0.78224224 0.24145114
978.87152 926.66608 75.521271 -0.64180166 -0.10069548 0.7602309 0.16136129
954.28333 972.34589 38.570847 0.54963428 -0.79626662 -0.25270852 0.17709717
1071.0551 862.30579 143.75734 0.96230572 0.16393928 0.21700595 0.14890759
969.39319 935.53998 66.920395 -0.51912957 -0.066209234 0.85212725 0.16677846
989.96027 905.65033 77.63176 -0.68784177 0.04052094 0.72472876 0.17002475
961.90936 957.05475 63.582581 -0.48433334 0.0085791005 0.87484151 0.22047552
956.16913 965.17267 61.737881 0.72824878 0.56302434 -0.3907139 0.19971506
998.02136 942.77972 89.025284 0.99987423 0.01575605 -0.0018084436 0.15617482
975.10028 899.68018 69.374138 -0.58425206 0.10190202 0.80514938 0.16685601
966.5882 948.79456 64.691101 -0.51053315 0.1188992 0.85159785 0.16492172
966.24335 916.67303 63.246761 -0.61193693 -0.11389162 0.78266335 0.12146261
1084.1086 923.62244 124.58768 -0.4632338 0.32346374 0.82509738 0.053340454
966.47681 901.92877 62.624996 -0.63943505 -0.087072775 0.76389867 0.11775419
1051.0482 879.99042 118.91743 -0.50150734 0.099683359 0.85939145 0.12592676
933.51727 953.86322 54.190281 0.66570497 -0.72056556 0.1939642 0.16782866
1043.5162 866.03333 110.63847 -0.61687952 -0.13299276 0.77574003 0.14636146
1055.9393 930.0246 105.07203 -0.62337345 0.25292519 0.73988807 0.061572105
1089.3356 912.49872 131.11272 -0.37966082 0.42678809 0.82079816 0.16462828
1057.988 920.13391 110.05007 -0.58223283 0.21919104 0.78291774 0.050096352
1033.615 884.04724 106.35453 -0.57942474 0.011472674 0.81494498 0.15799612
1061.4482 876.50867 129.50113 -0.67503577 -0.23708571 0.69865376 0.1638608
985.7265 938.02509 95.745506 0.72005206 0.5512265 -0.42151442 0.21678814
1061.1896 852.85663 160.73582 0.84602863 -0.10196313 0.5232963 0.14720446
1057.3988 878.40186 154.40273 0.65999776 0.4860771 0.57282811 0.13790755
1039.4352 904.34595 132.17328 0.53319037 -0.32659501 0.78041255 0.22568533
1069.882 856.56287 140.43335 0.93241346 -0.26208133 -0.24883436 0.17831564
1037.5962 910.26593 131.76114 -0.059821356 -0.99758178 -0.035383742 0.15060316
1049.4858 886.11578 130.35767 -0.4121021 -0.68231809 0.60383266 0.21125726
1073.1836 877.91339 139.8239 -0.70525336 -0.033619415 0.70815778 0.18822619
978.36987 891.8877 69.796654 -0.64650732 -0.25331694 0.71962404 0.15586869
955.77209 933.289 63.812256 -0.63578618 -0.3622753 0.68156624 0.15008488
1026.276 877.6889 96.618134 -0.40908399 -0.36373425 0.83686781 0.089359678
977.33258 933.26019 77.335014 0.73656905 0.20428291 -0.64477473 0.19329494
1005.426 883.7038 85.770126 -0.57104939 -0.29466861 0.76620692 0.11852624
972.20734 941.15216 75.79187 0.6914475 0.20992653 -0.69125336 0.22399129
981.71301 910.48712 76.126892 -0.6627692 -0.18846262 0.72471982 0.16128269
975.0481 916.94342 73.987579 0.67765319 0.3121427 -0.66584766 0.17901824
1014.5375 878.40961 87.743073 -0.52683574 -0.57289195 0.62788451 0.12050254
1074.0684 870.01965 144.5294 0.89074832 0.22239859 -0.39636636 0.16982749
1070.2902 869.88519 140.17575 0.88306355 0.32706678 -0.3364909 0.17872114
1057.1874 888.43359 119.67403 -0.64831841 0.15989757 0.74438965 0.0928616
1065.5515 903.39917 120.87424 -0.59914684 0.2638244 0.75592309 0.054582339
1052.5397 878.29541 118.53714 -0.56968653 0.068400264 0.81901079 0.11874693
1050.949 873.9173 118.65456 -0.53569728 -0.042158328 0.84335703 0.1306759
1066.5847 879.16559 129.00333 -0.57568276 0.067349598 0.81489474 0.11694156
1062.7734 879.11865 125.51639 -0.62773395 0.060737889 0.77605474 0.10093609
1070.1294 873.64685 138.31607 0.80563712 0.2238241 -0.54849941 0.16985802
1059.2708 895.53064 120.1651 -0.52388507 0.29381195 0.79951173 0.076296143
1068.5226 877.97241 131.87039 -0.61980236 -0.011565724 0.78467274 0.13313228
1055.2362 874.94769 121.09435 -0.57187444 -0.039170742 0.81940544 0.11133672
1050.2427 882.77374 118.98035 -0.52168286 0.094975904 0.84783638 0.15914571
1059.0072 890.56116 123.77454 -0.61196977 0.26665211 0.74457347 0.16799295
1070.1487 876.901 135.87515 -0.7039488 -0.024442688 0.70982999 0.15059231
1047.5541 881.87805 117.06617 -0.5070889 0.11161041 0.85463673 0.13701968
1078.5681 893.24139 133.66945 -0.51877677 0.28999028 0.80422407 0.061509646
1059.2533 870.72394 125.33699 -0.63246715 -0.20319268 0.74746102 0.13266757
1053.6097 852.82184 115.65884 -0.5442524 -0.27787212 0.79156578 0.11014713
1059.2561 849.56836 119.33641 -0.56096429 -0.21450841 0.79956567 0.11895969
1056.5946 883.32135 120.74788 -0.62027603 0.1418336 0.77145374 0.095875725
1059.6753 868.15796 124.07879 -0.58566123 -0.13699131 0.79889566 0.094877265
1051.7249 882.8418 116.74548 -0.61307102 0.097834893 0.78394657 0.11443218
1047.5096 863.77777 114.80962 -0.50435442 -0.228539 0.83270437 0.14288037
1051.4954 860.81055 116.74763 -0.54748207 -0.20558479 0.81117094 0.11907201
1038.1865 859.6557 104.63351 0.71115118 0.46070796 -0.53104818 0.14259124
1045.8207 893.16681 108.85272 -0.65194291 0.22860853 0.72298586 0.10377839
1048.2958 885.40137 114.05141 -0.62154943 0.15269618 0.76834899 0.11178076
1059.4965 913.9212 114.75932 -0.51559925 0.37169674 0.77200967 0.17008607
1063.6599 913.73621 117.33652 -0.49062955 0.37353644 0.78724402 0.13820066
1042.8945 884.5379 110.32629 -0.61707389 0.18587787 0.76463664 0.11958953
1063.3683 909.98547 119.80434 -0.49238241 0.36508581 0.7901088 0.17788646
1052.4442 911.65137 112.12587 -0.42689568 0.33500558 0.83995914 0.16389981
964.9101 955.91443 85.541779 0.66828102 0.66561753 -0.33219537 0.1866986
934.24689 945.18921 45.648849 -0.52631885 -0.4032819 0.74856675 0.22088683
948.289 952.05908 63.490723 -0.57630646 -0.51841104 0.63176012 0.2021431
955.25952 929.0661 57.71706 -0.66612697 -0.16965999 0.72628534 0.14800116
966.09875 944.78815 79.34864 0.78640634 0.45380124 -0.41908175 0.21763448
975.02448 892.00586 66.969322 -0.61672407 -0.14805385 0.77313095 0.17646571
953.13611 984.45465 94.817123 -0.66753674 -0.26713789 0.69500506 0.14274733
961.09656 909.90082 58.326492 -0.55332077 0.10164922 0.82674277 0.12401543
948.39557 984.19122 90.797928 0.70080411 0.20763807 -0.68246615 0.15110716
932.97662 954.79285 61.645466 -0.56791252 -0.48363003 0.66601604 0.10194453
959.93494 960.28741 85.90004 0.75252414 0.50069946 -0.42779371 0.15719286
931.33368 931.93964 40.535484 -0.45123956 -0.31791297 0.83385503 0.23240213
931.18201 925.57672 44.592766 -0.15348452 0.48349625 0.86178529 0.18126172
938.77148 969.23035 77.252701 -0.063872933 -0.77420628 0.62970221 0.18052363
941.58649 953.03693 39.159229 0.41307464 -0.51486039 0.75119114 0.1657913
965.48108 931.9043 74.188026 0.80406249 0.36031437 -0.47292396 0.17200732
953.008 935.80621 58.822605 -0.65413892 -0.26262835 0.7093156 0.15269041
972.23401 920.68219 72.751419 -0.65520841 -0.36222073 0.66294652 0.16341829
953.40155 946.70819 62.422142 -0.62960613 -0.31811926 0.70879918 0.19800273
955.93451 967.49268 89.110947 0.67681378 0.35682243 -0.64389503 0.10591409
942.88306 957.2641 64.775734 -0.54317796 -0.59647894 0.59090656 0.20243628
984.25629 926.71356 78.315346 -0.66531146 -0.04017631 0.74548411 0.17207211
956.9707 979.91443 94.992241 0.66666496 0.3566364 -0.65449852 0.12505546
945.4837 900.23523 54.161316 -0.39944696 0.18198311 0.89851224 0.077454768
968.3277 908.09564 62.541855 -0.49172691 0.070221595 0.86791337 0.15491349
956.66144 920.92407 56.418434 -0.62287229 -0.13967963 0.76975304 0.13114727
975.0033 902.00018 68.995712 -0.61107504 -0.033049863 0.79088241 0.1574976
985.60675 908.74335 78.5728 -0.67928201 -0.072839543 0.73025364 0.15470909
976.92719 906.09869 69.773903 -0.59938461 0.011662104 0.80037618 0.1394439
981.84631 910.01752 73.915581 -0.59754699 0.002032113 0.80183131 0.14860691
998.90271 938.25281 85.514671 0.89840096 -0.22312313 -0.3782748 0.14055574
990.44348 921.36853 79.163567 -0.68218756 0.029383762 0.73058659 0.15791348
981.71564 913.09375 72.116173 -0.59754682 0.0067637307 0.8018055 0.13817118
990.18475 916.5531 83.665123 0.88297498 0.04476494 -0.46728075 0.16952255
982.66998 906.63776 75.544662 -0.67162544 -0.10441393 0.73349643 0.1550115
1058.9333 944.85187 106.14787 0.72099972 -0.055239957 -0.69073004 0.096331425
983.34381 914.60797 69.2798 -0.62709373 -0.12868868 0.76823997 0.13204142
993.37427 921.92743 92.541557 0.93340379 0.10400762 -0.3434236 0.15950564
1021.5531 903.52313 120.87478 0.63414299 0.6219117 -0.45944375 0.1113128
1026.8688 894.06311 116.0505 -0.52046388 -0.63685179 0.56880325 0.1569926
997.22076 887.08185 82.732071 -0.61890334 -0.22953317 0.75118119 0.10534659
980.82172 904.87885 73.476364 -0.6225065 -0.064020954 0.77999163 0.15729615
1024.2399 919.30389 133.31042 -0.53433281 -0.13476001 0.83446282 0.089920074
999.82056 885.36627 83.915939 -0.58980912 -0.1715003 0.78912157 0.10357131
991.77637 910.75641 85.778137 0.79560483 0.18941228 -0.57544416 0.16052166
1018.5823 886.10828 98.349754 -0.42531818 -0.56755722 0.70497036 0.092456065
982.28448 911.84467 66.871956 -0.61484337 -0.11311547 0.78049505 0.15201095
992.38068 913.01819 87.711906 0.78205633 0.21215416 -0.58598512 0.16386217
983.08026 906.86401 76.063889 -0.6509518 -0.096237585 0.75299406 0.15321283
989.80646 905.32739 82.016968 0.71735144 0.11505904 -0.68714505 0.15792495
1014.0093 876.8324 90.132164 -0.50840676 -0.46364322 0.72564286 0.095797837
1032.2798 883.6261 108.38694 -0.63766259 -0.31614351 0.70245266 0.15083033
1033.6852 851.08936 101.32684 -0.70501542 0.027205795 0.70866996 0.14108403
1036.4423 874.95538 107.63577 -0.65855759 -0.052671153 0.75068474 0.13177146
1016.6649 871.77191 90.483894 -0.53087759 -0.36132789 0.76655799 0.1089666
1031.3865 851.56445 97.855835 0.72743672 0.12124421 -0.6753782 0.14630006
1019.5689 867.79126 92.010071 -0.5020054 -0.24960153 0.82806385 0.11334724
1039.3906 884.0863 110.89237 -0.56212014 0.079595692 0.82321656 0.14495829
1053.4449 877.95746 120.30157 -0.53659701 0.051294401 0.84227818 0.12518969
997.23132 910.81433 91.777031 0.78040087 0.24552079 -0.57506007 0.13294692
987.23254 913.08264 85.376793 0.75296617 0.365145 -0.54745877 0.15942448
955.26794 998.16327 98.434341 -0.62728858 -0.080777422 0.77458638 0.13471431
1079.214 916.89001 126.46716 -0.56284863 0.28048703 0.77751428 0.092755578
1058.7587 907.67761 140.72278 -0.43948883 -0.78169274 -0.4424997 0.14345588
1003.9501 961.52576 132.41103 0.70054394 0.36231089 -0.61479187 0.10897332
1000.4288 975.47974 136.06267 0.7988323 0.26450869 -0.54027963 0.10002013
958.78247 960.44562 61.678455 -0.56491971 0.078236289 0.82142854 0.22463264
952.83337 964.47144 60.648453 -0.62940735 -0.6611945 0.40825018 0.2141557
958.08002 942.495 60.559444 -0.59273982 -0.15590067 0.79016107 0.17440501
992.90588 909.07428 84.918076 0.7845611 0.14257275 -0.6034376 0.15214552
1054.1642 896.92706 116.05121 -0.57865936 0.29070678 0.76199931 0.091476865
980.81195 915.94006 69.526443 -0.55748844 -0.12498666 0.82072222 0.12364341
1063.4531 871.66827 131.87604 0.69811261 0.33727989 -0.63157028 0.15677072
988.2522 937.521 83.340294 0.8709355 -0.058566399 -0.48789477 0.22392654
1064.964 918.22882 115.09672 -0.52146465 0.31471401 0.79311395 0.051527515
1070.5643 866.49658 138.44789 0.84632891 0.17493124 -0.50311667 0.17824036
1060.9515 936.76489 106.72599 -0.64475292 0.26980412 0.7151919 0.070585936
1063.0552 927.97144 110.91564 -0.52631253 0.27294475 0.80529267 0.053122047
998.29553 938.60864 86.188934 0.90947467 -0.18674539 -0.37145922 0.13767292
1068.7854 855.00031 139.2926 0.90163529 -0.17295836 -0.39640793 0.1886328
985.56647 940.32574 80.627968 -0.67561322 -0.69749391 0.23884936 0.26091155
949.87885 909.00702 52.194042 -0.52934784 0.030574162 0.84785384 0.1183475
963.82019 912.60675 60.064419 -0.56558424 0.082103327 0.82059336 0.12063396
942.25653 957.9007 47.990711 0.64340442 -0.71813226 0.26517323 0.20297828
1056.5883 867.8847 122.03248 -0.53708637 -0.18358672 0.82330686 0.10932889
1039.1757 872.4903 107.73121 -0.65326077 -0.057165332 0.75497186 0.13173304
1058.6973 932.43011 106.87276 -0.6464479 0.21485823 0.73207998 0.059746303
1071.0651 908.97827 127.9434 0.73139858 -0.24435207 -0.63666958 0.15585227
986.547 918.75189 90.196983 0.71170503 0.48953217 -0.50381958 0.19275834
1024.9214 872.4823 98.171509 0.69296688 0.36270678 -0.62308967 0.11709254
1052.8781 882.10309 122.13814 -0.59742332 -0.021396784 0.80164051 0.19203849
1053.4493 895.55652 121.6694 -0.3026166 0.30139583 0.90420336 0.23097134
1053.7092 857.79059 118.30364 -0.49861953 -0.29547098 0.81490827 0.095866859
1005.9213 895.03546 92.810585 -0.62147593 -0.33494809 0.70822132 0.097523957
1034.83 871.28491 105.2441 -0.69584775 -0.11932493 0.70820719 0.13564707
1028.6421 891.04938 117.88895 0.65486187 0.58606946 -0.4771567 0.10807341
1063.3407 853.39111 123.2751 -0.56132048 -0.23374085 0.7939046 0.089256905
1058.2612 875.38275 125.54651 -0.64280778 -0.19505884 0.74077672 0.15659134
957.81726 927.45013 60.027615 -0.66824579 -0.16552205 0.72529304 0.14249212
976.54742 994.62097 115.05318 -0.49476174 -0.37546858 0.78373092 0.11350947
965.84448 952.42084 66.142311 -0.459748 0.08976011 0.88350147 0.210603
1063.6567 870.93353 127.44729 -0.60463142 -0.11708444 0.78785282 0.095301196
979.5296 937.69769 90.203087 0.79074091 0.50813329 -0.34136403 0.2319203
1071.8156 906.07111 128.18668 -0.67842871 0.26157922 0.68652081 0.12267178
1040.6321 870.76862 108.12453 -0.66621357 -0.024209687 0.74536794 0.13621503
989.70477 920.50555 93.947578 0.90652972 0.19529195 -0.37425253 0.20392497
1082.4098 903.0061 131.63657 -0.49092561 0.31059954 0.81395328 0.035798468
970.45856 943.22809 86.127327 0.76512039 0.49290755 -0.41428605 0.22997704
1018.9628 887.3598 99.918648 -0.45970431 -0.59576052 0.65859044 0.095321894
911.14911 951.04004 45.411743 -0.4210577 -0.61294943 0.66858315 0.13094579
951.96332 970.01514 55.570526 -0.59161079 -0.23314327 0.77177775 0.18111859
937.65436 928.08466 43.065773 -0.57211423 -0.073998056 0.81682903 0.20577501
944.73529 949.64935 50.399586 -0.57858479 -0.23936629 0.77970725 0.21713144
1039.1292 924.54639 140.27908 -0.40955174 0.087258793 0.90810424 0.067253686
956.81244 952.14734 82.187225 0.76171869 0.41245565 -0.49966481 0.15687931
955.39606 954.86462 80.459839 0.75409776 0.49139604 -0.43573675 0.17536744
940.9986 934.66266 43.022827 -0.54741061 0.15165858 0.82300746 0.19503982
930.3194 925.11212 40.314747 -0.44067982 -0.03745313 0.89688271 0.20143731
988.25934 974.42462 120.3448 0.75078148 0.33681661 -0.56822681 0.086712293
937.99304 931.90759 43.330902 -0.5159443 -0.023760444 0.85629255 0.20595278
955.47559 942.41351 58.055534 -0.63006145 -0.14637826 0.76262438 0.17598298
940.77765 943.86145 53.900249 -0.63269454 -0.37893939 0.67535365 0.16688487
942.57831 946.13104 53.746315 -0.5305528 -0.38021833 0.75759339 0.1741789
961.3465 952.48981 62.614212 -0.49642399 0.091633663 0.86323029 0.19259809
934.68921 932.83356 42.372791 -0.55180496 -0.37623659 0.74428308 0.21199955
943.59167 935.85736 42.691486 -0.57907188 0.12791561 0.80517912 0.21166711
945.67273 950.12555 59.838486 -0.57433206 -0.45674103 0.67936021 0.18709606
955.13672 939.70105 34.893101 0.014217388 0.69697809 0.71695149 0.23791613
940.73376 936.1814 43.758801 -0.61448681 0.021167003 0.78864306 0.19631839
931.84918 911.27795 47.578491 -0.31855452 0.27085447 0.90838367 0.10166799
950.06854 927.85406 51.523289 -0.639265 -0.03182023 0.76832783 0.15055247
958.08734 965.69751 60.549152 -0.66293484 -0.14603932 0.73429555 0.20169251
943.13483 944.06329 49.830414 -0.59737217 -0.28037515 0.7513563 0.20229118
998.07324 942.02533 116.94716 0.78093928 0.26997468 -0.56324732 0.11490298
977.4137 914.84766 84.773033 0.64312661 0.59986085 -0.47597802 0.18206461
998.0351 934.013 113.97083 0.73940688 0.2742469 -0.61487085 0.15340303
995.86182 967.21472 126.78967 0.75023156 0.31844428 -0.57943583 0.10685995
963.82703 926.60028 62.513794 -0.59957212 -0.20431419 0.77380162 0.1389664
996.29663 960.42822 123.25217 0.72884595 0.31576762 -0.60751492 0.10281729
980.66602 930.12518 78.426308 -0.68599576 -0.18000184 0.70498878 0.1851069
988.07404 962.21667 113.63548 0.7387172 0.34696573 -0.57785094 0.088106491
988.12506 892.54333 78.52562 -0.64267677 -0.1643108 0.74831045 0.13958637
990.68701 904.20813 83.280365 -0.67588353 -0.20476463 0.70799214 0.13520226
993.04993 917.25677 90.681061 0.87174493 0.13088658 -0.47215408 0.16053878
961.12262 917.82495 59.087067 -0.62319899 -0.12432898 0.77211744 0.12929237
978.50134 913.61304 72.341492 -0.59629601 -0.09234681 0.79743534 0.14447437
1009.2864 892.21997 94.42318 -0.62561661 -0.33382854 0.70509738 0.077947333
1000.2957 918.75989 107.1468 0.75004685 0.43988317 -0.49389529 0.1338616
994.9079 950.76575 117.4058 0.70610285 0.25403899 -0.66097122 0.10034849
982.83014 926.70508 77.257431 -0.62081271 -0.04390518 0.78272849 0.1678701
960.22827 927.3869 61.690739 -0.66883785 -0.21069399 0.71292639 0.14543961
999.13385 928.45428 112.44196 0.77093077 0.22543927 -0.59568691 0.16894548
1011.8688 887.87146 94.012695 -0.55069774 -0.55236721 0.62579751 0.092749424
1007.5095 876.22723 84.588585 -0.41564 -0.50065064 0.75933677 0.083924666
988.9223 956.48193 111.13917 0.75073481 0.37316263 -0.54511184 0.12187789
985.16766 928.61603 93.334068 0.68256277 0.50885832 -0.52456766 0.2071483
998.96307 951.31055 121.6293 0.75499076 0.25554067 -0.603894 0.096735619
989.22412 941.56372 100.57481 0.79316169 0.41038972 -0.44997203 0.20260622
1056.7706 893.51086 121.53931 -0.44738793 0.28398231 0.84805548 0.1427923
1056.6168 854.34326 118.80935 -0.51109678 -0.26235995 0.81850308 0.10416111
1045.0997 870.3667 115.82645 -0.50124723 -0.22101067 0.83660358 0.13198976
1057.754 906.81561 119.0192 -0.47978792 0.32397696 0.81537873 0.23875147
987.37787 918.57996 82.98838 0.79039735 0.12661277 -0.59936732 0.17685379
990.87146 908.93347 84.566795 0.74756926 0.25485435 -0.61334282 0.14696142
1024.2821 912.15753 132.58072 -0.53300703 -0.29763174 0.79203463 0.10815735
1071.2131 872.83032 143.47212 0.9211911 0.25667015 -0.29245076 0.20179422
980.02264 925.61145 80.710678 0.76996928 0.30609411 -0.55986935 0.19975537
1054.1001 895.96075 116.70419 -0.55201399 0.2791546 0.78571832 0.090903141
1048.7303 903.21356 113.61924 -0.38067344 0.30149224 0.87417972 0.1313992
1061.3986 877.50104 130.60721 0.68678451 0.24603827 -0.6839534 0.17173184
1064.8239 891.12836 129.89668 -0.62520963 0.29879701 0.72099465 0.19145817
1034.4078 880.88171 116.64258 -0.60333836 -0.44133398 0.66423422 0.12287998
1058.1815 866.41034 121.01344 -0.66162115 -0.10711864 0.74214756 0.11621109
1068.3416 870.37079 134.34451 0.745112 0.28268197 -0.6040687 0.14473407
1035.96 867.99115 106.04222 -0.68004763 -0.15028308 0.71760035 0.13455647
1044.0045 864.1261 110.92717 -0.5971967 -0.17422496 0.78294432 0.15402654
980.5788 940.26453 75.011932 -0.56325179 0.043548733 0.8251369 0.20180127
996.39355 914.28143 98.835014 0.82471037 0.36890283 -0.42867649 0.15389784
973.99182 990.20984 110.57613 -0.56744474 -0.12005443 0.81461239 0.11124223
938.5675 980.55371 81.224792 -0.51179588 -0.499322 0.69910121 0.14608742
987.66803 932.80847 95.203964 0.76465309 0.44112128 -0.46980599 0.21102816
992.84613 964.42596 120.90546 0.73258936 0.36445537 -0.57487833 0.09262652
948.8009 967.46576 54.420685 -0.44342148 0.09391959 0.891379 0.27057675
944.24066 963.00641 72.625267 -0.5827052 -0.54058444 0.60681385 0.1761255
961.32007 966.70306 94.65255 -0.65574968 -0.34924433 0.66934353 0.080648236
940.25574 959.71222 60.084782 -0.4042691 -0.69953573 0.58925056 0.28937781
942.31415 963.10126 69.911209 -0.40545633 -0.64829701 0.64445025 0.20426257
948.79633 962.41272 66.354179 -0.024542531 -0.91433764 0.40420833 0.24114272
939.33978 960.89276 65.321983 -0.52915686 -0.61676633 0.58274549 0.19822122
