# .PCD v0.7 - Point Cloud Data file format
VERSION 0.7
FIELDS x y z normal_x normal_y normal_z curvature
SIZE 4 4 4 4 4 4 4
TYPE F F F F F F F
COUNT 1 1 1 1 1 1 1
WIDTH 613
HEIGHT 1
VIEWPOINT 0 0 0 1 0 0 0
POINTS 613
DATA ascii
2611.405 -211.39178 -386.22028 0.92568487 0.37695372 -0.031833675 0.068483524
2607.3083 -197.68243 -385.96771 0.97150224 0.23581384 0.023983397 0.083133608
2684.5828 -310.97305 -356.12384 -0.46020389 -0.021288998 0.88755798 0.084735051
2629.4517 -263.97998 -394.46982 0.78871375 0.0035463052 -0.61475033 0.05603772
2653.0125 -377.11798 -355.25162 0.49635845 -0.8432675 -0.20622377 0.077568389
2627.1501 -295.82495 -396.70056 0.79430801 0.022607349 -0.60709453 0.087648213
2628.6985 -247.74597 -391.47607 0.79138058 0.28779432 -0.53934324 0.074081056
2620.9648 -229.90982 -389.59286 0.84547538 0.46913239 -0.25511995 0.059151448
2630.3503 -280.15665 -393.22629 0.73760641 -0.085559472 -0.6697883 0.054709025
2695.6257 -342.75388 -363.3335 0.70446241 -0.42550862 0.56804496 0.10075536
2663.5208 -272.74594 -357.87277 -0.62291926 -0.2153241 0.75206858 0.08338546
2675.1743 -361.32791 -355.46365 0.67311347 -0.72065932 0.16603756 0.07718721
2615.05 -183.68958 -453.57037 0.98046714 -0.16693337 0.10400708 0.08040975
2642.2693 -131.39139 -457.74023 0.84847099 -0.52025294 0.097128086 0.12071677
2619.7048 -167.2935 -452.32413 0.89516872 -0.35988665 0.26297244 0.087898508
2630.6179 -147.16797 -457.24786 0.84677833 -0.50980717 0.15186526 0.080696695
2609.2012 -193.69107 -407.6626 0.9899435 0.095529966 0.1043357 0.059071895
2611.645 -211.31424 -407.96875 0.98272425 0.1848841 0.0084240269 0.058172517
2632.5647 -238.53081 -369.16666 0.75005114 0.62322897 -0.22137961 0.081752717
2617.0901 -285.17548 -413.66843 0.91562027 -0.026379593 -0.40117788 0.084292762
2645.1667 -313.73431 -375.62668 -0.50529635 0.17125025 0.84578305 0.12436619
2619.0032 -248.65797 -412.07632 0.93600529 0.10659932 -0.33545583 0.065785564
2647.6023 -294.77051 -376.28308 -0.64312851 -0.040969804 0.76466149 0.085349351
2615.7688 -230.02249 -410.60086 0.95664763 0.24811991 -0.15251832 0.061354924
2618.8279 -267.40167 -412.62469 0.91625601 -0.096144803 -0.38888445 0.060284663
2645.9363 -257.52173 -374.37723 0.7557323 0.091823816 -0.64841121 0.10054097
2645.0764 -275.40219 -377.30414 0.74520051 0.062953986 -0.66386217 0.070111804
2701.2915 -359.68399 -380.01077 0.36057526 -0.74935561 0.55538428 0.078636229
2657.8892 -112.08168 -475.1619 0.80985957 -0.46371552 0.3592985 0.065377362
2612.0515 -191.06215 -427.26022 0.99070573 0.031601358 0.13230067 0.060692217
2612.5759 -208.69409 -426.56912 0.9892571 0.084627584 0.11919984 0.061015032
2608.6785 -207.28561 -383.98773 0.90439463 0.41579637 0.095831715 0.075386047
2635.1248 -278.00504 -388.11823 0.72545427 -0.029351337 -0.68764424 0.05273195
2633.7986 -148.56625 -471.43008 0.85916889 -0.48084861 0.17496692 0.081480898
2689.748 -308.98444 -353.48608 -0.44964972 -0.009354271 0.89315599 0.093082473
2672.2932 -364.59268 -352.08032 0.62984037 -0.77573895 -0.039116792 0.058909241
2614.7026 -264.30624 -429.20367 0.97745258 -0.17582685 -0.11692463 0.063961588
2616.6323 -246.14761 -430.05362 0.99891436 0.043784887 0.015903806 0.083932124
2645.8342 -130.25597 -473.41946 0.79832435 -0.54665816 0.25267196 0.082467914
2630.7864 -242.20787 -384.63586 0.7720958 0.42129466 -0.47579291 0.079746127
2611.928 -282.20544 -430.41266 0.97258705 -0.10363422 -0.20816898 0.09008874
2614.8501 -218.63412 -382.15591 0.90069431 0.43164989 -0.049275838 0.063596487
2687.6357 -344.58932 -354.29715 0.91096509 -0.40938476 0.050465111 0.10012212
2614.009 -172.73004 -425.63406 0.97987765 -0.17843643 0.089444146 0.093042545
2635.0676 -258.99298 -387.05301 0.78489763 0.081348978 -0.61426222 0.071884692
2636.7288 -296.11264 -387.772 0.71780205 0.063591182 -0.69333714 0.11032462
2615.4146 -228.40273 -429.09399 0.9874472 0.15381555 0.03589974 0.069536231
2643.5137 -306.05951 -380.64334 -0.6224106 0.072103739 0.77936262 0.14340574
2632.0217 -151.43103 -466.94174 0.88092703 -0.44686779 0.15581012 0.084263027
2615.8535 -236.59341 -419.43402 0.97896445 0.13949092 -0.14889888 0.06731227
2700.5391 -321.47949 -340.95795 0.87785858 0.056417927 -0.47558525 0.11893751
2615.2776 -273.17291 -420.4035 0.94571638 -0.12799758 -0.29872578 0.065381899
2643.1277 -268.86496 -379.87988 0.74856538 0.047513269 -0.66135645 0.06741868
2664.219 -373.76547 -341.42407 0.55737203 -0.8073011 -0.19391051 0.075574562
2612.7795 -217.27271 -416.80237 0.9877944 0.15031236 0.04084599 0.061724726
2642.4617 -251.28821 -376.79614 0.77906501 0.14596969 -0.60971355 0.10689881
2635.2888 -141.70543 -460.89581 0.85187906 -0.5019275 0.14956871 0.091082357
2611.0027 -200.11081 -417.12479 0.98628879 0.10958157 0.12339506 0.056051292
2609.2512 -181.98547 -415.93939 0.97054774 0.056130793 0.23427863 0.075479567
2616.5823 -255.00247 -420.39011 0.97092497 -0.0015140059 -0.23937924 0.076340035
2646.0303 -288.08411 -377.84894 -0.67504019 -0.028826836 0.73721755 0.080026992
2624.804 -230.41693 -375.1911 0.79496932 0.57647681 -0.18893997 0.062572181
2646.1577 -123.21318 -462.26584 0.7513845 -0.58069187 0.31339794 0.10243688
2651.7708 -126.75111 -482.75906 0.80451679 -0.54875994 0.22718997 0.055215761
2631.3801 -284.27518 -391.18396 0.73414797 -0.084877275 -0.67366356 0.055032767
2610.823 -210.86613 -383.97324 0.91447985 0.40459964 0.0050773388 0.067946129
2632.5923 -266.05188 -390.96143 0.7973389 -0.015958471 -0.60332078 0.052701924
2613.4626 -274.00769 -428.89713 0.96593308 -0.17309847 -0.19238026 0.07201802
2619.1504 -241.23793 -432.54721 0.98975104 0.021705542 0.14114453 0.15567186
2633.6511 -300.44058 -392.06482 0.76070052 0.11655411 -0.6385529 0.13796678
2692.1794 -314.05734 -352.56079 -0.4949784 -0.034596957 0.86821622 0.10848156
2668.6631 -274.98694 -352.58514 0.69219357 0.2633242 -0.67195863 0.077928528
2620.7786 -228.81691 -387.02344 0.84300584 0.48704123 -0.22832429 0.059914749
2612.3389 -188.10052 -428.79581 0.98551422 0.02125412 0.16825573 0.062760696
2630.6152 -248.78625 -389.39713 0.80647403 0.28022835 -0.52064544 0.07482294
2615.1448 -170.02356 -429.77319 0.97811645 -0.16311221 0.12916112 0.10579182
2621.7302 -161.75894 -429.89813 0.7256608 -0.65322351 -0.21613757 0.13781211
2616.4985 -256.47827 -429.61542 0.98329461 -0.14651552 -0.10800436 0.079370514
2655.0432 -118.78246 -476.07843 0.73598796 -0.604249 0.30529475 0.061706986
2612.4907 -205.17621 -428.29224 0.99087936 0.069577448 0.1153997 0.064014152
2672.98 -363.97552 -352.99872 0.63170356 -0.77415943 -0.040345743 0.057445522
2653.1765 -377.41437 -350.72913 0.45571503 -0.87741405 -0.14989468 0.075138025
2685.8936 -347.03137 -355.36401 0.89755601 -0.41272041 0.15509708 0.099614486
2636.8896 -142.0159 -462.31699 0.85461122 -0.49285433 0.16350621 0.10481242
2615.3623 -229.64664 -410.78162 0.96005607 0.24230097 -0.13993788 0.059890363
2641.449 -132.70879 -456.67905 0.85251755 -0.51906782 0.061500993 0.11250508
2612.5356 -214.31651 -410.02753 0.97726512 0.21122301 0.018376634 0.060301807
2650.2812 -110.5169 -461.63443 0.77638721 -0.42352459 0.46674389 0.088473022
2609.1875 -194.72571 -407.76056 0.98643005 0.1236875 0.10796808 0.059436712
2628.6489 -236.94586 -368.60486 0.76072329 0.63671029 -0.12609561 0.066221513
2606.8997 -177.19189 -408.61389 0.95616901 0.087364458 0.27947864 0.082124211
2645.0127 -276.5607 -377.40887 0.74235833 0.054239079 -0.66780406 0.06744957
2620.1099 -288.36374 -411.01694 0.89075863 0.055006899 -0.45113561 0.094990522
2619.1721 -269.1553 -412.53592 0.9029054 -0.11963635 -0.41285467 0.055120517
2647.4016 -259.82236 -373.15057 0.76921999 0.097506985 -0.6315006 0.093769982
2648.447 -296.81421 -375.96689 -0.63553721 -0.048252434 0.77056098 0.091378868
2620.2776 -251.14842 -411.31198 0.92568767 0.079769135 -0.3697826 0.072446801
2611.2451 -181.93846 -423.75696 0.98032826 0.048452083 0.19133452 0.06793882
2615.0242 -230.63652 -425.00674 0.99285138 0.11933667 -0.0022116322 0.072279289
2615.8938 -219.45749 -380.28516 0.87914675 0.46861181 -0.086625494 0.063774675
2608.4431 -207.48224 -380.61133 0.90847492 0.40581328 0.099944517 0.083732322
2611.5359 -197.80133 -423.23254 0.98506844 0.04314439 0.1666694 0.057790574
2612.9722 -214.66815 -424.52679 0.9895792 0.08267536 0.11788898 0.064653754
2630.1035 -238.93674 -382.05542 0.77628416 0.47416857 -0.41538787 0.07761915
2674.7212 -363.40808 -348.44565 0.60580951 -0.79172879 -0.078487791 0.052014623
2696.5295 -321.38159 -347.30777 0.78714889 0.086555153 -0.6106593 0.11600204
2640.6812 -257.25684 -381.48114 0.77442366 0.046052616 -0.63098907 0.080641121
2637.9561 -305.97369 -386.19611 -0.66507083 -0.0089447415 0.74672669 0.15029888
2615.4775 -247.85915 -426.40265 0.99549252 0.031314243 -0.089521579 0.079814166
2615.2561 -265.03815 -426.05347 0.9686442 -0.14433311 -0.20222852 0.067862719
2691.7002 -336.2551 -351.65808 0.71103579 -0.067174047 -0.69993979 0.11030869
2641.6929 -290.12122 -382.50882 -0.67905545 -0.035673 0.73321968 0.094770782
2680.4819 -350.87338 -349.82861 0.73545098 -0.54584032 0.40146002 0.090885341
2640.1218 -273.01581 -383.25351 0.73228556 0.0061662341 -0.68096977 0.061126422
2612.2612 -280.77271 -426.76797 0.96646106 -0.10284647 -0.23532027 0.082645781
2691.2136 -330.92368 -352.84769 -0.65597606 -0.011880386 0.7546882 0.11735745
2614.9519 -266.99265 -425.9899 0.967794 -0.14795934 -0.20367318 0.068289727
2690.802 -293.53445 -348.53189 -0.44784573 -0.25997594 0.85548037 0.053930435
2699.7295 -314.07117 -344.94339 0.72156614 0.0097418288 -0.69227695 0.14120474
2611.2034 -192.93553 -421.22733 0.98340869 0.015082187 0.18077572 0.059231751
2636.3643 -261.78598 -385.65085 0.78448832 0.049903907 -0.61813235 0.075856619
2616.0957 -248.97531 -425.13889 0.99181539 0.022352828 -0.12570821 0.086232819
2640.292 -136.18021 -467.71506 0.82113427 -0.54554307 0.16769391 0.092803143
2617.6633 -222.55681 -379.27634 0.87558621 0.47444215 -0.090848334 0.063850395
2639.2634 -299.97433 -385.28949 -0.6715678 -0.065467581 0.73804516 0.12211714
2613.5493 -284.81235 -427.09814 0.97129887 0.040064648 -0.23446395 0.094515435
2613.0764 -212.15729 -424.22638 0.98988599 0.080947079 0.11650454 0.06393861
2634.0225 -243.98898 -382.01569 0.75971889 0.37340954 -0.53234625 0.090542898
2610.6648 -175.17508 -419.78613 0.98348737 -0.025835544 0.17912312 0.084631808
2651.1992 -378.9606 -345.12958 0.3994903 -0.89616734 -0.19311035 0.081390373
2684.0591 -348.84259 -349.49408 0.83905005 -0.50037295 0.2135929 0.10120546
2614.2637 -228.73393 -423.24252 0.99045646 0.1353649 -0.025929289 0.074340053
2673.761 -364.09775 -348.71454 0.60896772 -0.7893858 -0.077642649 0.051314831
2639.1431 -280.9985 -384.14554 -0.70077801 -0.0072948877 0.71334213 0.060874421
2620.4617 -229.75533 -391.13931 0.85379332 0.45241684 -0.25759652 0.055351742
2646.9741 -239.1705 -440.75909 0.33048788 -0.91157675 0.24455187 0.16098356
2642.8384 -137.17931 -479.33749 0.79463083 -0.56146896 0.2308992 0.070847355
2667.7107 -280.65753 -356.86862 -0.65023696 -0.3220264 0.68810672 0.062418375
2615.0581 -257.76263 -434.13251 0.98849213 -0.14903899 -0.025898045 0.070812017
2614.6743 -219.69237 -432.4071 0.98387396 0.082378283 0.15876362 0.064477526
2629.8958 -267.07483 -394.70081 0.78593552 -0.065648325 -0.61481351 0.045625564
2612.1777 -184.06795 -430.67908 0.99471378 -0.021268949 0.10045955 0.065800242
2628.7849 -284.90353 -396.42197 0.78142798 0.042238928 -0.6225642 0.074083686
2612.0251 -201.72311 -431.33798 0.99298239 0.04563161 0.1091041 0.060421582
2629.8979 -249.97116 -391.88904 0.80035412 0.25057179 -0.54465318 0.068617508
2618.8618 -268.17816 -475.92993 0.71344477 -0.58714801 0.38243148 0.099414922
2632.6956 -154.84576 -478.51974 0.87647378 -0.43899849 0.19767162 0.084504336
2610.3337 -208.34262 -389.24554 0.93272293 0.35670018 -0.052847944 0.069303423
2611.1084 -275.50836 -435.34567 0.96002656 -0.23146899 -0.1573883 0.070958301
2685.582 -303.55881 -355.27573 -0.45422977 -0.17900854 0.87271488 0.041762978
2692.5796 -323.34634 -354.03442 -0.49676156 -0.050303515 0.86642802 0.076060094
2704.4709 -328.40964 -315.79343 -0.17829935 -0.98086232 -0.078220405 0.12810913
2680.9053 -357.93207 -359.71088 0.649131 -0.63321412 0.42150781 0.085459843
2659.6265 -372.77258 -357.42111 0.51251262 -0.83107251 -0.21598461 0.059578627
2631.4023 -299.56281 -398.44727 0.7960304 0.42735454 -0.42860669 0.12465611
2611.5166 -178.97617 -425.35809 0.98372364 0.006666916 0.17956436 0.069613077
2644.0823 -134.1049 -475.83563 0.81545001 -0.5296241 0.23353705 0.076825485
2632.4961 -152.21494 -473.27921 0.87473148 -0.45659012 0.16238919 0.075320527
2612.4519 -198.16362 -428.43982 0.99136722 0.045714825 0.12288676 0.069251999
2625.8127 -259.50259 -475.97443 0.72168761 -0.60279632 0.34029925 0.091973558
2611.3013 -287.36359 -429.24359 0.97141725 -0.037972465 -0.23432159 0.11125391
2697.082 -313.02078 -349.22537 -0.56861788 -0.0061590527 0.82257873 0.12514716
2634.7461 -260.0209 -387.80026 0.78417444 0.064610079 -0.61716771 0.069059901
2615.8286 -252.0275 -429.00467 0.99943441 -0.033154767 -0.0056281979 0.080712229
2634.074 -278.05511 -388.98495 0.73645604 -0.037784956 -0.6754294 0.053546503
2616.4468 -220.76781 -385.34686 0.88605577 0.4462347 -0.12561759 0.061679367
2628.2815 -240.85597 -387.14932 0.80493724 0.41190347 -0.42709672 0.068216577
2633.186 -295.80814 -390.97437 0.74056941 0.06498988 -0.6688298 0.10042566
2613.8323 -270.13675 -429.11255 0.97810513 -0.16068277 -0.13225518 0.063838489
2613.5901 -215.95663 -427.93634 0.99158692 0.072865546 0.10698566 0.066954695
2692.739 -330.99335 -351.74588 0.71636444 -0.018225562 -0.69748819 0.11267069
2688.043 -345.26849 -353.10989 0.8726579 -0.46806559 0.13922198 0.10362083
2677.248 -360.17395 -351.84396 0.62810522 -0.77009034 0.11155555 0.068359286
2614.9678 -232.39069 -426.99878 0.99256212 0.12173918 0.00024475023 0.070515618
2698.0244 -323.14075 -344.71164 0.83612961 0.059569832 -0.54528773 0.10601372
2634.5657 -290.34689 -386.92087 -0.68429267 0.042648394 0.72795922 0.060760938
2667.5649 -370.06259 -344.37747 0.59809309 -0.78833359 -0.14427322 0.061979048
2609.1106 -211.24097 -377.16296 0.89450139 0.42079413 0.15099531 0.083904229
2639.021 -275.00034 -383.83731 0.72893095 -7.902069e-05 -0.68458724 0.06000264
2630.2559 -307.31503 -387.315 -0.631666 0.15804482 0.75895977 0.075763471
2637.8557 -257.40808 -382.88632 0.79456007 0.12198221 -0.59480637 0.084780067
2614.1294 -218.46704 -374.98941 0.89566803 0.44472203 0.0010380676 0.074284747
2626.9995 -236.383 -380.50275 0.79988635 0.52761865 -0.28600773 0.065975338
2662.6318 -120.32684 -499.26941 0.73292476 -0.59594011 0.3281413 0.044214997
2621.5811 -253.62514 -406.75769 0.89376253 0.093556128 -0.43867508 0.061527357
2613.626 -219.50937 -403.10794 0.95543891 0.28829455 -0.063425258 0.059837673
2624.0332 -158.78139 -447.45129 0.83432627 -0.51695961 0.19144812 0.093247354
2615.3005 -177.20703 -445.79962 0.97632992 -0.15540797 0.150427 0.077949926
2624.6335 -246.26955 -449.42773 0.85011387 -0.45442507 0.26609063 0.12436412
2634.2576 -141.43144 -449.24161 0.86551529 -0.49504483 0.076249249 0.088516317
2652.8838 -263.89111 -368.58887 0.7438314 0.028084543 -0.667777 0.08563859
2614.9292 -263.15994 -448.06949 0.92620939 -0.37572679 0.031073194 0.080673166
2618.0098 -235.68039 -405.32477 0.90629977 0.29826599 -0.29942968 0.056613352
2609.748 -201.40228 -401.81879 0.98639858 0.15729997 0.047692522 0.057837047
2612.9424 -193.8732 -445.95715 0.99904346 -0.041428167 -0.013995492 0.07384339
2621.2361 -272.53659 -407.24716 0.87792385 -0.11120445 -0.46570727 0.053754032
2662.4863 -300.46771 -366.72296 -0.54565489 -0.16860735 0.8208729 0.075070463
2656.4543 -281.89246 -367.47543 -0.68180168 -0.16139786 0.71351045 0.074405499
2662.1128 -316.98404 -369.21976 -0.4559302 -0.064441279 0.88767952 0.082700156
2704.1487 -328.62949 -327.34152 0.32702458 -0.91053939 -0.25292879 0.09270829
2619.3542 -287.5076 -408.60986 0.87438673 0.051535551 -0.48248518 0.080222674
2615.9316 -244.00545 -427.99649 0.99553841 0.079308599 -0.051121559 0.077701159
2610.873 -177.077 -423.5177 0.98268807 -0.0096107172 0.18501827 0.074087515
2613.5854 -225.112 -424.83969 0.99060798 0.083100542 0.10858231 0.066993207
2612.3213 -209.33052 -424.76855 0.98610824 0.079335779 0.14593273 0.060740441
2621.9209 -157.78343 -434.74976 0.91154051 -0.27299613 0.3075175 0.13231277
2622.3796 -230.28951 -382.93369 0.83669579 0.51780796 -0.17836779 0.060243379
2611.4365 -192.99606 -425.37509 0.99345821 0.00071876892 0.11419403 0.06328956
2639.1567 -252.78503 -382.28189 0.77381814 0.10396124 -0.62481803 0.092235364
2612.2124 -214.11484 -380.94162 0.91268861 0.40845978 0.01265119 0.069121189
2686.3259 -347.04019 -352.56223 0.87439138 -0.46640751 0.13380498 0.097075984
2693.5117 -315.04556 -350.37704 -0.61591768 -0.057461545 0.78571212 0.13066125
2635.3726 -284.08902 -387.40903 -0.69706357 0.045203406 0.71558297 0.063195772
2635.3584 -299.91312 -388.50601 -0.68509686 -0.025242208 0.72801447 0.13180856
2676.0469 -360.59647 -350.40601 0.65271056 -0.75227392 0.08973778 0.068588451
2615.0942 -260.58389 -428.41833 0.9849571 -0.14046821 -0.10063871 0.076194711
2656.811 -376.66812 -347.91348 0.48266134 -0.8474859 -0.22092003 0.069429956
2689.0703 -331.0108 -354.67755 -0.6408788 0.0022565473 0.7676388 0.10743205
2636.6646 -268.00607 -386.44223 0.75576782 -0.0027622837 -0.65483385 0.061168104
2690.6753 -298.16898 -350.40271 -0.46364957 -0.24118656 0.85255975 0.051787168
2612.4763 -276.73566 -428.06534 0.96062946 -0.15787326 -0.22862002 0.082474835
2617.9626 -167.69876 -440.72217 0.93380463 -0.33246905 0.13218644 0.099473856
2613.3669 -182.96037 -441.04547 0.99548882 -0.062334467 0.071528979 0.071404323
2629.4529 -257.32922 -395.2677 0.79009044 0.073330723 -0.60858828 0.054777652
2610.2368 -207.26299 -395.06702 0.94789726 0.31812859 0.016882299 0.065550722
2617.3428 -250.25427 -441.86258 0.97760719 -0.1851293 0.1000565 0.089035586
2613.0942 -199.89229 -439.84384 0.99592274 0.051220037 0.07425864 0.066333011
2626.5493 -242.84972 -394.31689 0.81079751 0.35818607 -0.46293646 0.0679207
2616.5439 -224.06262 -395.53354 0.90415192 0.39118278 -0.17171304 0.059747964
2624.5161 -154.76292 -440.44382 0.82324243 -0.56158888 0.083004721 0.10869315
2675.1904 -303.41364 -360.56238 -0.4759877 -0.24317287 0.8451643 0.043734826
2657.8652 -266.66635 -362.95142 -0.69800782 -0.060249962 0.71355098 0.098548882
2668.5085 -285.66934 -359.16476 -0.6068632 -0.27233323 0.74669385 0.061633386
2629.8174 -273.54694 -395.33517 0.74964321 -0.081202663 -0.65684181 0.047359198
2672.3579 -318.9953 -362.7843 -0.41504559 -0.0054586753 0.90978426 0.044978499
2668.2395 -369.31525 -362.95117 0.60058278 -0.79013741 0.12240615 0.07103765
2711.0029 -328.61005 -322.92673 -0.0071893334 -0.9827714 -0.18468533 0.11419084
2686.6899 -354.58878 -364.52087 0.6726498 -0.57393897 0.46705067 0.098495059
2627.8921 -288.86465 -398.711 0.77657074 0.11781759 -0.61891592 0.090794168
2613.373 -266.45416 -441.06244 0.94852555 -0.31374899 -0.04313786 0.075026765
2615.4187 -175.95456 -447.2439 0.97566772 -0.1718706 0.13613616 0.082962312
2621.8999 -160.65781 -447.18903 0.86986071 -0.47182122 0.14396884 0.092347376
2621.3811 -237.94473 -404.55322 0.89352483 0.34535506 -0.28695509 0.080170818
2653.9099 -249.68185 -364.98889 0.78112656 0.10463715 -0.61554229 0.14008789
2627.7771 -247.48079 -451.33038 0.69935143 -0.6444726 0.30913207 0.1346598
2610.699 -202.59651 -404.75589 0.97810072 0.18811359 0.08906357 0.061682787
2623.1692 -252.41554 -405.49078 0.87510508 0.12846577 -0.46657014 0.064996459
2615.114 -221.21164 -405.79916 0.95898038 0.28291968 -0.017693231 0.061458673
2613.1621 -191.66899 -449.78452 0.99668378 -0.068193689 -0.044396263 0.077407554
2622.0969 -286.09271 -406.88562 0.86216587 0.041998059 -0.50488234 0.088542111
2624.0312 -268.35294 -404.92603 0.84524614 -0.11007418 -0.52291739 0.055238448
2651.8511 -264.84476 -369.60986 0.75305545 0.063149013 -0.65491956 0.081166141
2616.3237 -260.14825 -451.9812 0.90789789 -0.41586101 0.052735467 0.089393951
2699.8325 -332.33334 -338.43198 0.83102387 -0.21953799 -0.51107967 0.10548708
2657.4666 -283.89716 -367.3414 -0.68413073 -0.17370455 0.70837271 0.078341663
2658.2278 -300.21146 -369.87161 -0.55809027 -0.15284716 0.81558138 0.086911611
2615.7637 -177.73563 -445.66028 0.97482711 -0.19763638 0.10320849 0.083377801
2620.9573 -161.99747 -443.69302 0.88239098 -0.44970107 0.13840184 0.089055896
2659.7 -122.24428 -497.46317 0.78194499 -0.57235259 0.24693029 0.049949031
2645.6436 -139.30539 -494.41003 0.75385857 -0.59873062 0.27058992 0.060123447
2620.2292 -238.92249 -403.09259 0.88485652 0.2990633 -0.35719761 0.06256973
2658.2266 -268.0257 -362.12604 0.76588178 0.16456789 -0.62156457 0.099151894
2621.1377 -247.68695 -446.17831 0.92272109 -0.33494326 0.19078463 0.11223862
2681.1526 -361.80472 -367.27939 0.62647295 -0.70576996 0.33078754 0.092391394
2614.4788 -221.46472 -401.86267 0.95282388 0.29107898 -0.0860212 0.057391476
2664.2253 -286.36682 -362.61224 -0.63470525 -0.22982813 0.73778605 0.072003111
2620.7817 -289.72159 -406.42178 0.85984045 0.041407101 -0.50888091 0.075776637
2612.927 -195.77902 -444.78 0.99868453 -0.036339227 -0.036175862 0.070179783
2625.3262 -257.0719 -402.93134 0.87123209 0.017048711 -0.49057513 0.060654685
2609.3745 -202.07027 -399.88977 0.97785455 0.20783035 0.024637278 0.058792967
2666.8152 -302.40915 -364.96884 -0.49642429 -0.1714149 0.85098755 0.058161587
2614.3679 -263.62903 -445.94357 0.93547082 -0.3531048 -0.014536873 0.077291243
2622.0933 -274.33151 -405.85373 0.85417062 -0.091539063 -0.51187223 0.053698976
2675.7463 -321.23062 -361.87628 -0.41527429 -0.029434027 0.90921992 0.051916435
2708.0193 -327.80106 -325.85602 0.18118578 -0.96047151 -0.21134371 0.096235231
2611.7617 -200.05727 -451.0618 0.99393666 -0.074730791 -0.080655068 0.070174165
2668.0488 -371.50543 -373.7063 0.56444043 -0.81019771 0.15807156 0.092254579
2651.8523 -274.67511 -370.70322 0.73004442 0.12805389 -0.67129523 0.070413858
2616.9041 -229.92174 -407.43872 0.94427526 0.28113687 -0.17119071 0.061086968
2649.0576 -255.75363 -370.59039 0.76155066 0.061365288 -0.6451937 0.10616539
2654.4629 -293.92212 -370.55353 -0.63774431 -0.10729792 0.76273805 0.074634038
2619.4707 -166.29248 -449.69473 0.90074599 -0.37745136 0.21491188 0.090449631
2620.97 -248.16963 -407.55228 0.90682167 0.14934826 -0.39416942 0.064057663
2615.762 -181.10429 -452.40387 0.97416085 -0.20589256 0.092838116 0.08618848
2620.9033 -266.10892 -409.4498 0.88997352 -0.10732114 -0.44320351 0.056281015
2611.6169 -210.07396 -406.00259 0.98184562 0.18956582 0.0066309194 0.058441885
2610.0137 -272.53659 -452.9502 0.90413105 -0.42480922 -0.045652956 0.082588322
2646.9619 -139.96919 -500.01132 0.75830144 -0.61186332 0.22494939 0.044283506
2650.1609 -311.01514 -375.14664 -0.5233559 0.0025052696 0.85211051 0.12013538
2620.2778 -255.50273 -454.09741 0.81856656 -0.56369603 0.11043379 0.077353835
2618.8767 -283.18784 -410.4519 0.89290714 -0.03439413 -0.44892526 0.073496908
2625.3127 -253.01648 -463.48825 0.75558847 -0.58508408 0.29455507 0.071246728
2617.3374 -179.95329 -459.96356 0.95113069 -0.20904107 0.22727132 0.092303872
2616.4827 -240.07632 -418.89594 0.97025144 0.14317836 -0.19522317 0.070866913
2613.5193 -197.15431 -460.89935 0.99272728 -0.10083262 0.065767378 0.11078934
2611.4438 -203.26984 -418.31091 0.98727846 0.10421704 0.12008365 0.056587808
2646.771 -271.18927 -376.13019 0.74673027 0.043770775 -0.6636852 0.067931652
2624.9541 -160.97449 -463.0101 0.85854489 -0.4768137 0.18854535 0.079854056
2644.6479 -253.4603 -375.60916 0.78609997 0.083142169 -0.61248201 0.099959254
2618.3352 -293.55481 -421.31711 0.92546368 0.30855939 -0.21979108 0.11898143
2655.6021 -132.77736 -512.32739 0.74130362 -0.64832991 0.17360096 0.038263783
2615.6553 -275.96436 -419.88165 0.94133264 -0.097297452 -0.32315025 0.073217072
2652.3628 -291.51733 -373.87607 -0.67354602 -0.15397894 0.72292894 0.082510926
2607.1284 -273.35355 -459.78409 0.86241728 -0.50578678 0.02039915 0.080630936
2648.4141 -308.0278 -377.93878 -0.60978365 -0.010687219 0.79249585 0.15059091
2617.1316 -257.93054 -419.77374 0.96481329 -0.077169627 -0.25135666 0.076490313
2614.1584 -222.51402 -418.92581 0.98370314 0.17795604 -0.025686322 0.066359282
2652.939 -283.33566 -370.9368 -0.70209891 -0.11435003 0.70283794 0.067329489
2649.9817 -267.00171 -371.98453 0.76112711 0.07058882 -0.64475012 0.075894758
2646.2283 -315.52832 -376.29352 -0.55549055 0.13170156 0.82102674 0.15593633
2704.5159 -328.84476 -332.25769 0.88067549 -0.29272237 -0.37245703 0.15251496
2688.8584 -367.97525 -383.43597 0.41782945 -0.74107063 0.52557862 0.089321546
2646.6973 -249.73393 -371.4278 0.75979614 0.11910863 -0.63915801 0.12451948
2654.1638 -300.16357 -372.9545 -0.62000787 -0.1212766 0.77516598 0.094360352
2607.4609 -274.75845 -462.76059 0.81108528 -0.57958031 0.078913696 0.10237889
2649.5161 -124.93597 -472.76825 0.82682866 -0.49352774 0.26978645 0.084141485
2617.1606 -244.24031 -420.5842 0.96756208 0.12641962 -0.21872744 0.089284703
2612.6814 -208.57173 -420.67178 0.99039501 0.089614227 0.10529503 0.060122076
2646.5195 -293.2854 -378.31607 -0.67667681 -0.077852085 0.7321527 0.098506398
2645.0498 -275.16058 -378.20309 0.73406112 0.060451239 -0.67638743 0.06785626
2614.2046 -224.46654 -419.02209 0.98640215 0.16420867 -0.0068018059 0.0663075
2616.7515 -261.97177 -420.92914 0.95601994 -0.10850853 -0.27249172 0.068137906
2632.3074 -147.74586 -464.63815 0.84451503 -0.48182333 0.23375352 0.071981184
2633.2417 -240.11754 -376.77124 0.74789202 0.57415515 -0.33317173 0.084734321
2645.7183 -310.86481 -379.20111 -0.57922572 0.061091695 0.81287479 0.17474556
2615.189 -279.94284 -420.72021 0.94322276 -0.066494934 -0.32543692 0.082286119
2700.0752 -324.10016 -341.82437 0.88128483 0.014899975 -0.47235051 0.11514817
2657.9734 -377.99307 -340.94794 0.4267123 -0.86009467 -0.27956006 0.080477841
2624.0837 -164.00557 -464.483 0.86617666 -0.44951984 0.21833432 0.075843647
2610.4827 -188.92561 -417.51996 0.98138869 0.029406143 0.18976714 0.063032337
2626.1724 -254.64665 -468.16025 0.73302805 -0.61008191 0.30078229 0.08112628
2645.3267 -257.44379 -376.13437 0.76849794 0.072977029 -0.63567698 0.089504749
2616.3184 -183.22443 -459.31619 0.96183711 -0.16092318 0.22129862 0.094074823
2621.0168 -236.62604 -398.06424 0.86649823 0.39463985 -0.30567992 0.062771738
2623.9495 -295.47449 -403.90067 0.84902155 0.32154417 -0.41925144 0.10163423
2627.2349 -255.28169 -397.70493 0.79966015 0.1276239 -0.5867331 0.060544297
2661.2012 -277.76102 -361.77005 -0.62785345 -0.2430013 0.73942578 0.076362841
2609.5012 -204.92278 -394.97815 0.95576543 0.29406959 0.0059647891 0.066714197
2673.0193 -296.99045 -360.03223 -0.49900553 -0.24590553 0.83097774 0.051423501
2675.1787 -312.97635 -361.37445 -0.42984629 -0.056883939 0.90110844 0.041533332
2623.3281 -284.92648 -402.35559 0.82369834 0.0095691858 -0.56694746 0.072937042
2661.9316 -263.92657 -358.99823 -0.68134826 -0.053693932 0.72998732 0.10961625
2614.7151 -221.01941 -396.34927 0.9337256 0.33723617 -0.12011776 0.062675551
2625.7048 -270.22531 -400.31491 0.78752935 -0.10408035 -0.60742474 0.043728523
2714.4072 -329.49399 -324.45551 -0.12448765 -0.94394588 -0.30572703 0.093998656
2680.5786 -360.37119 -362.79648 0.61694527 -0.70700747 0.34571519 0.078135125
2696.6277 -333.18045 -353.63165 -0.45771936 -0.10057396 0.88339001 0.083639979
2618.8376 -224.88963 -383.12262 0.87010092 0.46360081 -0.16732819 0.059848502
2634.0898 -247.69791 -384.59863 0.77343732 0.28257713 -0.56740189 0.086312257
2631.7974 -293.74109 -391.22598 0.74976939 0.040465202 -0.66046077 0.089264289
2696.3708 -310.00623 -349.92813 -0.50614631 -0.0050150072 0.86243302 0.11475313
2634.0789 -279.14221 -388.9906 0.72140455 -0.049345426 -0.69075358 0.053381395
2634.9949 -262.9769 -387.78552 0.78469145 0.018230963 -0.61961836 0.063743114
2693.7834 -325.99878 -350.78253 -0.70559835 0.0040090675 0.7086007 0.11869969
2678.4885 -355.68903 -352.15082 0.69728309 -0.64163929 0.31952366 0.086621761
2663.9385 -371.91473 -349.9819 0.57637042 -0.7993902 -0.16962433 0.062664956
2689.0635 -342.31763 -351.31543 0.92168814 -0.27525982 -0.27335504 0.10935911
2620.0383 -166.14926 -452.51282 0.86871731 -0.38870373 0.30698484 0.078490719
2649.876 -138.117 -505.27032 0.77268964 -0.60697538 0.18582664 0.042675428
2616.0864 -180.07701 -456.18555 0.97226351 -0.22930053 0.04609675 0.094304003
2612.0579 -199.10703 -455.15112 0.99817109 -0.034937177 -0.049334668 0.079766639
2610.5938 -272.34946 -456.97449 0.90747547 -0.4197824 -0.016462842 0.096068762
2648.8889 -292.93994 -375.02051 -0.65613621 -0.044328596 0.75333941 0.081005059
2611.425 -209.6312 -409.90521 0.98789406 0.1502462 0.038619112 0.058082826
2645.2339 -255.612 -374.8002 0.75289249 0.090332247 -0.65191483 0.10048518
2615.5168 -227.87683 -411.05856 0.96691066 0.2303907 -0.10956257 0.061844021
2619.1104 -265.01202 -413.04773 0.91326714 -0.099603914 -0.39499643 0.061417967
2646.3435 -273.74405 -375.99789 0.74333638 0.056901909 -0.66649324 0.064826764
2621.2595 -255.97357 -457.71542 0.77885163 -0.60201705 0.17597039 0.080476545
2619.0928 -246.98669 -412.03192 0.93719137 0.13418552 -0.32197303 0.07062716
2625.3096 -299.66595 -415.05563 0.79080009 0.55768824 -0.25222823 0.10955732
2644.4951 -311.64322 -377.58508 -0.56514013 0.14569175 0.81202865 0.14316849
2617.7668 -283.03027 -413.36526 0.90225333 -0.035630915 -0.4297317 0.082556739
2686.4744 -369.19522 -383.88 0.41172516 -0.75698936 0.50739479 0.084445633
2710.033 -328.36758 -322.69629 -0.012412215 -0.993334 -0.11460155 0.10831044
2663.355 -262.73398 -355.19635 0.74162859 0.14560165 -0.65481842 0.11159037
2670.9268 -280.57687 -354.78442 -0.62356263 -0.33517051 0.70627922 0.063013412
2691.1299 -344.09689 -362.9805 0.81431437 -0.39322791 0.42692378 0.11715835
2686.9478 -329.1748 -357.14978 -0.46999487 -0.04003435 0.88176078 0.078829668
2689.3633 -314.3295 -354.93417 -0.46094027 -0.057598114 0.88556004 0.069174506
2679.324 -360.33368 -360.80505 0.64236838 -0.66173291 0.38661659 0.084066704
2614.7175 -219.09488 -426.76971 0.98719496 0.13049842 0.091740571 0.076261342
2612.5886 -199.2149 -425.62634 0.98167849 0.061838839 0.18023121 0.067248099
2623.0774 -175.02728 -468.96616 0.87213564 -0.30709738 0.38088143 0.081626512
2645.616 -250.12578 -376.86975 0.77778828 0.076916598 -0.62380224 0.11734062
2617.7458 -253.87555 -426.14755 0.9816016 -0.15215826 -0.11535244 0.11334667
2618.0317 -265.23825 -470.33414 0.75850701 -0.59677643 0.2617729 0.084487066
2703.0151 -316.54327 -342.7001 0.76833469 0.041805603 -0.63868153 0.11094549
2616.0168 -236.46286 -425.77454 0.99174976 0.11524229 -0.056139514 0.090633839
2614.7886 -271.1423 -425.68463 0.95179731 -0.19195275 -0.2392406 0.075223036
2647.1772 -287.62698 -378.96515 -0.69035745 -0.14358056 0.70907772 0.095623523
2643.4004 -302.90906 -381.83069 -0.65341657 0.016510621 0.75681847 0.13123655
2614.751 -290.03455 -426.93774 0.96146834 0.13336796 -0.24039884 0.11026232
2643.8503 -267.40613 -379.75101 0.75225705 0.042730227 -0.65748268 0.071961939
2653.8069 -120.19387 -475.92764 0.7544387 -0.58969361 0.28824243 0.06298577
2638.1953 -140.63695 -471.71539 0.83405071 -0.51129085 0.20722239 0.096882693
2612.3237 -198.03055 -429.18643 0.99370819 0.018106187 0.11052679 0.06707447
2634.2717 -284.99365 -389.28827 0.71513861 -0.0062460462 -0.69895476 0.075497925
2612.7485 -179.94333 -429.16504 0.99041879 -0.044845868 0.13061206 0.072549097
2692.9482 -335.99097 -353.36758 -0.61475039 0.002703334 0.78871709 0.10521049
2614.2009 -216.16512 -430.26331 0.9854027 0.090439916 0.14422937 0.071902581
2616.2019 -252.8703 -431.98901 0.99739003 -0.07194446 -0.0060909004 0.081645742
2620.5403 -227.67604 -386.11966 0.84252942 0.50528443 -0.18663302 0.057933372
2609.9329 -209.49347 -384.04846 0.9068687 0.41939592 0.041185517 0.06965404
2686.7573 -315.89709 -355.39478 -0.47617078 -0.06469357 0.87696987 0.095894724
2634.7883 -265.97974 -388.9953 0.76972967 -0.012878403 -0.6382401 0.05992049
2633.0544 -249.04193 -386.99307 0.79322684 0.2805765 -0.54043323 0.076465957
2618.4321 -162.7271 -428.008 0.93175781 -0.36307654 -0.001677721 0.12516461
2612.936 -271.21616 -432.1409 0.96404654 -0.22262056 -0.14510114 0.064114638
2641.583 -304.02304 -384.02002 0.72166455 -0.074868776 -0.68818235 0.1925257
2669.7761 -275.81531 -353.13492 -0.63791788 -0.27223548 0.7203809 0.068418033
2683.4473 -352.04477 -356.65463 0.70592016 -0.54067129 0.45754918 0.094641395
2664.4001 -370.86578 -353.31982 0.59469128 -0.7923978 -0.13582349 0.058915231
2619.8884 -274.2265 -409.93979 0.89015508 -0.10676617 -0.44297287 0.058227014
2617.9348 -237.01782 -408.12079 0.93517655 0.23342982 -0.26637432 0.063233964
2616.3254 -261.45224 -452.12604 0.885593 -0.46428382 0.012867981 0.093735315
2653.2693 -266.14847 -368.53467 0.76158422 0.065322287 -0.64476544 0.082575187
2629.9927 -248.99101 -453.00247 0.61385196 -0.76091421 0.21022679 0.11818742
2660.2297 -303.38873 -369.28244 -0.54191893 -0.11900464 0.83196259 0.088543713
2654.6213 -284.26318 -369.54794 -0.68268949 -0.13031857 0.71899384 0.067523941
2616.501 -175.09528 -448.90817 0.96683359 -0.18390317 0.17723536 0.087887101
2613.3633 -192.19283 -449.46475 0.99205363 -0.10485743 -0.069531061 0.076006934
2613.7996 -219.78342 -407.03552 0.96433365 0.26119933 -0.042842735 0.059343595
2637.2905 -136.83095 -455.35037 0.85622698 -0.47525194 0.20251171 0.1057668
2610.4573 -202.08041 -406.04874 0.98531622 0.14600568 0.088511288 0.059134815
2619.3845 -291.60715 -410.18027 0.8925333 0.079974823 -0.44383365 0.087713122
2620.4868 -255.95995 -409.68472 0.90036255 0.010343208 -0.43501762 0.062486582
2646.1655 -124.82175 -452.7706 0.82707226 -0.56024724 0.045547146 0.12531883
2627.739 -154.52341 -452.73856 0.8696447 -0.48290154 0.10258762 0.083325028
2668.2551 -322.28757 -366.34952 -0.43940794 -0.033741038 0.8976537 0.063653305
2701.843 -334.9198 -330.93097 0.82927918 -0.42353889 -0.36456943 0.13269371
2614.4976 -170.72505 -432.54602 0.97284472 -0.22383764 0.058905192 0.092444874
2619.5354 -226.91876 -390.36316 0.86371046 0.47833088 -0.15875699 0.059455387
2612.782 -201.78462 -433.66629 0.9899621 0.076643519 0.11874707 0.065203145
2632.186 -291.97263 -393.1528 0.76792485 0.11299573 -0.63049453 0.098262079
2630.8953 -245.69498 -388.97943 0.78359056 0.34591845 -0.5160681 0.076605268
2656.2576 -240.41074 -441.57101 0.1720646 -0.94247335 0.28659689 0.0091016209
2610.4751 -209.45024 -389.19003 0.92363709 0.38001925 0.049799062 0.064065836
2610.4021 -284.34793 -435.57999 0.98080444 -0.10030995 -0.16721398 0.08644706
2613.6558 -217.68269 -433.46198 0.9911198 0.067548968 0.11453693 0.067487516
2634.4583 -275.70407 -389.89502 0.74101561 -0.048282735 -0.66974974 0.055463631
2634.4783 -259.95563 -389.69064 0.78831828 -0.0063349237 -0.61523509 0.060834147
2658.1047 -305.11002 -396.28668 -0.29073021 -0.95171827 -0.098530769 0.23028184
2686.2456 -323.0553 -356.68768 -0.4980098 -0.036502182 0.8664028 0.087626815
2689.6458 -307.59744 -354.25479 -0.44163617 -0.11207529 0.89016664 0.05551311
2616.2625 -252.19199 -435.92474 0.99587238 -0.084504358 0.033123504 0.082031704
2612.7668 -268.43365 -435.1918 0.96582437 -0.23704551 -0.10484615 0.064777471
2612.8062 -185.9169 -435.22467 0.99837267 -0.019781791 0.053485848 0.063637704
2694.7437 -341.10464 -353.57349 -0.57767916 -0.011500183 0.81618291 0.11954668
2686.6096 -353.88589 -362.76694 0.72541612 -0.5145452 0.45718122 0.093412213
2671.7864 -366.43713 -359.52527 0.58986247 -0.77876103 0.21352634 0.069851324
2667.9985 -302.70941 -364.58179 -0.49738312 -0.17628966 0.84943038 0.054017507
2655.5249 -255.01025 -365.49658 0.72630566 -0.014194373 -0.68722528 0.11615102
2675.3318 -366.09021 -368.08594 0.58621472 -0.77688289 0.22979397 0.075595744
2657.5344 -285.67221 -366.77536 -0.64758831 -0.13834929 0.74932563 0.073278606
2659.4531 -315.93756 -369.25284 -0.40784261 -0.017522944 0.91288406 0.072600462
2655.3721 -269.82224 -366.22583 0.74224973 0.096167684 -0.66318709 0.089372739
2696.032 -331.49722 -325.83521 0.28819507 -0.92151618 -0.26029131 0.095199548
2666.6562 -110.28358 -493.87759 0.79607487 -0.49784631 0.34411317 0.079903498
2649.9878 -130.98973 -489.00504 0.72651458 -0.61681306 0.3028501 0.052927386
2668.1558 -370.22037 -366.96167 0.57121724 -0.80865979 0.14064221 0.083296768
2613.05 -195.92706 -441.98215 0.99981934 -0.01846257 -0.0045179585 0.066794671
2615.1113 -177.34264 -442.45758 0.97944057 -0.16557209 0.11524762 0.078238815
2624.1572 -244.086 -399.09088 0.85268444 0.30443344 -0.42455804 0.065471545
2627.5476 -260.93851 -399.80273 0.81221527 -0.011216555 -0.58324999 0.054618042
2669.6604 -314.0242 -364.28641 -0.42954063 -0.030595962 0.90252906 0.037703149
2612.0681 -269.40842 -444.05569 0.93292332 -0.35677353 -0.048648629 0.073764265
2699.196 -329.83951 -325.70743 0.19288772 -0.9417873 -0.2753742 0.10101748
2667.1768 -295.31104 -362.76968 -0.54428542 -0.20561902 0.81331068 0.062885955
2620.9067 -161.0582 -440.48511 0.87877578 -0.46296743 0.11582003 0.095912158
2616.3008 -224.47304 -399.50769 0.92203373 0.36714837 -0.12270252 0.059855066
2693.7493 -352.51419 -371.93588 0.71805876 -0.5491091 0.42763397 0.11110297
2662.6592 -276.43011 -360.54797 -0.66289115 -0.2126461 0.71788371 0.080652431
2617.562 -251.39035 -443.85507 0.96625638 -0.24147573 0.089655533 0.090584897
2609.8113 -203.78683 -397.99042 0.96711022 0.2541016 0.011409846 0.059657369
2626.2056 -296.5455 -404.83679 0.78469926 0.29585636 -0.54471648 0.12108922
2624.7441 -278.94125 -402.14737 0.8267023 -0.038664553 -0.56130952 0.067363396
2613.1404 -179.24146 -434.69565 0.99562711 -0.05806189 0.073181219 0.06752383
2617.7385 -164.65952 -433.81055 0.90192449 -0.43153721 0.017544789 0.10743742
2645.7966 -135.13939 -484.38318 0.78740567 -0.56314003 0.25073025 0.063436225
2613.179 -198.08543 -436.27332 0.99488813 0.030127188 0.096384488 0.067632191
2611.3281 -210.68541 -391.02319 0.94064939 0.33934775 0.0046689794 0.062654272
2656.8513 -120.15524 -483.98413 0.76735431 -0.58002001 0.27339372 0.050907183
2615.9026 -216.5063 -438.9603 0.98451746 0.081750959 0.15505549 0.089153253
2611.4617 -271.29529 -438.49359 0.95497465 -0.27724126 -0.10564394 0.067196079
2641.2495 -307.98544 -394.74615 0.76162243 0.39163983 -0.51628435 0.18377563
2620.6636 -230.24545 -391.83182 0.86364019 0.44720823 -0.23265953 0.058560226
2662.4519 -371.0177 -360.35565 0.57819319 -0.80351239 -0.14163497 0.055183809
2674.7937 -296.10101 -358.65125 -0.49396124 -0.24188934 0.83515978 0.049134295
2628.74 -265.08099 -396.34055 0.7916227 -0.036847379 -0.60989815 0.044750135
2663.9534 -275.24957 -358.07028 -0.66360319 -0.25492829 0.70330817 0.077488281
2616.8271 -252.76744 -439.03043 0.98058617 -0.19443268 0.02542939 0.076649718
2629.1724 -283.99765 -396.13947 0.77755201 0.01064705 -0.62872845 0.073637627
2678.9275 -315.00668 -359.84302 -0.41944063 -0.038534112 0.90696454 0.050379198
2683.4019 -355.03763 -360.35638 0.67604154 -0.57353425 0.46262982 0.090239912
2629.8374 -248.86246 -392.44244 0.78933215 0.28476056 -0.54393584 0.068677396
2616.501 -231.78308 -435.63519 0.98590475 0.085512906 0.14380322 0.070260927
2615.6619 -222.30061 -394.29199 0.90984738 0.38291034 -0.15986675 0.05981978
2669.6335 -287.1929 -358.5202 -0.57813877 -0.30434906 0.75705165 0.051072303
2613.4861 -197.99228 -437.23254 0.9995209 -0.0010263392 0.030934341 0.073194042
2627.9683 -292.71854 -398.48126 0.79383391 0.11352547 -0.59744436 0.096765898
2627.3345 -276.04404 -397.27829 0.76479352 -0.10067426 -0.63636118 0.043738853
2637.4641 -144.63118 -481.37415 0.80611777 -0.53631264 0.25008565 0.084457137
2619.2446 -249.47267 -439.7999 0.96893972 -0.21907155 0.114732 0.11085841
2610.3794 -207.96097 -394.11249 0.94401556 0.32935926 0.018895581 0.065594181
2613.9375 -215.24539 -437.25433 0.99623758 0.06017435 0.062368225 0.07230106
2666.5977 -272.8862 -352.84335 0.77735209 0.26701701 -0.56958371 0.095969051
2684.9592 -323.23846 -358.04443 -0.45786035 -0.053497292 0.88741308 0.056896113
2613.7446 -180.40222 -437.34808 0.9954859 -0.082018457 0.047758136 0.080600664
2693.0894 -341.23459 -364.06693 0.82413691 -0.33015195 0.46021518 0.11053898
2630.1313 -259.14694 -394.74039 0.78492725 0.040203895 -0.61828214 0.054545414
2614.2305 -265.50089 -437.49774 0.95016736 -0.30562922 -0.061422698 0.067235097
2633.0076 -158.28204 -481.2962 0.91469067 -0.26067531 0.30885166 0.074964166
2683.2244 -306.44037 -357.2536 -0.42590949 -0.10562657 0.89857894 0.043680083
2625.7913 -243.35732 -394.2746 0.82533669 0.34910947 -0.44378141 0.063638955
2630.3479 -263.08679 -485.55011 0.28367156 -0.88600653 0.36677355 0.099478804
2609.8645 -283.3064 -436.30096 0.95405757 -0.21103717 -0.2126909 0.09097565
2677.6567 -360.7442 -358.9281 0.64963967 -0.66518927 0.36809179 0.083390333
2610.4041 -200.07172 -414.07498 0.98517966 0.11855484 0.12395863 0.056295458
2617.3052 -266.31189 -416.8139 0.93536806 -0.12655824 -0.33025691 0.062719144
2648.4292 -308.02716 -376.98901 -0.58350682 0.011085573 0.81203258 0.12617862
2616.5701 -283.01785 -416.22739 0.92844898 -0.02905889 -0.37032157 0.089208342
2632.6938 -298.84775 -418.957 -0.61839068 -0.78571391 -0.015702633 0.11103382
2615.9321 -232.63359 -415.32318 0.96948212 0.18385948 -0.16217293 0.066196531
2618.5903 -250.13399 -415.54626 0.94803339 0.090108551 -0.3051444 0.075020351
2613.1616 -217.30402 -415.02676 0.98649961 0.16313274 0.014359483 0.060626604
2651.5432 -260.3009 -370.4881 0.76008475 0.035420366 -0.64885789 0.094295643
2653.7473 -293.73837 -372.08795 -0.65035021 -0.11292027 0.75119478 0.086668104
2653.4343 -277.5022 -370.40952 0.74571639 0.14806803 -0.64960217 0.078099445
2612.6951 -205.13196 -430.25519 0.99232185 0.05680903 0.10986387 0.063679934
2627.4531 -177.82892 -475.34637 0.81681812 -0.25547549 0.51724309 0.084054895
2610.093 -292.29874 -431.90103 0.97086906 0.056298189 -0.23290291 0.1148869
2636.2117 -267.03473 -387.90219 0.75975657 0.0055111647 -0.65018427 0.062149908
2638.1533 -286.76266 -387.04904 -0.69791985 -0.09103746 0.71036619 0.088321127
2635.1846 -302.96591 -392.14975 0.7686314 0.14196189 -0.62374079 0.15630819
2620.6511 -266.02307 -477.44754 0.71118987 -0.63222069 0.30741826 0.093017183
2611.6934 -277.14981 -430.9964 0.9660992 -0.195106 -0.169074 0.067406401
2634.8923 -250.95409 -386.31223 0.76889753 0.24600297 -0.59015179 0.088481471
2697.4783 -321.53735 -348.94412 -0.67771161 -0.055838924 0.7332046 0.10558783
2659.802 -374.22562 -351.91141 0.5439297 -0.82026786 -0.17692134 0.069745921
2615.8289 -258.96655 -430.99033 0.97992378 -0.1915324 -0.055360273 0.071467437
2615.4128 -223.27969 -431.36514 0.98456186 0.10644065 0.13895456 0.071384832
2615.521 -239.43315 -429.57498 0.99559236 0.075036831 0.056261044 0.07369668
2698.2012 -303.0249 -349.32397 -0.43657592 -0.15986675 0.88534969 0.037987985
2610.2864 -272.12479 -457.9686 0.89045376 -0.45478091 -0.01632422 0.098639242
2615.9446 -180.82356 -456.27454 0.97261578 -0.22633809 0.052816842 0.096259668
2611.73 -208.28148 -412.19632 0.9887653 0.12260287 0.085508592 0.063454531
2619.3662 -245.86841 -414.17404 0.94122016 0.14508022 -0.30505136 0.090074852
2653.0952 -261.66974 -368.66739 0.77065986 0.057962842 -0.63460511 0.10461113
2624.0674 -161.86929 -457.26642 0.85709089 -0.50143564 0.11814187 0.084453478
2655.9224 -281.26562 -368.71307 0.72630155 0.18127403 -0.66304278 0.080198132
2615.5815 -227.68166 -413.58957 0.97396314 0.19421777 -0.11694127 0.066388093
2654.5229 -132.1427 -505.66461 0.7643171 -0.62807411 0.14609 0.038110666
2619.0693 -258.07596 -457.17975 0.78762209 -0.59535396 0.15876102 0.080593139
2620.5325 -262.37003 -413.24515 0.90031952 -0.17330819 -0.39923561 0.069158696
2611.4839 -199.61372 -455.46912 0.98959732 -0.084645167 -0.11632835 0.082213268
2617.7581 -281.83893 -414.55856 0.91280961 -0.045348372 -0.40585968 0.091307327
2630.4993 -298.2114 -418.01279 -0.66740942 -0.74468315 0.0034116183 0.10285702
2659.4639 -299.74231 -370.53412 -0.64877695 -0.17294189 0.74106652 0.095613867
2651.179 -314.98935 -376.25943 -0.56739593 -0.03382 0.82275033 0.16543634
2701.0142 -328.10245 -339.55896 0.87235773 -0.088142574 -0.48085639 0.11647961
2631.4404 -240.75171 -381.24683 0.78275585 0.44136274 -0.43873933 0.080706097
2640.7788 -305.00809 -383.87698 -0.66396707 0.0068936222 0.74773002 0.14064322
2644.5852 -258.43222 -377.85614 0.76923484 0.044840574 -0.63739085 0.091323815
2640.6238 -273.00595 -382.65787 0.73971832 0.011698924 -0.67281497 0.062165141
2643.8433 -290.22058 -380.58325 -0.67785472 -0.047365781 0.73366851 0.099266052
2695.0623 -332.34451 -347.73419 0.80353421 -0.054686997 -0.59274119 0.115949
2671.282 -318.04742 -362.86148 -0.4087972 0.015120153 0.91249996 0.040334132
2663.7747 -268.27505 -356.80499 0.70681459 0.15866773 -0.68937486 0.09453582
2626.4663 -272.06424 -399.36963 0.7790975 -0.10736173 -0.61764115 0.044451304
2686.7397 -353.61545 -363.48648 0.67819327 -0.56425577 0.47081771 0.096327573
2653.8215 -300.72394 -404.34811 0.15969421 -0.98603857 0.047176898 0.18331847
2678.6938 -303.66611 -358.5029 -0.45106044 -0.23002741 0.86234093 0.035403758
2666.5881 -284.29672 -360.01724 -0.59661782 -0.2641947 0.75779176 0.059741527
2716.1069 -329.16681 -322.19995 -0.027279653 -0.97854167 -0.20423508 0.098575458
2610.0879 -206.97125 -393.00009 0.9505859 0.31046042 -0.00084716704 0.067702852
2626.5493 -255.92963 -398.39722 0.80601388 0.10326624 -0.58281881 0.062074296
2669.887 -368.13538 -362.78345 0.60882384 -0.77925706 0.14863348 0.070635691
2625.3235 -287.89508 -400.78366 0.79272503 0.035798222 -0.60852736 0.081312731
2623.4409 -240.67484 -396.31366 0.85091972 0.36828828 -0.37456554 0.06443201
2615.7783 -222.68019 -395.13361 0.91351128 0.37536901 -0.1568286 0.061555322
2614.5815 -265.06403 -431.58264 0.97414172 -0.20635161 -0.092015699 0.066431835
2632.3655 -258.59201 -478.56226 0.38604259 -0.85669887 0.3421084 0.11044483
2612.2456 -192.037 -429.38757 0.99466646 0.009801928 0.10267716 0.061069652
2613.49 -211.25011 -429.43246 0.9900232 0.070540354 0.12197613 0.06648384
2617.7754 -247.86853 -432.37857 0.99793375 -0.021076901 0.060695689 0.10301939
2636.0535 -246.77069 -382.96692 0.74503005 0.35352668 -0.56564045 0.096883476
2645.2693 -131.48181 -474.27972 0.80919796 -0.52841592 0.25685662 0.082218036
2615.7153 -172.71613 -432.93369 0.96299809 -0.16555798 0.21266234 0.099835142
2635.3464 -147.58553 -474.13165 0.83256871 -0.52792567 0.1677016 0.081117332
2614.9426 -228.72987 -428.94391 0.99006659 0.13766275 0.028584732 0.069876447
2619.5938 -225.58032 -384.38028 0.85663807 0.5016526 -0.12048184 0.063064635
2638.7251 -261.3421 -384.78534 0.76841629 0.041894767 -0.63857752 0.070348106
2639.2515 -280.22797 -385.09589 -0.69522327 -0.03337843 0.71801847 0.070546038
2612.4106 -284.05508 -431.26678 0.98186028 -0.038333651 -0.18569034 0.092520058
2640.7788 -299.00345 -384.65686 -0.70021182 -0.000387198 0.71393508 0.14167747
2695.2227 -312.08154 -350.80518 -0.4860408 -0.022300167 0.87365156 0.11523145
2695.54 -302.11618 -350.12723 -0.46294305 -0.11695254 0.87863863 0.076096863
2696.6548 -318.69827 -347.4227 0.75585008 0.098737881 -0.64725685 0.12950799
2667.1467 -300.94424 -364.24622 -0.50265324 -0.19093607 0.84313887 0.060120996
2628.8999 -150.47632 -446.63065 0.84439653 -0.51973659 0.12987845 0.10096389
2638.3232 -147.06888 -490.58469 0.75571775 -0.61043507 0.2371912 0.080992021
2607.9551 -197.53993 -396.86572 0.97124088 0.22856072 0.066717379 0.069621533
2656.7749 -125.59195 -495.97455 0.77877444 -0.58148909 0.23533131 0.047936201
2617.7598 -169.92528 -444.03458 0.94598699 -0.29420811 0.13619927 0.10303964
2626.5645 -255.40691 -399.64075 0.82043165 0.097173475 -0.56342638 0.06661357
2621.3357 -237.16235 -399.97925 0.86480415 0.37728035 -0.33132061 0.057275515
2615.073 -261.25378 -445.98093 0.93248314 -0.36109555 -0.0092336051 0.081545241
2613.3853 -205.99295 -444.0076 0.99963808 0.018308159 -0.019712178 0.072312795
2667.9453 -320.00214 -364.87802 -0.40953657 -0.016044505 0.91215259 0.041750759
2661.9846 -282.00571 -362.98203 -0.63074672 -0.23501861 0.73954368 0.076812118
2612.9067 -216.39172 -398.14832 0.95008963 0.30309841 -0.073899068 0.062648356
2623.5776 -272.45282 -403.42328 0.82344216 -0.10422196 -0.55774611 0.051693823
