# .PCD v0.7 - Point Cloud Data file format
VERSION 0.7
FIELDS x y z normal_x normal_y normal_z curvature
SIZE 4 4 4 4 4 4 4
TYPE F F F F F F F
COUNT 1 1 1 1 1 1 1
WIDTH 627
HEIGHT 1
VIEWPOINT 0 0 0 1 0 0 0
POINTS 627
DATA ascii
2786.2402 546.81885 -137.17317 -0.66021287 0.30721229 0.68537551 0.094970457
2787.3945 528.17029 -323.43915 0.74229699 -0.078739323 0.66542864 0.077559292
2846.4902 463.44104 -375.66196 0.66164386 0.59512705 0.45612624 0.05032485
2800.0469 462.84286 -278.87485 0.80193514 0.29058465 0.52197754 0.10677838
2794.7344 480.64191 -278.39822 0.82116085 0.21179174 0.52994257 0.11729997
2869.2688 425.9566 -333.12662 -0.42595947 -0.689937 -0.58527386 0.073034137
2888.2136 428.47287 -382.97934 0.76047403 0.59498489 0.26013893 0.16189694
2785.6921 509.95847 -321.2558 0.76513523 0.10319021 0.63554692 0.053224001
2792.3525 492.26089 -322.17126 0.76546109 0.34339619 0.54419518 0.060353409
2863.9482 446.93692 -377.03171 -0.59082204 -0.72083408 -0.36239147 0.056401208
2810.6895 461.22964 -321.11774 0.74640751 0.61880451 0.24486078 0.10859058
2799.9229 476.47079 -320.56393 0.82103139 0.41883138 0.3879275 0.11085659
2837.0447 479.81085 -376.49689 0.71503311 0.43485174 0.54738617 0.081950694
2787.8645 496.88135 -269.79211 0.85247284 -0.014734097 0.52256387 0.10160644
2752.0122 547.80969 -246.03865 0.062620699 -0.97806817 -0.19864878 0.11652289
2769.2561 526.13959 -198.42331 0.95030659 -0.30619282 -0.056243107 0.11923455
2878.3352 404.37366 -383.9353 0.77978534 0.40917525 0.47382537 0.16792123
2774.9666 502.9093 -246.5275 0.9349767 0.021027826 0.3540853 0.096426398
2797.5017 512.20099 -336.9826 0.82286519 0.11012863 0.55746257 0.063761421
2768.8152 535.40955 -199.03511 0.89536518 -0.37324291 -0.24292155 0.16169961
2802.6316 466.29678 -291.70911 0.87706071 0.44347972 0.18463549 0.15826419
2771.9236 484.81778 -241.9238 0.86974239 -0.082382865 0.48658118 0.116285
2813.1438 465.8342 -334.55322 0.71682364 0.41822237 0.55790138 0.080815248
2814.5454 455.84357 -328.69205 -0.61828226 -0.63986224 -0.4564026 0.11639434
2882.4927 421.66907 -344.6521 0.68618351 0.65167403 0.32322311 0.08689253
2762.4895 507.12708 -197.39716 0.93080711 -0.35930148 0.067086637 0.10813214
2809.4595 479.89984 -339.83807 0.76449698 0.3310613 0.55312097 0.040358189
2809.033 452.01401 -290.98788 0.87097186 0.37163764 0.32139304 0.11533844
2803.1589 479.63934 -290.63934 0.88690728 0.43987876 -0.14107509 0.1918622
2771.1633 517.7959 -242.83762 0.93668026 0.12095913 0.32863203 0.11442132
2881.1497 436.18503 -382.15955 0.2774885 0.10440182 0.9550395 0.18440109
2889.8843 408.39752 -344.57739 0.91546762 0.28676784 0.28228223 0.12759084
2800.6658 496.25818 -336.53394 0.78072572 0.30281466 0.54659921 0.041410975
2788.5623 552.13098 -135.63516 0.74862206 -0.22404818 -0.62399316 0.12917779
2785.0857 537.40515 -134.20497 0.71563232 -0.3171598 -0.62231827 0.091818601
2784.7297 527.65906 -130.00497 0.76131415 -0.38315961 -0.52305782 0.10645535
2891.2019 392.18018 -392.20123 -0.071317308 -0.25200966 0.96509326 0.20074244
2779.3303 482.11304 -254.20567 0.85679251 -0.026393581 0.51498544 0.10023084
2877.9648 429.95456 -354.01361 -0.59662801 -0.76882255 -0.23010187 0.04433478
2763.2476 506.72418 -206.52484 0.97275192 -0.18773007 0.13605553 0.11311036
2767.7466 526.31738 -207.46819 0.98135388 -0.17823449 -0.071951307 0.14179906
2847.0325 447.21698 -349.63855 -0.50292325 -0.79598266 -0.33686766 0.045555297
2780.2227 464.7196 -254.29759 0.8220287 0.048246827 0.56739849 0.11682035
2887.6396 399.96964 -354.10495 0.88319236 -0.46890637 0.0099018067 0.11924228
2773.3962 542.74139 -209.19753 0.7728231 -0.50433117 -0.38522005 0.1677957
2809.7358 493.81729 -348.88193 0.78168273 0.36804742 0.50350094 0.04023166
2814.9207 447.5994 -300.75159 0.81738955 0.53218848 0.22056687 0.14135511
2762.675 528.95514 -301.37949 0.6477958 0.089392319 0.75655109 0.03751849
2796.2646 478.81201 -300.77216 0.82036734 0.56160188 -0.10770696 0.14330094
2819.3188 475.65997 -350.48453 0.75477737 0.37681898 0.53695303 0.040444445
2830.6533 459.67209 -350.29022 0.62079382 0.5870468 0.51960665 0.057379469
2805.7739 462.50836 -301.93387 0.83048034 0.55650139 -0.024670802 0.12638089
2754.9209 549.68005 -253.85533 0.11294348 -0.97185224 -0.2067534 0.11452869
2777.8613 498.95801 -253.54541 0.90138519 0.033248495 0.4317399 0.090403706
2891.8281 412.23318 -355.53049 0.91457391 0.38733542 0.11630081 0.0920958
2796.0059 535.10791 -123.22459 -0.5661515 0.53405428 0.62790006 0.11893637
2790.3489 523.13733 -118.77953 0.70347029 -0.48453939 -0.51995295 0.11521301
2772.4229 538.96326 -181.27893 0.93192434 -0.3483434 0.10086575 0.15512599
2763.4756 545.47125 -227.12041 0.89426404 -0.1909999 -0.40473554 0.19765915
2851.5872 454.64246 -371.63995 -0.62344557 -0.68206263 -0.38223842 0.032342669
2787.7517 499.13672 -270.49207 0.85356319 0.020290488 0.52059412 0.096273512
2891.3474 422.21735 -379.16537 0.80385792 0.57791233 0.14081816 0.11927626
2787.9524 529.23932 -323.83304 0.74226481 -0.086759992 0.66446644 0.078849971
2822.7117 450.51483 -323.61185 -0.62569767 -0.72125989 -0.29713058 0.11787473
2768.1194 498.91721 -227.21512 0.95411175 0.020356871 0.29875794 0.083122805
2769.2805 516.11188 -227.49071 0.96749932 -0.018928455 0.25216421 0.11617197
2792.1267 485.00732 -274.92154 0.84926206 0.049155939 0.52567834 0.11161664
2798.292 468.03531 -278.9736 0.79731458 0.33271742 0.5035758 0.12608233
2768.6858 524.37842 -181.03539 0.97860694 -0.20571616 0.0030605765 0.14809182
2874.4553 437.8743 -375.54651 -0.57551944 -0.79203182 -0.2036245 0.10124011
2805.3242 467.51773 -319.81821 0.76696515 0.58088201 0.27265462 0.10962594
2798.9858 480.46106 -322.59052 0.78531694 0.4173373 0.45728204 0.086970627
2803.6929 453.26697 -279.84717 0.86598969 0.20538466 0.45593747 0.10740154
2862.4045 424.61783 -326.45633 -0.44113016 -0.67374104 -0.59285516 0.075930856
2765.1609 529.8736 -225.96928 0.98819262 0.14888549 -0.036172654 0.14034793
2761.9426 506.66699 -180.04187 0.88452041 -0.46644405 0.007322608 0.1134451
2837.0742 470.24036 -368.64203 0.68689907 0.50058192 0.52686566 0.05152154
2790.4131 495.75681 -321.41409 0.77392334 0.32070762 0.54606712 0.062040064
2786.8445 511.71417 -322.70145 0.78071314 0.10352307 0.61625475 0.058659658
2835.3303 472.74759 -368.67291 0.7083652 0.44945565 0.54425031 0.062289558
2878.436 435.87894 -377.67224 -0.57505423 -0.77988291 -0.24717458 0.1121705
2853.0996 454.11349 -373.93738 -0.60945719 -0.69419748 -0.3829515 0.028592516
2825.4839 476.84186 -358.86118 0.72339463 0.41042426 0.55520457 0.046998933
2820.2681 494.21884 -362.36087 0.74106342 0.33425963 0.58231908 0.058220301
2883.4939 426.44574 -365.97388 0.74176443 0.66951144 0.039242309 0.099251159
2864.5215 442.24677 -364.15854 -0.52787787 -0.83110821 -0.17494033 0.031143954
2842.8767 457.95093 -363.56378 0.63581109 0.61357617 0.46826115 0.045414336
2795.6826 476.07236 -290.26245 0.74847102 0.66051865 0.059214145 0.18521298
2882.9656 401.6517 -390.62231 -0.02414448 -0.24503124 0.9692145 0.13284391
2806.2192 460.09851 -291.84137 0.87485576 0.34796727 0.33696607 0.13017729
2802.6494 490.66235 -336.76447 0.7619738 0.30597147 0.57076907 0.038253266
2882.2263 422.21484 -344.76428 -0.67045283 -0.67248839 -0.31345239 0.084559225
2825.4216 456.47806 -337.65045 -0.5800426 -0.65756005 -0.48079664 0.090985999
2798.3396 508.24536 -337.05225 0.8074016 0.14786448 0.57117307 0.062508851
2810.6401 443.89804 -289.16379 0.8813296 0.24968204 0.40114459 0.11312593
2811.1008 473.04669 -337.922 0.74243385 0.34402937 0.57483542 0.056686968
2765.415 539.08264 -210.45206 0.73026663 -0.53654206 -0.42288679 0.13751604
2768.2144 522.70496 -158.36592 0.97820497 -0.13032664 -0.16164796 0.09607593
2764.2112 517.75104 -205.02202 0.99367374 -0.11186861 -0.0098947808 0.12761392
2763.3953 530.45746 -206.22844 0.98993856 -0.0571669 -0.12943557 0.14395705
2771.1772 536.65894 -159.42639 0.96996748 -0.15193243 -0.18994644 0.12452824
2757.9468 500.00635 -201.85677 0.95042646 -0.21178639 0.22767548 0.12095726
2811.9395 437.02884 -292.88232 0.90723759 -0.0064467364 0.42056909 0.11980002
2799.981 514.74402 -341.28934 0.83805472 0.10625338 0.53513968 0.070161544
2883.5122 420.27194 -345.50662 0.74568146 0.58326465 0.32212025 0.10048289
2779.5562 547.6145 -199.20518 0.78649962 -0.5451647 -0.29019612 0.17155024
2768.291 529.79639 -197.71284 0.95447952 -0.28059393 -0.10117264 0.1408938
2818.3831 455.72693 -331.37503 -0.57951564 -0.68499893 -0.44151789 0.11824498
2762.3655 510.22833 -195.99342 0.9408946 -0.33855894 -0.0097560966 0.11414995
2773.209 487.15057 -243.43449 0.88838488 -0.04792494 0.45659119 0.10839354
2815.3904 465.8566 -336.91931 0.71002072 0.43742156 0.55184507 0.085860677
2803.8567 497.12759 -341.43405 0.78728914 0.32045871 0.52676558 0.041807964
2758.4587 547.93811 -244.82565 0.11001841 -0.97401118 -0.19798531 0.14785227
2880.2515 399.33597 -385.61771 0.68327802 0.10196376 0.7230038 0.20083885
2772.3718 520.15875 -241.92436 0.90904188 0.060844954 0.41223872 0.10612506
2866.686 433.47937 -344.79391 -0.42961571 -0.83934051 -0.33307335 0.051628485
2799.2183 470.12555 -290.96432 0.8583039 0.49361891 0.14019549 0.16382946
2888.1118 438.00916 -387.11401 0.4347249 0.41360193 0.79996729 0.21206631
2810.1165 480.72504 -341.10239 0.76091671 0.33645275 0.554802 0.034630321
2806.1035 455.17102 -288.64554 0.84853798 0.44892925 0.28008184 0.12272449
2774.137 503.98123 -244.66982 0.9179095 0.0044561182 0.39676473 0.099187315
2810.6895 469.88184 -333.80307 0.75071836 0.39184371 0.53186506 0.077286348
2885.5425 451.0329 -395.85138 0.41072643 0.59004629 0.69508934 0.11874948
2795.6709 472.75476 -284.31039 0.81696832 0.53672469 0.21092495 0.14481618
2795.606 503.94421 -332.5036 0.80378807 0.21046786 0.55644226 0.049034659
2769.4453 510.03964 -235.1494 0.93387836 0.0049734856 0.35755628 0.085357547
2815.2539 457.87979 -329.6019 -0.60804802 -0.66889828 -0.42761278 0.10483627
2804.6968 455.3461 -284.70746 0.83826166 0.4164412 0.3519859 0.12006046
2755.8394 547.06555 -238.52348 0.80129951 0.5829522 0.13448364 0.1656848
2880.7278 438.98016 -385.15588 -0.55209857 -0.60317898 -0.57564074 0.15799518
2890.936 381.77591 -385.64865 0.91533387 0.36683533 0.16611969 0.17502867
2771.3379 494.1817 -239.21223 0.90833694 -0.061996803 0.41361859 0.096861534
2802.6804 487.29025 -334.50171 0.76292372 0.32538775 0.55863243 0.042533189
2879.2466 417.69901 -388.19983 0.66801 0.37459898 -0.64299166 0.1615617
2878.6758 423.52194 -340.7356 -0.62571377 -0.69834656 -0.34755492 0.085392848
2860.3589 435.36566 -341.47729 -0.39433679 -0.84124225 -0.36987838 0.047756594
2807.8865 438.36728 -287.67419 0.88435107 -0.063517451 0.46248108 0.13751513
2893.5344 400.03561 -384.83401 -0.59743154 -0.2336684 0.76712102 0.17390193
2769.314 476.62128 -239.00142 0.86932313 -0.14652391 0.47202545 0.12757881
2766.675 515.77979 -153.16891 0.95841795 -0.20607185 -0.1974066 0.089107513
2771.9421 531.11682 -154.03412 0.94532967 -0.21179135 -0.24798431 0.10239644
2859.2571 448.75238 -372.10269 -0.57134986 -0.73681253 -0.36147848 0.037273105
2882.2441 431.60275 -374.49362 -0.58292204 -0.7958312 -0.16387379 0.11146218
2830.1538 485.09045 -370.40036 0.7416591 0.36537308 0.5625338 0.073764361
2834.0374 468.63168 -363.96384 0.68014407 0.49033985 0.54495031 0.049111284
2889.4785 421.05197 -384.13348 0.93619084 0.35129127 0.011878105 0.17481413
2876.5603 439.13116 -381.88528 -0.57137471 -0.74168241 -0.35133761 0.11449619
2806.4302 462.36963 -322.2149 0.76742631 0.5997389 0.22664984 0.12962104
2871.124 425.35211 -333.80753 -0.50501812 -0.71285278 -0.48661849 0.07671418
2789.3496 511.04861 -325.72281 0.77909106 0.10831107 0.61748344 0.053435188
2805.6731 474.71695 -328.37134 0.77818459 0.42908013 0.45860544 0.084940419
2793.729 492.29208 -324.49695 0.78166813 0.31316739 0.53937101 0.056614563
2850.5352 458.51089 -376.41086 0.64905202 0.64281654 0.40683946 0.038613752
2796.1895 532.74243 -331.0546 0.77139616 -0.15029322 0.61835259 0.11452346
2814.7034 472.56421 -340.26428 0.75455004 0.41172904 0.5110122 0.050302159
2803.2888 491.52185 -337.66431 0.77288198 0.30784461 0.55487394 0.037342925
2883.241 420.91257 -343.83502 0.70313227 0.62112701 0.3461304 0.090017915
2795.8784 511.12039 -334.39389 0.81788909 0.11210661 0.56434876 0.062399227
2892.6243 435.99387 -392.33069 0.61137885 0.51624209 0.59975833 0.18953158
2818.8733 458.29077 -332.03021 -0.59958875 -0.68668884 -0.41103745 0.11654582
2874.3159 415.70154 -390.04315 -0.46686411 -0.34302819 0.81508869 0.13565068
2891.4109 377.23965 -384.35785 0.88966167 0.36824179 0.27000019 0.14513834
2768.4919 495.85223 -134.89445 0.88370728 -0.1068568 -0.45567864 0.10732584
2770.3127 509.13947 -136.15891 0.89983994 -0.14799155 -0.4103494 0.10801817
2758.7734 496.81259 -165.40701 0.85133988 -0.49803981 -0.16485381 0.10660507
2786.5686 471.69843 -262.97729 0.81364864 0.17142387 0.55550849 0.094528779
2798.8696 471.55377 -308.00739 0.80777133 0.58949465 -0.0012258118 0.11207678
2879.1018 430.47964 -361.69861 -0.6438213 -0.75958538 -0.092326686 0.067018457
2875.9019 359.80228 -358.88855 -0.08650893 -0.17448759 0.98085183 0.033441998
2861.3711 443.58685 -360.85495 -0.52306777 -0.82739383 -0.20449828 0.032254204
2782.5229 498.80484 -308.26892 0.82058859 0.3356871 0.46254569 0.11121178
2822.4678 439.98227 -309.48206 0.79748303 0.53369409 0.28140977 0.14569393
2764.0535 517.17053 -212.69765 0.99764872 0.033672445 0.059692465 0.12473524
2817.6804 487.31638 -355.51495 0.7615118 0.35408884 0.54288203 0.044169448
2831.2358 470.61551 -360.80103 0.71520609 0.45304769 0.53219169 0.05161548
2790.1567 485.34378 -307.24509 0.86037588 0.48511612 0.15625532 0.12886241
2773.6575 514.68768 -309.31598 0.70796394 0.094390087 0.69991255 0.04678582
2875.9312 387.66425 -364.12952 0.76167327 -0.51242203 -0.39658222 0.098709069
2841.9995 455.92899 -359.71725 -0.61317432 -0.65636086 -0.43955389 0.040091384
2758.9897 554.08118 -259.19565 0.34933957 -0.8829782 -0.31354648 0.092690177
2781.9111 486.82367 -259.09451 0.83561474 -0.050618466 0.54697877 0.10428739
2759.5647 485.11407 -212.16882 0.90564686 -0.23740199 0.35134602 0.08655338
2814.739 452.29123 -310.51724 0.76355857 0.63427877 0.12111455 0.11345618
2784.4751 458.07712 -255.81876 0.74996603 0.40905407 0.51983243 0.11945365
2765.0928 533.89478 -213.40128 0.99112344 -0.033715144 -0.12859869 0.151191
2763.5068 500.71466 -212.41051 0.96752959 -0.11011948 0.22750875 0.089507587
2765.0361 511.48676 -167.35794 0.95173162 -0.29718554 -0.076731145 0.11276331
2787.9131 489.24847 -307.22354 0.89274448 0.38260433 0.23795211 0.10968937
2851.4336 449.2608 -360.35962 -0.56737208 -0.74047685 -0.36025411 0.041954849
2820.7131 435.36191 -304.95569 0.82907248 0.34274697 0.44177294 0.14316867
2776.4873 505.86069 -308.45078 0.73580182 0.1999616 0.64700162 0.056926414
2876.5166 386.93527 -362.53983 0.77248818 -0.5205009 -0.36378673 0.11290762
2819.8162 449.84161 -312.88074 0.81078345 0.51105374 0.28540185 0.12958837
2875.5916 433.85849 -361.83426 -0.56034875 -0.81323993 -0.15700345 0.036534034
2792.6931 475.84457 -306.60425 0.77642441 0.62834907 -0.048399813 0.1128383
2832.6226 466.73477 -359.2854 0.69576901 0.48896262 0.52613789 0.047137041
2818.8489 485.31479 -355.90091 0.75467384 0.34827736 0.55603081 0.042455155
2869.0811 371.99817 -358.37051 -0.21365014 0.0047938013 0.97689849 0.026465202
2772.6396 524.95996 -309.35638 0.70878065 0.07878571 0.70101553 0.052195899
2893.5308 368.62134 -387.79407 0.96813929 0.23769663 0.078782424 0.086742871
2800.7649 492.09372 -335.00885 0.77263814 0.30563959 0.55643034 0.03909805
2807.4019 443.74017 -282.1619 0.8938579 0.26051578 0.36489671 0.12902553
2837.9358 446.93454 -336.39761 -0.41464567 -0.84277076 -0.34322932 0.072652645
2876.3718 427.25 -344.50549 -0.54522932 -0.77793741 -0.31231135 0.060238115
2876.5903 403.57526 -386.18488 0.3018952 -0.21721272 0.92826611 0.21524231
2794.5745 508.7937 -332.23752 0.80600262 0.097303256 0.5838595 0.058437765
2771.4258 498.92358 -239.33423 0.90500969 -0.048502449 0.42261684 0.093160212
2865.1111 421.01361 -389.37466 -0.39530119 -0.36060536 0.8448081 0.14571665
2753.1873 547.15796 -242.82491 0.063143395 -0.95844823 -0.27819034 0.12575738
2817.4768 460.18671 -334.01965 0.62318784 0.57119298 0.5342055 0.10290156
2769.498 479.6835 -237.41298 0.90758282 -0.08211875 0.41176438 0.13026778
2887.0447 412.71552 -344.27182 0.85308576 0.37076908 0.36711717 0.11172765
2807.5659 475.04193 -335.08603 0.76221538 0.30949864 0.56854051 0.052068304
2803.9255 460.49023 -288.41193 0.85370153 0.40504521 0.32731026 0.13741367
2801.7063 454.11841 -276.39963 0.80463028 0.27956012 0.52384752 0.10064907
2792.1338 469.71765 -270.5361 0.81944525 0.26708099 0.50712645 0.090431668
2767.9546 515.01141 -223.62468 0.97959906 -0.0036800995 0.20092827 0.10406076
2761.4722 541.63208 -224.63512 0.97575629 -0.048043318 -0.21352181 0.14976922
2769.803 532.44641 -180.02066 0.95590079 -0.29348534 -0.010957437 0.1339692
2764.8516 528.27972 -222.95821 0.99511749 0.09761367 0.0145849 0.13523416
2768.8491 502.78955 -225.47623 0.96195191 -0.083000489 0.26030645 0.081464931
2784.5752 541.74213 -136.57545 -0.67396051 0.30212489 0.67416453 0.090222798
2788.5879 483.19025 -269.04385 0.852211 0.10210171 0.51313895 0.092368245
2765.761 518.07404 -178.98878 0.95423192 -0.29569483 -0.044788681 0.12254368
2785.1475 496.75021 -265.49823 0.84578526 -0.029557569 0.53270411 0.094833642
2757.2273 499.8847 -177.41397 0.88206583 -0.44168115 -0.16394402 0.11335469
2769.7358 551.1015 -227.51865 0.5689677 -0.78349036 -0.24983709 0.15429391
2779.4949 525.78308 -135.37358 0.75342381 -0.33014864 -0.56864262 0.098908268
2781.1746 547.62085 -186.75014 0.8648603 -0.49615204 -0.07648436 0.14420018
2770.5552 514.27356 -140.37936 0.9141072 -0.18446727 -0.36108154 0.097469673
2774.2959 527.73962 -143.22009 0.77622312 -0.39863399 -0.48843488 0.11084288
2742.7649 486.18188 -184.02675 0.78336936 -0.5869624 -0.20446901 0.15482038
2760.8262 508.76361 -184.45058 0.93116111 -0.35742584 -0.07201241 0.1326589
2764.1519 522.31549 -185.01535 0.97322309 -0.21499813 -0.081317797 0.13262525
2768.1914 538.60614 -210.09372 0.87429839 -0.38186204 -0.2996392 0.15018804
2788.4492 456.23398 -261.508 0.70540565 0.11873931 0.69878745 0.1152721
2781.7375 483.98508 -258.46869 0.83876204 0.0055367774 0.54447001 0.10263098
2776.4412 494.97314 -252.12914 0.8871423 -0.0032014104 0.46148491 0.091952212
2765.2964 514.03827 -209.60019 0.98437089 -0.15246744 0.088134505 0.12594548
2755.1375 493.62421 -165.06442 0.82347119 -0.5410971 -0.17061414 0.10463633
2767.4839 528.03424 -164.97768 0.99687678 -0.066166155 -0.043112349 0.12936832
2779.3979 508.12531 -118.86905 0.70858854 -0.49769902 -0.50019795 0.095096849
2765.3066 514.40179 -164.8446 0.96912688 -0.22996488 -0.088934116 0.095357955
2740.9114 546.32019 -254.92644 0.260405 -0.9409852 -0.21618535 0.10797699
2790.822 524.46545 -119.37035 0.70488656 -0.47429267 -0.52742904 0.10985702
2762.0449 498.6915 -208.64482 0.95243382 -0.22287935 0.20783317 0.089412086
2779.2549 468.31198 -253.67371 0.8111006 0.077749312 0.57971621 0.11732747
2765.4685 526.04987 -208.96147 0.99304587 -0.093145825 -0.071998663 0.14594223
2784.2241 514.48193 -117.44581 0.65108001 -0.54224026 -0.5311029 0.11750777
2817.4885 443.10822 -303.03351 0.87859583 0.31198731 0.36157063 0.12763628
2753.1196 549.85095 -256.79691 0.25617138 -0.94928062 -0.18232539 0.090319432
2767.6262 529.76953 -305.7756 0.64867514 0.062982567 0.7584548 0.043185033
2817.9858 478.46695 -350.87524 0.7564249 0.37161729 0.53825825 0.040164091
2779.1772 502.97345 -256.81396 0.91301543 0.013292074 0.40770844 0.10578234
2796.7261 477.81345 -301.96866 0.82282543 0.5604375 -0.094170712 0.13418226
2890.957 383.49744 -404.07303 0.98635751 0.16290691 0.023668878 0.16505341
2778.5256 465.18497 -251.92805 0.81422698 0.098708972 0.57209349 0.12162909
2881.207 388.21545 -355.39734 0.86874998 -0.48341325 -0.10763429 0.10421754
2882.925 427.55524 -358.71924 -0.63139248 -0.74393666 -0.21886483 0.046408791
2808.1062 495.83517 -348.00372 0.77993876 0.36213568 0.51044416 0.042008661
2808.6545 459.32877 -303.0343 0.85189402 0.52367097 0.0067245127 0.12271692
2780.3235 484.01126 -256.01718 0.85492069 -0.0057355366 0.518727 0.10719488
2834.5818 459.71121 -355.05069 0.64892197 0.58971602 0.48076531 0.045710925
2891.9976 410.49213 -358.63745 0.95040214 0.28647646 0.12110721 0.094170496
2850.4797 446.67545 -352.50729 -0.53006822 -0.78563392 -0.3190721 0.042016797
2755.8628 548.02435 -246.20602 -0.13632773 -0.96928877 -0.20468044 0.12898518
2775.5657 484.37198 -247.9117 0.86986816 -0.094216824 0.48420301 0.11864746
2798.9873 514.36108 -339.59329 0.82426769 0.059673715 0.56304687 0.062272366
2887.8208 397.89893 -391.07211 -0.021830469 -0.25611773 0.96639907 0.16911574
2870.3057 434.43369 -351.37897 -0.49182907 -0.83351439 -0.25170994 0.037858397
2773.9592 499.89261 -245.1712 0.91982245 -0.05041543 0.38908219 0.09337271
2838.999 450.99863 -347.00085 -0.5416308 -0.71207726 -0.44674608 0.056519002
2812.1436 449.07001 -294.95813 0.86929035 0.42421454 0.25372478 0.12261794
2781.3127 469.64172 -255.15375 0.79413134 -0.047684509 0.60587257 0.11071915
2890.6414 405.49649 -351.45035 0.99046248 0.093070611 -0.10159702 0.13057384
2824.5088 465.25552 -347.91479 0.69317156 0.48541501 0.53280902 0.056840427
2803.988 498.76514 -342.64108 0.78681606 0.30280784 0.53779912 0.041740194
2805.4683 463.58096 -295.21432 0.88141066 0.4705078 0.041685078 0.14205572
2813.2881 482.19724 -346.19974 0.76449996 0.35848144 0.53575259 0.036141414
2802.6753 467.0513 -307.01276 0.79356539 0.6084733 -0.0037800882 0.11680429
2794.2617 482.88657 -307.02658 0.8419885 0.53934187 0.012872409 0.1506131
2880.5957 429.7406 -360.83701 -0.6178171 -0.76794273 -0.16901486 0.048635557
2840.0132 459.24524 -360.87708 0.64444894 0.60695016 0.46507752 0.042602532
2809.4875 499.33609 -352.3924 0.78726858 0.3351523 0.51757234 0.046907656
2852.8379 446.86575 -356.85385 -0.51165503 -0.79775387 -0.31905773 0.040667213
2818.5938 447.33401 -308.68918 0.800291 0.55407512 0.22920525 0.13679275
2819.1914 480.51242 -353.78848 0.76588869 0.36295894 0.53073096 0.037319746
2771.9485 519.87433 -307.97968 0.72884381 0.087103881 0.67911679 0.055672139
2871.6187 367.03073 -358.07913 -0.28517458 -0.014171147 0.9583708 0.031139772
2758.8904 503.95535 -179.2224 0.92179608 -0.38540182 -0.041921765 0.11536375
2769.1853 533.37604 -181.06038 0.95224404 -0.30525714 -0.0070247496 0.15492769
2764.3926 518.97168 -180.35811 0.96330982 -0.26430398 -0.046664305 0.1228451
2788.9807 535.71149 -129.16747 0.68329626 -0.30779919 -0.66209203 0.12044159
2766.9092 522.32129 -162.69449 0.97825068 -0.15031327 -0.14293875 0.092863828
2763.4136 514.84912 -208.5462 0.99612111 -0.027758077 0.083499916 0.11102073
2766.3174 536.12982 -163.59163 0.99357492 0.024258206 -0.11054584 0.11777159
2762.2129 529.81543 -210.19131 0.99181306 0.072129466 -0.10537632 0.13467108
2765.0088 540.81445 -215.188 0.83230501 -0.34805742 -0.43142131 0.14994928
2757.7766 495.93652 -205.77303 0.91815799 -0.32048371 0.23297223 0.099679708
2888.2302 410.39417 -349.82925 0.94409341 0.30251172 0.13105068 0.19420949
2811.3508 479.5072 -289.02197 -0.10461868 -0.91937113 0.37922505 0.2428533
2818.7229 462.42923 -339.72406 0.67417789 0.43992016 0.59325743 0.070227027
2774.2512 540.52698 -200.55022 0.85237539 -0.45358166 -0.26023039 0.15144418
2805.3181 503.7356 -346.43045 0.80226171 0.27551556 0.52959162 0.060258221
2779.8101 491.11362 -253.95445 0.88276023 -0.008962201 0.46973833 0.11062779
2813.7832 447.53009 -296.78122 0.89227349 0.21097031 0.39917353 0.10931252
2822.7339 452.34314 -335.50296 0.5400576 0.58891809 0.60125977 0.096994258
2812.8335 475.36176 -342.32462 0.73625463 0.31950653 0.59652716 0.043242469
2800.2883 518.08356 -341.41306 0.82137638 0.029987901 0.56959772 0.072206408
2812.1323 488.23248 -347.92242 0.77397454 0.36505368 0.51739651 0.03984078
2750.1328 542.59015 -290.35196 -0.18964599 -0.8432855 0.50289553 0.046962645
2775.8452 504.93732 -249.10634 0.92563975 0.011253597 0.37823859 0.10415668
2884.801 422.59268 -351.86792 0.78089446 0.58763796 0.21186185 0.076425903
2808.2961 460.87079 -295.64325 0.88458955 0.41290057 0.21682809 0.11779185
2890.584 398.68054 -348.57181 0.90774077 -0.25841755 -0.33049512 0.11907179
2782.2061 520.6377 -249.98016 0.80208105 -0.18306625 0.56846523 0.15371875
2871.7527 433.81216 -351.47736 -0.51576787 -0.82396919 -0.23464502 0.03977504
2802.4194 473.01917 -292.45694 0.85457808 0.49606332 -0.15367985 0.16737361
2788.1946 557.28314 -201.71364 0.70484006 -0.50096858 -0.50222605 0.08652246
2794.167 518.86237 -106.09491 0.70652741 -0.58262885 -0.40169969 0.13531631
2781.6899 511.11331 -119.68226 0.69690645 -0.40488741 -0.59193546 0.097000256
2882.3203 430.27341 -376.11896 -0.67831868 -0.72511637 -0.11870123 0.13175631
2862.0579 447.07578 -373.96774 -0.57504272 -0.75279588 -0.32035011 0.040808491
2838.699 466.8157 -368.39893 0.66716677 0.54174387 0.51127499 0.047135368
2818.5376 451.46149 -318.43448 -0.67496222 -0.71007955 -0.20053175 0.11758985
2797.8481 472.58282 -313.52805 0.81812137 0.5474984 0.17584918 0.11861514
2781.186 506.55692 -314.38657 0.78819346 0.20080394 0.5817464 0.054234292
2838.9685 466.97632 -368.0238 0.6845091 0.51437956 0.51658589 0.048596438
2855.6448 449.81717 -368.65723 -0.58833802 -0.74567354 -0.31277674 0.0331572
2782.0486 525.98944 -318.88058 0.73387611 0.0081249895 0.67923474 0.072545387
2836.9983 485.01266 -376.22775 0.71189934 0.30373433 0.63320202 0.098908782
2788.1204 488.5387 -313.89481 0.76734793 0.37838167 0.51769149 0.074731857
2865.9727 418.44843 -325.36462 0.51374757 0.43299329 0.74066204 0.060600184
2879.3823 432.17117 -371.06561 -0.59634411 -0.8002246 -0.063358158 0.067479737
2758.4019 497.5033 -168.50659 0.81189829 -0.55412322 -0.18376234 0.10357501
2767.3894 523.89178 -171.99763 0.97082847 -0.23977424 -0.00063489622 0.14587374
2764.1902 501.06183 -216.29594 0.97301167 0.0083675534 0.23060407 0.086953066
2759.9065 503.6572 -172.22679 0.91269493 -0.36201292 -0.18956423 0.099379517
2764.9639 517.39368 -218.46838 0.99123657 0.078613423 0.10616049 0.1179123
2760.7534 540.53766 -223.72798 0.90393144 -0.29104227 -0.31337255 0.13357568
2780.9924 516.6546 -127.11119 0.76761729 -0.42231816 -0.48209035 0.10690455
2793.959 536.62988 -124.20869 0.7175377 -0.3699103 -0.59017456 0.11539862
2762.1475 486.66312 -216.21761 0.92954576 -0.14581263 0.33864927 0.087815925
2789.0105 523.36682 -120.89587 0.67749739 -0.42451817 -0.60065103 0.1096786
2779.5652 506.66852 -119.45264 0.70968479 -0.41626802 -0.56839108 0.092231944
2771.6116 519.06909 -235.92621 0.95737487 -0.010350313 0.28866276 0.11513526
2797.4746 457.55853 -273.81992 0.79184937 0.3551726 0.49681687 0.11795376
2767.2458 485.92688 -230.48578 0.92301297 -0.054177757 0.3809354 0.095317774
2797.7061 483.95096 -285.30649 0.79090065 0.42360175 0.44163081 0.16260991
2761.9536 508.83429 -186.96562 0.92589223 -0.37746745 -0.015554311 0.12079266
2795.3389 497.37909 -329.13223 0.78952509 0.29510322 0.53811169 0.045140289
2772.7954 514.02191 -139.05917 0.84607548 -0.39217001 -0.3610526 0.10776239
2789.6997 471.64224 -271.56714 0.83067983 0.28505939 0.47823864 0.096714087
2800.3313 482.68665 -327.44345 0.77627319 0.36378869 0.5148375 0.062212892
2748.3992 491.52313 -185.0314 0.72441012 -0.68922281 0.014210402 0.1331373
2870.74 415.29889 -326.48166 0.546139 0.45820835 0.70126837 0.072220355
2767.8262 501.02972 -230.15445 0.93401909 0.0057497718 0.35717687 0.080611855
2765.0796 520.04565 -188.08266 0.95194024 -0.30601025 -0.012943394 0.13742372
2801.2646 441.08273 -275.1972 0.84295291 0.055151064 0.53515303 0.13893697
2764.613 496.68823 -138.52989 0.85713434 -0.4253374 -0.29053193 0.14156766
2767.719 532.32568 -234.49161 0.97209805 0.2304479 -0.043808579 0.14547269
2792.5569 512.68109 -329.90421 0.78457737 0.10240515 0.61151576 0.058260668
2805.0613 469.409 -323.80545 0.77995855 0.46264157 0.42145869 0.10320657
2810.165 458.4057 -322.46719 0.72190362 0.65475935 0.22393152 0.113102
2759.8928 546.40985 -234.75055 0.89284283 -0.27837569 -0.35403201 0.17388369
2888.3303 399.73322 -348.52808 0.88266385 -0.26983073 -0.38483229 0.15566383
2758.7717 498.38263 -201.5681 0.90744781 -0.38863778 0.15968445 0.10248367
2816.2715 437.58414 -299.46463 0.87324911 0.13309716 0.46874425 0.11113861
2776.1543 483.04654 -249.467 0.87440175 -0.048128061 0.48280972 0.10793292
2768.4756 510.61578 -154.63501 0.9227497 -0.36957827 -0.10929281 0.10337397
2764.9819 527.08136 -201.81497 0.97957158 -0.15042813 -0.13345735 0.13883924
2881.2344 426.66159 -350.92999 -0.62375826 -0.75294805 -0.20974962 0.051785421
2773.906 466.9556 -247.38879 0.82832068 -0.040597547 0.55878145 0.12703981
2810.6877 482.86508 -343.224 0.76660228 0.33130461 0.55005294 0.033173855
2829.8743 454.93106 -343.21628 -0.58340722 -0.62135404 -0.52302498 0.06869363
2812.7578 452.21497 -299.24268 0.88986033 0.37443221 0.26067048 0.1338267
2767.1799 517.15082 -155.64722 0.96888834 -0.19684629 -0.15002297 0.089955322
2758.5977 540.89337 -248.02621 0.82610762 0.51150942 -0.23644084 0.1467683
2776.48 498.9346 -250.45808 0.9237355 0.017161679 0.38264629 0.095151745
2888.5144 392.19492 -393.30646 0.75400007 0.2017086 -0.62513798 0.20696566
2804.1458 497.46814 -342.20834 0.77983344 0.31862718 0.53882885 0.044016905
2762.7869 512.12567 -200.93738 0.97423989 -0.22493817 0.016109586 0.11516971
2821.4907 467.37308 -346.15234 0.68103117 0.44154531 0.58415258 0.053576071
2799.5664 468.8428 -295.79523 0.81057799 0.58204865 0.064673953 0.1526598
2850.2749 459.43668 -376.65863 0.66589493 0.62635463 0.40529478 0.049179908
2890.2852 423.23346 -380.06866 0.80865496 0.57403249 0.12870055 0.13493271
2867.4468 443.27628 -376.26584 -0.58297658 -0.76266092 -0.28015453 0.075520515
2774.5845 514.19055 -134.76474 0.80821717 -0.37068656 -0.45757675 0.10599532
2777.9285 527.05927 -137.70021 0.76326734 -0.3770709 -0.52463365 0.092752479
2809.1704 464.21704 -305.08667 0.81014895 0.5822289 -0.068324409 0.1178732
2777.3169 469.23566 -251.11945 0.8309651 0.045358278 0.55447239 0.12360343
2879.4907 382.03323 -354.51895 0.7980057 -0.54633629 -0.25436893 0.12187894
2867.3772 437.39276 -355.29813 -0.48345485 -0.83997762 -0.24639192 0.031783633
2892.6436 396.9295 -395.78888 0.61316687 0.10098904 0.78347152 0.19821957
2887.1704 402.22739 -356.94904 0.96914184 -0.24629144 -0.010227578 0.13160543
2811.4194 453.01111 -303.88425 0.81269085 0.57891428 0.066270672 0.13054948
2894.1492 378.56403 -400.79672 0.93377954 0.28362522 0.21820281 0.10832374
2842.0061 451.54678 -352.57315 -0.56635636 -0.71900433 -0.40283149 0.04677479
2824.3872 466.46738 -350.01596 0.69530088 0.42736861 0.57785183 0.050046761
2820.4502 482.77319 -355.89749 0.74841923 0.3600978 0.55695444 0.045590788
2889.9885 417.7356 -358.8168 0.85745752 0.48402774 0.17459609 0.076408185
2790.5044 550.7829 -133.40681 0.69576436 -0.24164271 -0.67640281 0.15336232
2886.8762 423.79919 -370.26111 0.78896904 0.61239874 0.049955811 0.092205882
2825.7266 447.12762 -320.57297 0.7039668 0.66514492 0.24902408 0.11847702
2826.7932 444.81693 -314.439 -0.29104695 -0.91873664 -0.26686078 0.12387275
2867.3701 440.5831 -367.90848 -0.53119206 -0.83700484 -0.13136907 0.041225988
2849.1194 454.02679 -366.56665 -0.6159687 -0.68078262 -0.39638054 0.03953182
2806.6943 465.27103 -316.50687 0.78794235 0.59088117 0.17322327 0.11265717
2797.3884 453.26175 -270.78711 0.80369705 0.22718981 0.54995984 0.11601343
2835.6804 468.77356 -365.25064 0.68715918 0.48703474 0.53908199 0.050361086
2777.8879 496.00003 -253.89502 0.87938863 6.9593216e-06 0.47610465 0.095490575
2759.6594 554.8056 -260.48944 0.34933957 -0.8829782 -0.31354648 0.092690177
2763.3467 501.09976 -211.15146 0.9635601 -0.1471491 0.22338112 0.085548967
2769.8213 539.03845 -166.00688 0.97687918 -0.21045268 0.037639551 0.15064816
2768.4832 523.91589 -164.92305 0.99422705 -0.10691996 -0.0089825746 0.12677546
2764.2297 532.68915 -213.30527 0.97758162 -0.048784103 -0.20482759 0.14729887
2763.8054 506.246 -163.50294 0.92200768 -0.35961369 -0.14345688 0.08713641
2764.793 518.05957 -212.03058 0.99846447 -0.049280573 0.025300616 0.12786905
2778.1711 550.88416 -215.19234 0.66645634 -0.64951181 -0.36601952 0.18359481
2797.3213 534.72778 -121.35449 -0.58354014 0.49462411 0.64407134 0.12442539
2818.0637 433.45941 -300.92407 0.86994153 0.19366121 0.45353842 0.1294795
2798.4861 477.50726 -302.5802 0.84303409 0.53401703 -0.064182557 0.13815914
2870.2036 382.82074 -360.17517 -0.33079073 0.17702009 0.92695272 0.070145175
2806.8721 462.66272 -302.87436 0.80065536 0.59826148 -0.032159135 0.11437197
2814.061 493.02945 -353.9567 0.75958812 0.36586657 0.53774303 0.051815525
2886.1912 421.44925 -357.66852 0.82751089 0.54731625 0.1251823 0.087564796
2864.6477 438.69507 -354.57794 -0.47497177 -0.84221756 -0.25509104 0.031515572
2828.6924 463.21701 -352.62259 0.67737812 0.48708379 0.55127877 0.046508711
2845.4045 449.841 -354.01416 -0.55808228 -0.73150867 -0.39171329 0.041359145
2815.7329 447.63751 -303.57489 0.83755028 0.50338525 0.21239771 0.14369319
2824.5691 477.05435 -357.58759 0.7273072 0.41245815 0.54854578 0.046100613
2779.7654 481.0126 -255.52867 0.85142922 0.014013527 0.52428228 0.10613631
2887.2046 403.06448 -356.93039 0.99295747 -0.08050999 -0.086911686 0.14069448
2783.593 465.89478 -258.96793 0.75382143 0.02327987 0.65666682 0.11072114
2841.3843 444.46664 -327.06055 -0.36752954 -0.91799575 -0.14901641 0.053989735
2781.9004 533.46875 -136.07932 0.72879356 -0.31066746 -0.61020136 0.094980665
2789.9233 490.56421 -271.89108 0.84317595 -0.074633442 0.53243226 0.10760562
2807.1555 464.20087 -319.75439 0.76197934 0.62088192 0.18410091 0.11353941
2842.7913 465.37421 -372.94379 0.66429079 0.56502599 0.48934996 0.050185394
2761.7104 537.70123 -229.49663 0.97421736 0.18411572 -0.1303917 0.14931187
2807.521 449.10187 -283.82919 0.90410572 0.065069579 0.4223254 0.11971032
2768.3826 526.91669 -182.1151 0.96889615 -0.24553974 0.03083037 0.13827193
2762.2671 546.4057 -231.56297 0.51647502 -0.79813761 -0.31020948 0.14224468
2762.8801 509.83377 -180.87898 0.92929965 -0.36549664 -0.053051025 0.11686725
2782.9734 505.14191 -316.46524 0.80118877 0.18395574 0.56943554 0.058456969
2801.217 462.10437 -280.39658 0.82976109 0.27199322 0.48735636 0.10717472
2768.8818 532.64502 -183.14594 0.85127676 -0.49713823 -0.16787343 0.15885127
2781.2468 520.1402 -317.9794 0.7427637 0.046341311 0.66794801 0.066684946
2829.8381 480.64362 -367.72452 0.72950095 0.38870436 0.56279421 0.066623472
2794.4045 477.19409 -277.66071 0.81491482 0.2530342 0.52142835 0.10815886
2796.2117 477.50873 -317.26678 0.81466043 0.39215595 0.4272494 0.10369276
2772.7732 513.77155 -137.92909 0.85517794 -0.27841476 -0.43721381 0.11287037
2769.1982 509.06006 -229.23836 0.95608342 -0.071620256 0.28420958 0.091472834
2766.72 523.95111 -229.06093 0.96321607 0.16819181 0.20958616 0.1098476
2788.3032 491.11423 -316.25278 0.77656698 0.30959588 0.54872042 0.071484581
2871.4229 421.10214 -329.8483 -0.511549 -0.61557072 -0.59949172 0.067846999
2858.1721 451.40164 -376.24478 -0.59284598 -0.70895624 -0.38198784 0.038811035
2887.7278 419.81818 -381.1134 0.95964831 0.27088347 -0.07548026 0.17176814
2876.6487 436.81082 -378.73123 -0.60472983 -0.75598031 -0.25059044 0.1235991
2888.2212 405.90192 -379.00836 0.978944 0.020095173 -0.20313734 0.11311255
2857.6067 453.80612 -379.99222 -0.61346644 -0.68962687 -0.38480347 0.043500245
2887.9717 415.86838 -380.38123 0.89182228 0.18956745 -0.41075206 0.16072331
2881.4958 435.40851 -383.31116 -0.60230136 -0.70647955 -0.37164456 0.15485267
2888.3542 395.82513 -382.77774 0.98555523 0.10471133 -0.13310322 0.16550533
2786.0312 536.42981 -132.32153 -0.62552685 0.39881828 0.67056704 0.094328247
2766.6594 528.82098 -175.39391 0.96596324 -0.2179085 -0.13939475 0.11768696
2778.0745 519.75708 -131.55058 0.73597324 -0.39290366 -0.5513348 0.097404785
2765.8989 518.03052 -173.99484 0.9561314 -0.28885463 -0.048741709 0.11788918
2757.6792 499.62515 -174.02243 0.91011721 -0.38057941 -0.16384754 0.1134017
2770.1904 513.09143 -143.15273 0.90847749 -0.25870544 -0.32823789 0.11874399
2753.7598 541.03552 -235.12622 0.70844579 -0.62510443 -0.32764158 0.13882475
2762.7368 511.09976 -184.99364 0.93479145 -0.35447732 -0.022599578 0.12050432
2764.2058 523.07959 -231.77058 0.94813281 0.27363494 0.16176568 0.10159462
2776.4075 529.40491 -143.83138 0.80904913 -0.34209591 -0.47792247 0.11692911
2763.6377 535.50995 -232.79623 0.91709352 0.35893154 -0.17351545 0.17099391
2766.5027 523.87799 -186.01776 0.95232338 -0.30505231 -0.004829857 0.14428794
2752.9053 495.06741 -183.99304 0.81364202 -0.57829654 -0.059663776 0.13819045
2767.6086 508.29996 -230.72894 0.94484603 0.042886835 0.32469472 0.083797209
2767.3706 493.84366 -230.34991 0.93502331 -0.033447441 0.35300517 0.091882251
2884.8557 430.13919 -380.70557 0.73296034 0.63607985 0.24118778 0.17031717
2858.5452 449.87869 -375.58875 -0.62177533 -0.70323408 -0.34475678 0.046274826
2822.6431 480.80542 -358.2225 0.73986071 0.36665219 0.5640676 0.047293719
2779.1541 500.91898 -308.80762 0.79858267 0.23267937 0.55509102 0.072144195
2884.4248 427.26645 -366.23984 -0.66898 -0.73626816 -0.10185756 0.067487389
2775.1313 519.18555 -311.0369 0.75560904 0.12392269 0.64319372 0.064523563
2826.6018 446.21045 -319.95685 0.85570288 0.35957026 0.37213141 0.11030911
2788.1265 485.47903 -308.42081 0.86337 0.47586107 0.16777514 0.12352578
2842.3601 460.57324 -365.79318 0.65846395 0.6052947 0.44726223 0.043454729
2800.6687 468.45697 -310.51831 0.7843681 0.61670458 0.066649459 0.11020541
2825.6758 428.68433 -313.48187 0.8377102 0.11378063 0.53413069 0.12006876
2861.9673 444.44818 -365.4158 -0.54073101 -0.81253511 -0.2177078 0.036486905
2760.0542 535.91821 -300.02411 0.68756962 0.18850586 0.7012229 0.049793068
2772.1597 489.62003 -242.95016 0.89496189 -0.041677237 0.4441916 0.11551769
2803.4082 502.91989 -344.39441 0.79293072 0.30290017 0.52868927 0.047637943
2755.9021 544.55231 -249.59892 0.94694078 0.29986349 -0.11569396 0.20351365
2799.2317 470.8623 -295.02136 0.81912673 0.57343668 -0.014206766 0.15597145
2810.6968 485.71649 -344.85678 0.78270501 0.33052519 0.52737653 0.035814349
2810.3699 453.27707 -296.40247 0.89171189 0.39545098 0.22015557 0.12417296
2834.2222 453.44073 -345.88504 -0.55708116 -0.65676457 -0.5082528 0.070472948
2820.3127 468.62393 -346.55246 0.71690613 0.392313 0.57631248 0.054199833
2886.6445 395.64651 -391.36041 -0.061183315 -0.23293424 0.97056592 0.16979493
2889.6511 405.67953 -350.32446 0.97596925 0.093394153 -0.1968794 0.17063558
2774.7676 474.04745 -247.8026 0.83753204 -0.032250438 0.54543561 0.11452248
2887.967 420.22897 -353.26193 0.85204941 0.50605881 0.13385157 0.073242523
2812.8701 436.13565 -291.3353 0.89676315 0.17349015 0.40708357 0.12081195
2858.905 439.74252 -348.3428 -0.43709216 -0.84155494 -0.31738901 0.039026126
2761.064 505.5488 -203.14731 0.96356964 -0.23059642 0.13549459 0.10231648
2766.7041 526.55841 -205.56755 0.9867534 -0.12826164 -0.099330887 0.14913934
2755.8213 492.54865 -203.25937 0.88909483 -0.4138104 0.19563073 0.10561977
2888.5483 416.18707 -351.31537 0.85722607 0.48007792 0.18624876 0.1008768
2808.0676 448.01196 -288.59082 0.84462029 0.4532122 0.28498298 0.14138542
2814.6226 484.89816 -349.8981 0.7740854 0.37168065 0.51248932 0.040717144
2805.9141 500.96631 -347.05487 0.80015749 0.31388566 0.51110059 0.044554081
2890.3013 402.18219 -350.70663 0.99867392 -0.027161963 -0.04373353 0.15050052
2790.2986 477.80911 -293.95801 0.73119432 0.68215626 0.0042081568 0.12497555
2837.0173 447.87747 -341.53787 -0.44002861 -0.75331926 -0.48875859 0.076474063
2825.106 457.71979 -342.9743 0.60681307 0.53136122 0.59112871 0.061936971
2871.634 432.01907 -349.62946 -0.50475973 -0.81129175 -0.29499716 0.046878479
2773.4431 471.99796 -245.81035 0.84382439 -0.0004992921 0.53661919 0.1249729
2818.0745 471.03516 -345.94156 0.73797947 0.34781161 0.57828486 0.05061426
2804.9932 459.82394 -294.40988 0.84209687 0.51313776 0.16601966 0.12345888
2760.4319 495.8421 -156.04025 0.93560493 -0.34210771 -0.087210558 0.10667636
2772.1565 486.10733 -243.82593 0.88600737 -0.096968345 0.45341823 0.12406757
2758.0662 503.63599 -192.77435 0.93119007 -0.36288461 0.034638166 0.12637867
2768.2148 526.84863 -194.99471 0.95254976 -0.30438173 -0.00087088486 0.13756526
2749.4541 491.59125 -191.95628 0.7414251 -0.66723013 0.071363829 0.11950351
2764.7805 500.92508 -146.22919 0.92933941 -0.34277025 -0.13724741 0.14599402
2814.0234 466.65134 -335.24805 0.71702403 0.45636871 0.52688152 0.087047413
2798.3586 502.11945 -335.74072 0.78247762 0.26055774 0.56554258 0.058158327
2806.114 484.17392 -337.36145 0.76405907 0.33466807 0.55155331 0.039206546
2826.2969 452.95547 -334.38193 -0.50702834 -0.76210785 -0.40263376 0.10431895
2798.3845 521.94751 -338.17932 0.80739832 0.026226152 0.5894236 0.083316363
2890.4004 449.08582 -396.51611 0.33056861 0.6022526 0.72664726 0.13822414
2888.3291 415.81268 -346.57816 0.86377358 0.47150451 0.17770392 0.097139046
2874.7397 411.06198 -392.1893 -0.45963442 -0.28057781 0.84262228 0.12169822
2874.093 428.49188 -380.1376 0.10888998 -0.15026072 0.9826315 0.20882599
2874.5535 429.87387 -345.60568 -0.53800434 -0.80268544 -0.25738588 0.056405764
2882.8091 413.3855 -387.74615 0.69377995 0.33056006 -0.63984329 0.1410681
2867.0645 451.08084 -385.94501 -0.5498367 -0.69062877 -0.46979949 0.065228581
2877.4211 436.80032 -383.43723 0.70576787 0.62495667 0.33364782 0.19573432
2891.5828 374.51532 -387.79349 0.99748695 0.065180339 -0.027771676 0.12699656
2823.1907 466.1225 -347.84015 0.68767619 0.44159272 0.57627892 0.058813103
2795.4873 473.13757 -297.9118 0.79839253 0.60200053 0.012833308 0.12352104
2814.4614 434.48297 -296.09305 0.86941028 0.12130579 0.47896832 0.11274912
2803.4092 503.31287 -344.76495 0.79603177 0.30655295 0.52187997 0.049040876
2844.6643 448.49988 -349.24866 -0.51504904 -0.7675243 -0.38161623 0.052978359
2876.4702 431.47678 -353.90665 -0.57090139 -0.79511434 -0.20460896 0.037360121
2891.7729 393.38928 -396.64536 0.78400022 0.18867306 0.59139341 0.20050742
2812.5613 484.71738 -346.90866 0.76701927 0.3524335 0.53616422 0.038251135
2858.3088 449.55411 -374.233 -0.6026426 -0.71560431 -0.35317475 0.034865655
2794.2441 482.74884 -320.0712 0.77945304 0.32117009 0.53786874 0.070432812
2833.8391 446.33478 -328.30292 -0.50817841 -0.81403279 -0.28125674 0.087630376
2795.5691 452.15225 -269.24033 0.78930986 0.30504096 0.53286016 0.10227636
2800.4414 469.14325 -318.69284 0.83146304 0.48919693 0.26335454 0.1116026
2843.2192 465.04614 -373.14731 0.67035365 0.57517731 0.46882516 0.0503552
2863.0645 421.66159 -324.24857 0.47467571 0.61195439 0.63260955 0.083550058
2791.5068 468.78326 -271.24866 0.8086561 0.31996092 0.49366018 0.086190842
2834.4084 481.72406 -372.76752 0.70188701 0.36080182 0.61414713 0.078071482
2880.2922 433.3761 -376.91168 -0.6033895 -0.77632451 -0.18232219 0.12551405
2762.3062 506.94824 -166.58972 0.95448321 -0.23577434 -0.18268067 0.090266936
2750.5408 549.07959 -253.43428 0.20842855 -0.94374067 -0.2567316 0.10402603
2770.4165 539.1076 -210.7142 0.90377152 -0.27934745 -0.32428706 0.18479554
2777.1687 492.0412 -252.79807 0.88419604 0.0087366961 0.46703431 0.092607684
2774.4829 504.75684 -247.91447 0.88343066 -0.018708223 0.46818823 0.10592664
2811.4854 452.49304 -305.59824 0.78701931 0.61288756 0.07049422 0.1269767
2820.4507 438.4418 -302.86786 0.76051998 0.48022926 0.4370231 0.14399594
2754.699 493.77716 -165.33813 0.80122221 -0.57672459 -0.15947333 0.096681394
2791.5098 479.88635 -303.79547 0.79950958 0.60012788 0.025118969 0.12150783
2772.4353 475.13181 -246.33141 0.89569831 0.0087867258 0.44457543 0.11846617
2762.3728 504.63995 -208.97708 0.98023218 -0.065686986 0.18662831 0.09019655
2807.2932 462.00058 -305.90604 0.80404544 0.59391224 -0.027913509 0.1123495
2889.3606 427.69427 -382.58472 0.042307239 -0.15319058 0.98729062 0.21454152
2883.5613 417.05994 -342.76227 0.76523763 0.50002307 0.40544823 0.096420288
2798.5225 504.35269 -335.8978 0.79611677 0.18442838 0.57635427 0.059898548
2798.105 523.81543 -336.34277 0.78384489 -0.068729222 0.61714143 0.076173745
2896.4458 408.47861 -386.9072 -0.12590507 -0.34565523 0.92987657 0.13185722
2839.429 448.27863 -341.02911 -0.51863825 -0.75065607 -0.40930411 0.074805893
2811.491 468.40552 -334.13516 0.72953886 0.4116576 0.54617858 0.081916973
2808.5422 485.07571 -341.19391 0.76703852 0.33110526 0.5495646 0.03484752
2871.2744 430.75314 -344.4025 -0.4863708 -0.81551957 -0.313642 0.064418986
2759.6294 504.7225 -194.99951 0.91499531 -0.40346387 0.0006995413 0.12303153
2745.5217 537.67542 -244.36363 0.69995975 -0.66075915 -0.2710233 0.11816544
2764.5535 518.79321 -196.24626 0.96531153 -0.25582856 -0.052205 0.11726275
2761.0588 496.89355 -150.51756 0.89593023 -0.43044373 -0.10966869 0.12654714
2765.7083 508.54678 -152.23851 0.9578768 -0.25413722 -0.13373965 0.092235573
2736.4187 485.43332 -192.99631 0.59416461 -0.80432636 0.0052452777 0.14019065
2774.7346 539.75604 -197.01073 0.85094643 -0.45762825 -0.25781116 0.17610025
2778.7253 477.15359 -251.75859 0.78714496 -0.080538109 0.61148709 0.1123891
2769.8347 485.38669 -238.94624 0.88217044 -0.092730314 0.46171036 0.11360853
2766.9182 502.69199 -142.52057 0.92595506 -0.24626821 -0.28628519 0.12093423
2873.2798 434.90005 -358.25922 -0.53745389 -0.82080656 -0.19344226 0.030156318
2806.6357 504.0434 -350.31259 0.79896021 0.31627697 0.51149929 0.054576263
2876.2715 378.20813 -356.4075 0.78907388 -0.55154395 -0.27048421 0.14138539
2830.8843 466.99249 -357.30316 0.71399349 0.46004441 0.52779961 0.046256468
2844.2549 451.32019 -354.82962 -0.57494485 -0.72229975 -0.38434547 0.042527586
2887.5713 400.95306 -360.04425 0.9409306 -0.33851248 0.0076715159 0.11776966
2890.667 416.46881 -361.76169 0.89598238 0.42525336 0.12796551 0.077132277
2819.9126 484.52557 -356.24954 0.7540018 0.36008623 0.54938072 0.044252802
2770.2197 507.97641 -235.49973 0.92505723 -0.017900236 0.3794058 0.082161374
2769.6841 490.06366 -235.57755 0.91478789 -0.044248745 0.40150365 0.10143995
2768.4727 521.94464 -190.54283 0.93564755 -0.35058904 -0.040632039 0.13016593
2759.8533 540.25842 -237.11739 0.9488771 0.28738421 -0.13054708 0.1611505
2758.3655 501.6651 -189.1171 0.83813459 -0.54518533 0.017417865 0.12692448
2771.5649 534.7041 -190.87215 0.89492333 -0.43904057 -0.079722285 0.17203543
2795.7036 501.23557 -331.50055 0.78662544 0.26338291 0.5584352 0.046050366
2802.3972 484.75217 -332.4285 0.77275223 0.31777695 0.54942858 0.050178513
2797.3496 473.58347 -284.96225 0.83992934 0.44891638 0.3049472 0.16728066
2791.0342 517.15759 -328.75903 0.77922672 0.030434236 0.62600279 0.057699893
2841.9736 471.86319 -376.88309 0.68446457 0.49319947 0.53690082 0.075337432
2831.0547 451.05524 -334.9454 -0.55640042 -0.74521971 -0.36751348 0.083328076
2804.7163 456.71402 -285.59814 0.84812105 0.33213899 0.41276434 0.12404257
2870.8555 426.18182 -334.2854 -0.52658767 -0.72747177 -0.43987527 0.0820131
2807.0237 470.14972 -327.80057 0.79449272 0.42447311 0.43428555 0.10171263
2877.1338 439.15628 -382.90692 -0.59253144 -0.69212645 -0.41214979 0.13121048
2885.6248 421.79398 -382.76898 0.95719051 0.2035227 -0.20582728 0.19275671
2807.6829 441.79001 -285.56546 0.90286988 0.057160243 0.42609704 0.11847071
2853.7141 456.15698 -379.43228 -0.61009169 -0.70964736 -0.35240427 0.034600686
2797.3799 532.95294 -117.83997 0.71354479 -0.42606276 -0.55616939 0.1377373
2793.9126 543.37622 -121.25185 0.91616088 -0.084334821 -0.39183787 0.10175227
2800.5049 488.95706 -331.65933 0.78640753 0.32871327 0.5229826 0.047377896
2806.6348 474.36752 -330.85516 0.78886503 0.36544675 0.49410591 0.082456686
2889.1643 401.06302 -382.35532 0.95798343 -0.0068338485 -0.28674212 0.17612809
2771.5938 492.57266 -237.78964 0.88812661 -0.068672083 0.45443949 0.095866509
2792.4729 521.99341 -330.43445 0.77169245 0.0096252318 0.63592303 0.066908404
2804.1086 461.00723 -286.76685 0.86549258 0.29275364 0.40647006 0.12848851
2861.9861 449.40881 -379.85074 -0.59701318 -0.72404653 -0.34544459 0.055978928
2795.5422 506.33945 -332.465 0.80460083 0.15370387 0.57357883 0.057940058
