# .PCD v0.7 - Point Cloud Data file format
VERSION 0.7
FIELDS x y z normal_x normal_y normal_z curvature
SIZE 4 4 4 4 4 4 4
TYPE F F F F F F F
COUNT 1 1 1 1 1 1 1
WIDTH 477
HEIGHT 1
VIEWPOINT 0 0 0 1 0 0 0
POINTS 477
DATA ascii
2603 -1205 -37 -0.73832923 0.66419148 0.11713125 0.073435239
2587 -1248 -79 -0.92467493 0.36524728 -0.10756777 0.12002756
2635 -1184 -40 -0.52742749 0.8438623 -0.098573335 0.10630169
2587 -1234 -35 -0.90085804 0.34800085 0.2595191 0.077861033
2592 -1218 -36 -0.84851336 0.4635753 0.25519216 0.069859251
2571 -1294 -75 -0.98304766 -0.17750067 0.04594332 0.1010106
2584 -1228 -80 -0.88936114 0.44116235 -0.1200517 0.11074491
2614 -1192 -39 -0.61271316 0.79030037 0.0028103988 0.08361496
2584 -1264 -78 -0.97051102 0.22497299 -0.086577013 0.10715986
2577 -1279 -76 -0.99949002 0.0078589702 0.030951209 0.09406817
2591 -1241 -44 -0.91424906 0.35023135 0.20368278 0.090763755
2571 -1248 -42 -0.93844652 0.32081029 0.12805811 0.088779621
2601 -1228 -45 -0.87022299 0.47174001 0.14203309 0.10303514
2610 -1197 -48 -0.64413923 0.76457644 -0.02252903 0.084491193
2599 -1210 -47 -0.79211074 0.60503834 0.080555446 0.082982838
2580 -1301 -84 -0.94778538 -0.31768343 -0.027929904 0.090090446
2577 -1283 -86 -0.99871546 -0.04381172 -0.025455747 0.10110446
2583 -1269 -87 -0.98386174 0.15160221 -0.095041245 0.10984942
2586 -1321 -82 -0.86772823 -0.49130937 -0.075251676 0.06847655
2568 -1254 -58 -0.95777261 0.28752467 -0.0010483882 0.08787813
2586 -1220 -57 -0.88247567 0.46453977 0.073752798 0.080279291
2586 -1241 -58 -0.92058688 0.38748431 0.048741292 0.094580799
2599 -1205 -57 -0.75317192 0.65597278 -0.049313854 0.094909757
2623 -1225 -22 -0.71354449 0.46846312 0.52095735 0.18522768
2609 -1197 -22 -0.65700918 0.74988216 -0.077560984 0.089354947
2587 -1311 -109 -0.85369766 -0.47017831 -0.22390303 0.079877682
2586 -1293 -111 -0.91820776 -0.30764773 -0.24949411 0.13379367
2589 -1282 -97 -0.98684776 -0.019598156 -0.16045955 0.14278793
2579 -1300 -97 -0.92579067 -0.35780951 -0.12200035 0.089446679
2609 -1212 -60 -0.70541388 0.69741493 -0.12650529 0.099930212
2584 -1240 -60 -0.91563052 0.40193483 -0.0083146133 0.0943489
2588 -1222 -60 -0.87841749 0.47740546 0.021606583 0.094080389
2560 -1249 -61 -0.95786899 0.287034 0.009925846 0.083337724
2597 -1214 -60 -0.81560469 0.57859379 0.0042582545 0.091299869
2583 -1227 -60 -0.89544314 0.44447026 0.025055664 0.091180645
2607 -1200 -59 -0.64813161 0.74956197 -0.13447018 0.087808847
2614 -1184 -58 -0.53538775 0.83508152 -0.12648642 0.089687772
2580 -1227 -78 -0.89893216 0.43059695 -0.080667004 0.10140777
2582 -1249 -78 -0.94100124 0.33275279 -0.061581332 0.10873239
2620 -1197 -30 -0.58919585 0.80796921 -0.0058293068 0.10072531
2600 -1209 -30 -0.78207564 0.54913455 0.29463363 0.074454077
2580 -1273 -86 -0.98655534 0.1259741 -0.1041108 0.10722774
2589 -1241 -83 -0.90236294 0.4084596 -0.13748409 0.12134355
2605 -1206 -32 -0.73687792 0.64758587 0.19401926 0.082564086
2598 -1221 -33 -0.83770937 0.49239922 0.23619053 0.083136983
2626 -1197 -31 -0.54622591 0.83677667 -0.037975565 0.11474171
2586 -1313 -89 -0.87628824 -0.4670774 -0.11814281 0.073000416
2645 -1187 -30 -0.50646555 0.81782281 -0.27323726 0.14162208
2576 -1253 -84 -0.9561016 0.28353655 -0.074005365 0.10330176
2600 -1241 -34 -0.89235723 0.27156729 0.36048537 0.10786378
2566 -1285 -87 -0.99649614 -0.046039958 -0.069826871 0.10329137
2588 -1226 -68 -0.89809752 0.43956077 -0.014394182 0.10056978
2613 -1206 -25 -0.69216323 0.70813644 0.13947348 0.1086285
2571 -1298 -66 -0.95547694 -0.26098812 0.13765492 0.099963322
2586 -1300 -115 -0.8902508 -0.36691612 -0.26986295 0.13018157
2584 -1244 -68 -0.92434871 0.37726173 -0.05703593 0.10384593
2579 -1261 -67 -0.97410667 0.22317645 -0.036171217 0.099361844
2572 -1278 -66 -0.99793106 0.030157153 0.056781188 0.10002722
2591 -1221 -48 -0.8674044 0.48487115 0.11184627 0.090014853
2610 -1188 -48 -0.59515226 0.80275798 -0.037060086 0.080906622
2594 -1201 -48 -0.77031142 0.63247246 0.081234016 0.071999088
2594 -1252 -72 -0.93802327 0.33736622 -0.079349466 0.11871712
2590 -1216 -75 -0.84310025 0.5230242 -0.12501028 0.11552919
2598 -1237 -73 -0.87743133 0.45583469 -0.14942889 0.12863956
2584 -1265 -70 -0.98037601 0.18679729 0.063004591 0.11023541
2576 -1278 -68 -0.99602669 0.0090130083 0.088597685 0.10465204
2593 -1302 -114 -0.76677799 -0.33515424 -0.54746985 0.1483472
2603 -1216 -33 -0.79353762 0.56915772 0.215308 0.085064195
2585 -1257 -75 -0.9583286 0.28001288 -0.056558944 0.11889758
2580 -1274 -74 -0.99625921 0.086023986 0.0082205897 0.10301786
2630 -1190 -35 -0.54699719 0.83682495 -0.022761457 0.1067126
2619 -1205 -34 -0.64313418 0.75812435 0.10782272 0.10923263
2581 -1237 -75 -0.91746193 0.39323133 -0.060273137 0.10477409
2566 -1271 -51 -0.98619241 0.11383582 0.12027476 0.096301861
2603 -1207 -49 -0.73394907 0.67906356 0.013838419 0.082012497
2597 -1224 -49 -0.86647624 0.48518711 0.11752649 0.095485695
2583 -1308 -101 -0.88914609 -0.42692375 -0.16478831 0.078229435
2589 -1241 -50 -0.91058189 0.37059969 0.18302053 0.10116158
2628 -1198 -49 -0.5656575 0.81534982 -0.12343515 0.10060102
2571 -1281 -99 -0.99700475 -0.01891485 -0.074991263 0.10665086
2577 -1256 -50 -0.95942742 0.23292442 0.1588873 0.1042911
2597 -1299 -108 -0.86514515 -0.38107416 -0.32604644 0.13938913
2600 -1317 -106 -0.81195897 -0.5157159 -0.27342245 0.10035816
2597 -1213 -62 -0.80183548 0.59575981 -0.046153042 0.094164982
2566 -1283 -61 -0.99386877 -0.028286854 0.10688622 0.10441834
2590 -1252 -62 -0.93909824 0.34311771 -0.019099673 0.12209179
2578 -1302 -106 -0.90789348 -0.36584699 -0.2046594 0.088680945
2616 -1207 -17 -0.66371787 0.74750346 0.026776973 0.12649114
2576 -1267 -62 -0.98663056 0.15974845 0.032256275 0.09762004
2593 -1232 -62 -0.87580192 0.48089102 -0.04141042 0.11510722
2591 -1236 -64 -0.89248133 0.4445571 -0.076459534 0.11515125
2582 -1272 -66 -0.988846 0.13055517 0.071686573 0.11631411
2579 -1310 -68 -0.9255656 -0.3712765 0.074040383 0.088809982
2580 -1290 -67 -0.98751861 -0.12225726 0.099298008 0.10857346
2585 -1253 -65 -0.94075346 0.33232841 -0.067385957 0.10780818
2613 -1215 -19 -0.75842088 0.5670706 0.32129237 0.11433873
2620 -1188 -26 -0.52420896 0.82260722 -0.2202778 0.12096503
2585 -1224 -69 -0.89983857 0.43584314 -0.01820489 0.099515945
2581 -1242 -68 -0.91850752 0.3913061 -0.056776531 0.10324652
2617 -1207 -25 -0.66067743 0.74037451 0.1238988 0.11200092
2579 -1261 -67 -0.97410667 0.22317645 -0.036171217 0.099361844
2574 -1279 -67 -0.99674231 0.0063646887 0.080400988 0.10183052
2565 -1295 -66 -0.9744848 -0.1989532 0.10390919 0.10489453
2583 -1262 -56 -0.97280627 0.21067816 0.096242972 0.10796611
2591 -1244 -56 -0.92352629 0.37589577 0.076167233 0.11616039
2574 -1280 -56 -0.99606788 0.013498838 0.087558851 0.11090458
2608 -1208 -56 -0.6798749 0.72416854 -0.11554302 0.090917744
2595 -1224 -56 -0.86228514 0.50558001 0.029207131 0.093281388
2592 -1312 -57 -0.84737402 -0.41868201 0.32659248 0.10057078
2572 -1279 -75 -0.9997279 0.018164949 0.014631736 0.094584301
2633 -1195 -26 -0.53985912 0.83933395 -0.063801169 0.1267287
2598 -1249 -75 -0.91253167 0.38532293 -0.13715766 0.13565521
2617 -1209 -26 -0.66199642 0.73136556 0.16390583 0.11425936
2576 -1302 -76 -0.95525289 -0.28730994 0.070319816 0.095937669
2586 -1236 -26 -0.88339669 0.35565284 0.30515802 0.086001761
2599 -1221 -26 -0.82092875 0.43964261 0.36440405 0.072466917
2590 -1255 -76 -0.94201148 0.31762993 -0.1082849 0.11798391
2615 -1233 -28 -0.76779062 0.18879867 0.61225218 0.13669734
2634 -1199 -28 -0.53549546 0.84371692 -0.037233304 0.12448759
2595 -1246 -28 -0.8970024 0.24824196 0.36573583 0.093374528
2584 -1275 -76 -0.99716371 0.074552655 -0.01032053 0.12217768
2614 -1211 -28 -0.71313965 0.66296804 0.22782728 0.11529652
2580 -1295 -76 -0.97987109 -0.18247107 0.080974661 0.10488524
2601 -1328 -77 -0.83598405 -0.54540098 -0.060566977 0.077095971
2579 -1240 -52 -0.91854984 0.37764826 0.11682432 0.086560369
2611 -1213 -53 -0.67856157 0.72563773 -0.11403553 0.10501684
2578 -1304 -53 -0.88460475 -0.33926862 0.31995508 0.10908572
2572 -1258 -52 -0.96540654 0.26015416 0.017607998 0.08951775
2568 -1278 -53 -0.99062294 0.060436495 0.12252985 0.10369415
2585 -1222 -52 -0.89085966 0.44192326 0.10522751 0.079762228
2624 -1189 -29 -0.50972795 0.8326568 -0.21647181 0.12617889
2600 -1232 -33 -0.87604374 0.40944666 0.25475642 0.093034342
2595 -1247 -35 -0.90043718 0.27297512 0.3386701 0.11099206
2608 -1217 -32 -0.78396767 0.58280718 0.21384697 0.094437823
2585 -1260 -36 -0.85587579 0.13721481 0.49864691 0.11944839
2615 -1203 -31 -0.6548869 0.74962276 0.095858902 0.1002194
2577 -1282 -86 -0.99906051 -0.038632505 -0.019639982 0.10052423
2607 -1216 -41 -0.77080387 0.62827229 0.10552415 0.099268064
2610 -1196 -41 -0.63740051 0.77022868 0.021640427 0.080056049
2590 -1230 -40 -0.89363277 0.38660032 0.22794908 0.083436102
2584 -1308 -86 -0.91491914 -0.39555141 -0.080387518 0.085542984
2632 -1185 -41 -0.52913731 0.84589523 -0.066895634 0.094604872
2574 -1243 -40 -0.90834886 0.32033581 0.26886311 0.089982167
2611 -1203 -30 -0.67433739 0.73033595 0.10898884 0.089419812
2626 -1191 -29 -0.52812129 0.84175181 -0.11199021 0.11965061
2579 -1267 -83 -0.98329067 0.16697806 -0.072511256 0.10173944
2581 -1244 -33 -0.90341884 0.33153027 0.27188623 0.086992383
2586 -1252 -82 -0.94010949 0.32936499 -0.087822914 0.12472833
2574 -1283 -85 -0.99833107 -0.041319903 -0.040344503 0.10005388
2592 -1236 -81 -0.90751791 0.40902552 -0.095442742 0.12650786
2595 -1330 -89 -0.8150236 -0.55869901 -0.15359643 0.053201225
2590 -1230 -32 -0.8763327 0.36550659 0.31376085 0.07706356
2603 -1217 -31 -0.79371321 0.5679456 0.21784647 0.084908642
2578 -1303 -87 -0.9367978 -0.33798885 -0.090407006 0.090585776
2587 -1265 -46 -0.92967218 0.13310654 0.34349993 0.12081311
2592 -1250 -48 -0.92070961 0.28522041 0.26635155 0.12273004
2593 -1278 -94 -0.98204458 0.10189962 -0.15876044 0.15913895
2592 -1312 -90 -0.87555742 -0.46000782 -0.14762135 0.09549053
2606 -1221 -51 -0.82978803 0.5517711 0.083669156 0.10751391
2581 -1289 -92 -0.98554778 -0.14336616 -0.090231679 0.12448893
2602 -1237 -50 -0.89514679 0.43240118 0.10835833 0.13211082
2606 -1204 -53 -0.68807489 0.72203809 -0.072207041 0.087264687
2622 -1199 -25 -0.55144888 0.83065176 -0.076953523 0.11810877
2604 -1209 -24 -0.76356357 0.59144264 0.25916469 0.083261549
2639 -1189 -27 -0.52504748 0.8179512 -0.2351191 0.13451938
2593 -1236 -68 -0.88916433 0.44569403 -0.10365169 0.12309396
2593 -1255 -66 -0.9487623 0.31598181 -0.002352173 0.12700354
2587 -1300 -108 -0.89721131 -0.3733288 -0.23587623 0.1181454
2567 -1278 -63 -0.99571222 0.083032504 0.040778406 0.10737706
2590 -1271 -65 -0.9897787 0.12248123 0.073052041 0.1298465
2605 -1217 -54 -0.77994424 0.62563133 -0.016504092 0.098285459
2573 -1299 -98 -0.93953627 -0.30667999 -0.15237768 0.093358882
2565 -1261 -53 -0.97376251 0.21544491 0.073280253 0.087417141
2581 -1281 -98 -0.99060655 0.0018954802 -0.13672961 0.12644358
2583 -1248 -54 -0.92968124 0.35692719 0.091080926 0.10470956
2598 -1193 -54 -0.71768486 0.6962567 0.012450932 0.08152198
2596 -1233 -54 -0.89589721 0.4236255 0.133827 0.1112382
2603 -1227 -65 -0.8378877 0.53972381 -0.081500888 0.12601765
2592 -1267 -66 -0.97466415 0.21810244 -0.049608856 0.13922298
2587 -1310 -67 -0.91703337 -0.3875747 0.093997903 0.09565334
2591 -1289 -66 -0.95163208 -0.15738128 0.26387036 0.15876351
2597 -1247 -66 -0.91976863 0.39051846 -0.038999323 0.12782098
2599 -1220 -60 -0.83176905 0.55434489 -0.029360421 0.096786343
2580 -1277 -61 -0.99457157 0.063088603 0.082748048 0.10817719
2592 -1238 -60 -0.91009218 0.41425392 0.011220667 0.11684237
2570 -1294 -61 -0.96471792 -0.19649781 0.17523679 0.11303056
2589 -1259 -61 -0.96276903 0.26773116 0.037360087 0.1195847
2568 -1284 -57 -0.9847706 -0.05089432 0.16624267 0.11225887
2586 -1232 -55 -0.90284747 0.423926 0.071785495 0.093851827
2607 -1221 -55 -0.79653102 0.60155803 -0.060549289 0.1078746
2595 -1319 -58 -0.83285242 -0.49314108 0.25133386 0.098697782
2581 -1250 -56 -0.93680292 0.3436946 0.065377191 0.10298818
2570 -1264 -56 -0.98173267 0.17348546 0.078126192 0.090696156
2572 -1276 -82 -0.99719799 0.062744722 -0.040734015 0.097132251
2570 -1294 -84 -0.98274076 -0.18478167 -0.0087382738 0.10122216
2584 -1265 -81 -0.97411603 0.20057623 -0.10424533 0.11252751
2582 -1286 -105 -0.96890891 -0.12280542 -0.21478935 0.12990026
2595 -1244 -64 -0.9206363 0.38931468 -0.029375212 0.12634502
2582 -1256 -62 -0.9520523 0.30381706 -0.035940323 0.11427028
2582 -1304 -104 -0.90377271 -0.38576236 -0.18542448 0.09050598
2639 -1195 -23 -0.53634948 0.83150882 -0.14464551 0.15295421
2600 -1228 -65 -0.83648086 0.53643847 -0.11195375 0.12997611
2617 -1204 -22 -0.62751997 0.77835673 -0.019480389 0.11803167
2589 -1280 -85 -0.9945538 0.029009905 -0.10010595 0.14243209
2588 -1244 -87 -0.90549767 0.40486333 -0.12712081 0.12453018
2588 -1262 -86 -0.94251615 0.27701887 -0.18687896 0.13033579
2589 -1230 -43 -0.89821821 0.38908002 0.20450118 0.081334658
2611 -1205 -46 -0.6698662 0.73977143 -0.063384607 0.090169348
2620 -1191 -47 -0.58643532 0.80991322 -0.011587911 0.084491827
2602 -1219 -44 -0.81688386 0.56917793 0.093473554 0.098768182
2568 -1288 -82 -0.9956817 -0.091433704 -0.016058816 0.10566086
2606 -1212 -41 -0.74475253 0.66461205 0.060286164 0.095190324
2566 -1304 -91 -0.9479689 -0.31181896 -0.064217731 0.080258504
2582 -1242 -41 -0.90756768 0.34118256 0.24477617 0.077339679
2623 -1199 -41 -0.57694578 0.81486338 -0.055957675 0.10019469
2579 -1262 -42 -0.94024289 0.16659354 0.29696801 0.1135856
2590 -1295 -91 -0.96214032 -0.23773305 -0.13330013 0.12949434
2593 -1227 -41 -0.88250071 0.43080959 0.18866813 0.088906325
2589 -1247 -63 -0.9236533 0.38150683 -0.036292773 0.12644993
2578 -1282 -64 -0.99442661 -0.030563924 0.10090377 0.11080099
2585 -1326 -67 -0.85454983 -0.51451957 0.070811234 0.06950663
2583 -1304 -65 -0.9477393 -0.29585752 0.11940897 0.1066237
2584 -1265 -63 -0.98060989 0.19596574 -0.0013047351 0.10859305
2607 -1205 -17 -0.71976376 0.69418716 -0.0066547329 0.094868265
2606 -1235 -62 -0.86038202 0.50921255 -0.021099566 0.15189822
2608 -1212 -16 -0.77289152 0.5927695 0.22641329 0.095756985
2579 -1305 -66 -0.94678068 -0.30572528 0.10068963 0.096204728
2587 -1251 -62 -0.93513227 0.3532505 -0.02723518 0.11856164
2583 -1287 -65 -0.97813517 -0.10584529 0.17902042 0.12403467
2589 -1271 -64 -0.98842096 0.128653 0.080451593 0.12862448
2589 -1232 -61 -0.89278215 0.45034084 0.011539695 0.10010701
2593 -1286 -83 -0.9975881 -0.050697394 -0.04741038 0.15597601
2595 -1321 -79 -0.86155206 -0.50357646 -0.064334475 0.080316208
2611 -1204 -55 -0.63145679 0.75947636 -0.15639041 0.095978223
2589 -1247 -51 -0.92920035 0.31146163 0.19894314 0.113252
2585 -1294 -93 -0.96246737 -0.24926569 -0.10734652 0.1188435
2602 -1218 -54 -0.81816077 0.57470959 0.017941279 0.099445224
2589 -1314 -92 -0.86927283 -0.46939862 -0.15501547 0.084538117
2596 -1233 -53 -0.89671999 0.42255709 0.13167705 0.11027198
2581 -1261 -50 -0.95550805 0.19262201 0.22338533 0.10431786
2603 -1234 -58 -0.86497068 0.50121623 0.024658032 0.13000959
2584 -1294 -51 -0.90856534 -0.21237977 0.35972732 0.1201156
2597 -1244 -62 -0.91812277 0.39629498 -0.00094153505 0.1277567
2599 -1223 -62 -0.81956023 0.56503683 -0.095154285 0.11744926
2574 -1296 -61 -0.96024513 -0.21517338 0.17784745 0.11149606
2593 -1298 -107 -0.86748296 -0.33325404 -0.36934406 0.14041089
2588 -1317 -107 -0.83093983 -0.51593137 -0.20821598 0.071881033
2588 -1261 -62 -0.97124255 0.2371925 0.020681333 0.121838
2567 -1272 -61 -0.99293458 0.11258215 0.037499432 0.097830646
2613 -1207 -16 -0.68213081 0.73123002 0.00025311406 0.11996102
2579 -1279 -65 -0.99410921 -0.0010939953 0.10837688 0.10827221
2585 -1224 -61 -0.89935452 0.43512297 0.042772889 0.094205104
2584 -1262 -64 -0.97604889 0.2163377 -0.022947581 0.11019196
2578 -1299 -66 -0.96108353 -0.24521421 0.12723397 0.10878804
2586 -1244 -63 -0.9120087 0.39670244 -0.10424634 0.10846425
2603 -1239 -40 -0.89461434 0.38153031 0.23259351 0.12776339
2615 -1223 -40 -0.73876917 0.67359006 0.02228361 0.13031641
2588 -1272 -88 -0.97333527 0.16304265 -0.1613552 0.1311442
2591 -1318 -89 -0.86621761 -0.48281443 -0.12867476 0.073385112
2589 -1295 -88 -0.96793008 -0.22539662 -0.11094002 0.11981834
2613 -1199 -23 -0.62391019 0.77998781 -0.048529081 0.10210236
2607 -1218 -23 -0.78375894 0.51834548 0.34211096 0.094144419
2573 -1266 -65 -0.98610294 0.15793508 0.051550992 0.090753041
2576 -1287 -67 -0.98994058 -0.095299438 0.10457355 0.11023854
2592 -1235 -64 -0.89304566 0.44780311 -0.044066485 0.11915677
2577 -1248 -65 -0.93713611 0.34795442 -0.02652611 0.096898481
2608 -1212 -19 -0.76333416 0.58907551 0.26516235 0.089341789
2586 -1242 -59 -0.92239028 0.38533911 0.026645636 0.099207357
2610 -1204 -12 -0.55495453 0.7980864 -0.23469914 0.11292721
2589 -1262 -60 -0.96927851 0.24535705 0.017294498 0.12304738
2584 -1305 -111 -0.87695032 -0.40746656 -0.25481197 0.089025587
2570 -1291 -62 -0.96553028 -0.17944993 0.18854468 0.11134657
2587 -1223 -58 -0.88941175 0.4543283 0.050324988 0.088384844
2569 -1272 -61 -0.99232638 0.11386899 0.04819008 0.095567927
2588 -1321 -90 -0.85076994 -0.50468183 -0.14658371 0.063718036
2610 -1215 -33 -0.74628913 0.64611596 0.15995863 0.11271502
2599 -1228 -34 -0.86233419 0.46037695 0.21079102 0.087871879
2577 -1297 -88 -0.96919423 -0.23558776 -0.071839511 0.10528964
2625 -1203 -32 -0.60069287 0.79909974 0.024651542 0.11908509
2585 -1264 -85 -0.97544408 0.20570408 -0.078706324 0.11428953
2587 -1246 -83 -0.91424078 0.38988507 -0.11024284 0.11988369
2642 -1192 -31 -0.53462511 0.8323639 -0.14610396 0.13989012
2587 -1241 -35 -0.89913201 0.30491316 0.31398991 0.082473107
2578 -1279 -86 -0.99796218 0.034317963 -0.053793427 0.10247333
2609 -1219 -44 -0.76373094 0.64420104 0.041473214 0.10603743
2597 -1235 -44 -0.89340693 0.42339259 0.15020905 0.10561327
2614 -1200 -44 -0.63304842 0.77366626 -0.026272584 0.088700928
2591 -1311 -94 -0.86967665 -0.46512803 -0.16528298 0.096702427
2582 -1284 -93 -0.99259341 -0.055002473 -0.10831858 0.13265812
2585 -1252 -44 -0.92126107 0.2557393 0.2930451 0.1058456
2592 -1216 -49 -0.83549207 0.54528451 0.067954391 0.084444858
2580 -1267 -53 -0.98002493 0.13675621 0.14439182 0.10351685
2592 -1317 -105 -0.82370853 -0.51908392 -0.22815819 0.077114537
2599 -1239 -50 -0.90040004 0.42003509 0.11335927 0.12565914
2587 -1252 -51 -0.93867648 0.29728642 0.1746635 0.11664157
2577 -1285 -54 -0.96442455 -0.094825611 0.24676605 0.11658582
2585 -1307 -56 -0.88423914 -0.35150999 0.30750906 0.10250382
2598 -1200 -48 -0.74676323 0.66122335 0.071613461 0.07272055
2599 -1301 -104 -0.86691892 -0.39937952 -0.29824084 0.15069018
2583 -1248 -56 -0.92969853 0.36554143 0.045166779 0.10667659
2608 -1202 -53 -0.63943672 0.76128906 -0.10751539 0.086371742
2585 -1267 -58 -0.98542929 0.15076724 0.078729667 0.11582583
2594 -1234 -55 -0.89926732 0.42046383 0.12053416 0.11687208
2580 -1309 -109 -0.86695671 -0.43201336 -0.24849679 0.078772478
2600 -1217 -54 -0.81647742 0.57732546 0.0077437009 0.090962403
2574 -1278 -77 -0.99918836 0.039776586 -0.0063546691 0.093651839
2590 -1231 -73 -0.88436037 0.45185465 -0.11719256 0.11727577
2575 -1260 -75 -0.97627628 0.21639551 -0.007592875 0.10504762
2577 -1243 -74 -0.93319392 0.35596269 -0.049392097 0.098756678
2590 -1212 -71 -0.82552034 0.55512714 -0.10173509 0.11150319
2622 -1204 -22 -0.58660084 0.80985171 -0.0063050333 0.11824059
2605 -1203 -22 -0.73222852 0.67242455 0.1081048 0.086849533
2587 -1284 -102 -0.96977615 -0.042856213 -0.24020329 0.14588243
2602 -1210 -55 -0.77534968 0.63120997 -0.020171044 0.090322107
2580 -1243 -55 -0.92934728 0.36317024 0.066491067 0.093836598
2610 -1192 -55 -0.59462082 0.79648834 -0.10969242 0.084381737
2586 -1306 -102 -0.89343965 -0.40925139 -0.18514574 0.087685093
2596 -1228 -56 -0.88284904 0.46379966 0.073942989 0.10046391
2592 -1234 -61 -0.89163589 0.45223239 -0.021708358 0.10765757
2599 -1218 -60 -0.81162673 0.58231425 -0.046607021 0.093981907
2587 -1248 -72 -0.92608941 0.36925137 -0.077535883 0.11616229
2581 -1262 -71 -0.97411567 0.22579896 -0.010652065 0.1058051
2614 -1215 -28 -0.73794538 0.62369257 0.25776771 0.12902616
2592 -1303 -68 -0.93473202 -0.33303058 0.12396201 0.13660736
2579 -1279 -69 -0.99808139 -0.0048693107 0.061724398 0.1033512
2591 -1232 -74 -0.88190627 0.44756636 -0.14807355 0.12224677
2581 -1294 -114 -0.92338735 -0.33666316 -0.18442792 0.11660676
2632 -1206 -30 -0.59626508 0.78574318 0.16454633 0.14182347
2588 -1214 -71 -0.84590089 0.5278371 -0.076417565 0.11524101
2592 -1259 -72 -0.95471746 0.27937463 -0.10229613 0.12976059
2577 -1286 -116 -0.95855755 -0.22580537 -0.17372197 0.15135063
2592 -1237 -72 -0.88906592 0.43371102 -0.14648052 0.11831559
2652 -1185 -27 -0.50971687 0.74052709 -0.43795931 0.15178931
2587 -1300 -72 -0.95824808 -0.26771113 0.10045598 0.11910746
2624 -1194 -26 -0.51578766 0.84679425 -0.13000982 0.11658897
2607 -1207 -26 -0.73388982 0.6429615 0.2191032 0.090246834
2577 -1273 -71 -0.99559182 0.086630814 0.03594584 0.0968417
2626 -1190 -45 -0.55946338 0.82709783 -0.053944316 0.095347174
2595 -1238 -44 -0.90823841 0.37891269 0.17756152 0.10150616
2611 -1204 -45 -0.65807378 0.75104457 -0.05358069 0.089944772
2589 -1248 -89 -0.92357391 0.35600072 -0.14238934 0.1288632
2609 -1224 -45 -0.81139594 0.58008099 0.071712643 0.11416494
2572 -1282 -88 -0.9982028 -0.034619305 -0.048914995 0.099682182
2575 -1262 -88 -0.97651196 0.20236272 -0.073983833 0.10082413
2572 -1303 -87 -0.94684219 -0.32022524 -0.030751528 0.09043593
2599 -1227 -55 -0.86551607 0.49845615 0.049227968 0.11175031
2582 -1301 -109 -0.90182436 -0.37559938 -0.2136305 0.094375163
2590 -1242 -56 -0.91947579 0.38538665 0.077726223 0.11186586
2613 -1196 -53 -0.63084811 0.77315879 -0.065239266 0.087654769
2575 -1253 -57 -0.94822943 0.31739238 -0.01108937 0.08963979
2606 -1211 -54 -0.72559351 0.6839276 -0.075875632 0.093012333
2577 -1283 -96 -0.99379689 -0.03070021 -0.10688866 0.11550973
2603 -1211 -57 -0.7545507 0.65414035 -0.052475106 0.097395405
2609 -1195 -59 -0.5903945 0.79438841 -0.14276326 0.085029773
2588 -1239 -54 -0.91902149 0.37490863 0.12183172 0.098374151
2598 -1226 -56 -0.87266791 0.48391917 0.065366857 0.1013376
2575 -1300 -94 -0.94037497 -0.3176617 -0.12159783 0.088180013
2607 -1203 -42 -0.67742538 0.7355904 -0.0012417977 0.08028736
2587 -1231 -88 -0.87693316 0.45291343 -0.16080342 0.14153941
2571 -1266 -88 -0.98614472 0.15353575 -0.062811896 0.094779521
2626 -1190 -43 -0.56589127 0.82443607 -0.0084985392 0.089564234
2583 -1250 -88 -0.9474346 0.31140086 -0.073465966 0.10792724
2576 -1273 -67 -0.99095178 0.099598892 0.089970134 0.10492969
2583 -1317 -70 -0.89252335 -0.45082846 0.012478681 0.075221546
2617 -1202 -20 -0.59059143 0.80372304 -0.072326161 0.11534882
2585 -1258 -66 -0.96166044 0.27364382 -0.018119587 0.11091536
2612 -1219 -20 -0.76987064 0.52828151 0.3580752 0.10402358
2585 -1237 -65 -0.91683185 0.39778364 -0.034462042 0.095288947
2585 -1297 -68 -0.97082806 -0.22465757 0.083796859 0.11769903
2602 -1204 -17 -0.74821639 0.66324222 -0.016792424 0.094270453
2593 -1322 -68 -0.85767734 -0.50695235 0.08595898 0.087042674
2582 -1277 -65 -0.99057108 0.017628126 0.13586114 0.11388303
2588 -1299 -67 -0.94902658 -0.28010586 0.14453103 0.12425692
2608 -1201 -17 -0.62256533 0.76810926 -0.1497349 0.095840536
2588 -1241 -63 -0.91373485 0.40247178 -0.055724073 0.10551403
2607 -1231 -63 -0.85118258 0.52326334 -0.04103246 0.144246
2591 -1262 -65 -0.96667951 0.25544861 -0.016633421 0.12659475
2596 -1277 -82 -0.9949736 0.066151202 -0.075177804 0.1454678
2596 -1323 -83 -0.85193491 -0.51313519 -0.10439953 0.077918977
2570 -1271 -68 -0.99203622 0.10349812 0.071779445 0.097132042
2613 -1199 -27 -0.63499564 0.77096868 -0.048865605 0.094439827
2589 -1219 -70 -0.86575192 0.49234477 -0.089834787 0.10639822
2639 -1190 -28 -0.55077225 0.81729525 -0.16934724 0.14159091
2586 -1238 -70 -0.91584998 0.3931002 -0.081799001 0.10464283
2574 -1288 -116 -0.94638097 -0.25682858 -0.19596466 0.1492117
2581 -1256 -69 -0.95577395 0.28559273 -0.07023488 0.1031526
2602 -1222 -36 -0.83159178 0.51536566 0.20701057 0.088687234
2625 -1191 -36 -0.56536049 0.82479382 -0.0090876445 0.09890794
2568 -1296 -86 -0.98045409 -0.19674738 0.0005272525 0.097234242
2585 -1235 -36 -0.90186298 0.35107481 0.25177297 0.078818619
2616 -1208 -36 -0.67326099 0.73562151 0.074702665 0.1153239
2573 -1257 -85 -0.96628863 0.25065258 -0.058818139 0.098304719
2642 -1187 -30 -0.51270336 0.82774609 -0.22797304 0.1327416
2608 -1215 -30 -0.77347755 0.56440365 0.28841132 0.095615737
2621 -1200 -30 -0.62213743 0.77947134 0.073276035 0.10390513
2585 -1238 -78 -0.90405786 0.41342634 -0.10843397 0.1160216
2586 -1283 -79 -0.99872768 -0.032289609 0.038735118 0.13032047
2595 -1332 -80 -0.82746655 -0.54943252 -0.11585791 0.060648631
2584 -1304 -79 -0.94543552 -0.32580838 0.00077673973 0.090242691
2585 -1260 -79 -0.96322513 0.2605876 -0.065509714 0.11786631
2582 -1224 -61 -0.89735132 0.4411884 0.010651748 0.093647867
2576 -1282 -63 -0.99475986 -0.036309365 0.095574796 0.10763536
2583 -1265 -62 -0.98100263 0.19399375 -0.00050168205 0.10853893
2575 -1302 -64 -0.95946324 -0.25636873 0.11707012 0.10137114
2584 -1245 -61 -0.91897202 0.38726351 -0.074279748 0.10708228
2608 -1206 -16 -0.75034636 0.66069978 0.021354921 0.10825338
2604 -1233 -53 -0.86794788 0.49543488 0.034797288 0.12680386
2588 -1259 -49 -0.93843365 0.2315761 0.25634867 0.12394637
2603 -1215 -54 -0.76650125 0.64130467 -0.034699399 0.095097221
2578 -1272 -48 -0.96397591 0.084302962 0.2522766 0.10755249
2591 -1293 -94 -0.96631825 -0.21736175 -0.13777824 0.13844764
2590 -1310 -92 -0.88017058 -0.44688997 -0.15996587 0.094938591
2571 -1242 -42 -0.92378294 0.34636423 0.16326946 0.084238477
2606 -1217 -43 -0.77541351 0.62868065 0.059114031 0.095700607
2627 -1185 -44 -0.55413586 0.83233714 -0.012181119 0.082201697
2593 -1232 -43 -0.89553136 0.39882162 0.1973955 0.093570426
2616 -1200 -44 -0.62836325 0.77776527 -0.015516656 0.092284203
2581 -1280 -87 -0.99704963 0.008455216 -0.076293111 0.11931292
2580 -1300 -86 -0.95174527 -0.29715326 -0.076686963 0.093181215
2582 -1270 -65 -0.98529404 0.15621606 0.069224812 0.11237666
2583 -1232 -63 -0.91047633 0.41347086 -0.0086452393 0.092673481
2583 -1251 -64 -0.9243533 0.36492133 -0.11137088 0.10523234
2581 -1309 -67 -0.92900312 -0.36013103 0.085198455 0.089938007
2578 -1288 -66 -0.9878422 -0.10241517 0.1169574 0.11247252
2611 -1215 -18 -0.77307725 0.55429554 0.30839601 0.1080528
2598 -1217 -49 -0.81903672 0.57145655 0.051149119 0.082407847
2592 -1234 -51 -0.89996403 0.41498417 0.13361454 0.099196166
2610 -1204 -49 -0.66692442 0.74320304 -0.053488951 0.090484791
2577 -1283 -54 -0.97412843 -0.05771267 0.21850173 0.12108232
2585 -1268 -53 -0.97379333 0.11587732 0.19570106 0.11682465
2578 -1302 -56 -0.92368037 -0.28734276 0.25347328 0.11339096
2589 -1251 -52 -0.93633151 0.31054974 0.16383566 0.13130279
2583 -1306 -67 -0.94063127 -0.31756359 0.11985864 0.10068392
2587 -1230 -62 -0.90088362 0.43279177 0.033165574 0.08882653
2575 -1282 -65 -0.99583757 -0.020369401 0.088840559 0.10659586
2606 -1209 -17 -0.76877755 0.6124661 0.18402813 0.094952613
2584 -1267 -64 -0.98396909 0.17736614 0.018604651 0.11032332
2586 -1249 -63 -0.92335182 0.37609577 -0.077287644 0.11403659
2611 -1209 -41 -0.70031518 0.71373171 0.012070129 0.096946217
2605 -1224 -40 -0.83189958 0.53491038 0.14769539 0.10118253
2583 -1294 -81 -0.98413306 -0.17672054 -0.01587614 0.12292653
2624 -1198 -43 -0.57393491 0.81731814 -0.050889883 0.099542201
2592 -1316 -79 -0.88260663 -0.46894935 -0.033045448 0.090245582
2595 -1237 -38 -0.9018259 0.3631188 0.23421109 0.098336987
2588 -1279 -82 -0.99787587 0.014543322 -0.063499071 0.13461745
2582 -1248 -37 -0.90786189 0.29733422 0.29559961 0.093535088
2613 -1222 -25 -0.77417028 0.54107636 0.32847646 0.11994728
2591 -1321 -64 -0.84933722 -0.50694644 0.14707685 0.090294585
2614 -1202 -26 -0.64599288 0.76305979 0.020807777 0.098473445
2580 -1296 -65 -0.9753145 -0.1932748 0.10680109 0.10842475
2584 -1239 -67 -0.91845345 0.39027873 -0.064232185 0.1010607
2583 -1258 -67 -0.95918393 0.27821589 -0.050618622 0.10849508
2578 -1276 -66 -0.99509799 0.047203388 0.086901329 0.10366736
2631 -1191 -26 -0.50626987 0.82784724 -0.24157758 0.13165446
2607 -1210 -25 -0.74686038 0.60182756 0.2828483 0.088259637
2623 -1199 -24 -0.53518426 0.84063745 -0.083104387 0.12511306
2616 -1231 -27 -0.79237831 0.33432373 0.51025891 0.1416658
2594 -1294 -94 -0.95838749 -0.22849196 -0.17112775 0.13579626
2594 -1310 -92 -0.87737483 -0.44941336 -0.16805056 0.10230488
2588 -1311 -61 -0.88118333 -0.41492891 0.22660512 0.10404718
2588 -1235 -56 -0.91236788 0.39830053 0.094560459 0.094018117
2581 -1270 -58 -0.98721391 0.12786204 0.095184036 0.11182573
2591 -1255 -57 -0.94901973 0.30353814 0.085006602 0.12435558
2584 -1290 -60 -0.95817655 -0.14213333 0.24838673 0.12953644
2585 -1299 -69 -0.96618241 -0.23943339 0.095724352 0.10995751
2590 -1322 -69 -0.87039375 -0.49079269 0.039208531 0.073916614
2640 -1191 -28 -0.53887904 0.82675081 -0.16153149 0.1402394
2591 -1261 -70 -0.96612114 0.25583804 -0.034012493 0.13020749
2617 -1220 -27 -0.73655385 0.62275344 0.26394421 0.13795179
2618 -1201 -28 -0.63189387 0.77474588 0.021885296 0.10207887
2587 -1239 -71 -0.90909237 0.40541065 -0.095881708 0.10931451
2589 -1280 -70 -0.98859519 -0.032507997 0.14704664 0.14654824
2611 -1227 -23 -0.7951591 0.43895066 0.41838276 0.11469976
2588 -1307 -64 -0.91749114 -0.35887855 0.17151138 0.10936803
2634 -1197 -25 -0.53714228 0.84249663 -0.040958304 0.12350577
2591 -1237 -22 -0.8760525 0.31705487 0.3633295 0.088540047
2619 -1211 -24 -0.65863961 0.73758608 0.14886448 0.12444102
