# .PCD v0.7 - Point Cloud Data file format
VERSION 0.7
FIELDS x y z normal_x normal_y normal_z curvature
SIZE 4 4 4 4 4 4 4
TYPE F F F F F F F
COUNT 1 1 1 1 1 1 1
WIDTH 706
HEIGHT 1
VIEWPOINT 0 0 0 1 0 0 0
POINTS 706
DATA ascii
2447 -1427 261 -0.70522147 0.51812094 0.48395592 0.11758551
2443 -1390 216 -0.8716538 0.42543647 0.24335884 0.061426673
2436 -1402 213 -0.89790809 0.393819 0.1966407 0.054660935
2423 -1427 208 -0.96162248 0.24423039 0.12503499 0.073453665
2455 -1415 264 -0.59917182 0.58151269 0.55030549 0.083720528
2446 -1385 171 -0.80852699 0.56696093 0.15760508 0.096418977
2472 -1384 221 -0.6184634 0.72635901 0.29984242 0.094831057
2470 -1444 262 -0.54841948 0.29083624 0.78399646 0.14228433
2421 -1430 160 -0.93104482 0.10559228 0.34929326 0.070653543
2452 -1403 215 -0.87409121 0.43970573 0.20645434 0.058054771
2439 -1396 168 -0.84897822 0.47951931 0.22202981 0.084809922
2414 -1440 157 -0.93530166 -0.014350707 0.3535603 0.074483491
2461 -1393 218 -0.79220885 0.55418587 0.2555058 0.077416822
2458 -1376 174 -0.51825154 0.84719151 0.11696965 0.12152687
2436 -1452 205 -0.98861337 -0.018342232 0.14935578 0.10714732
2429 -1405 165 -0.88184756 0.36151144 0.30274448 0.066106655
2437 -1439 207 -0.98028588 0.15241151 0.12573916 0.081893697
2459 -1422 263 -0.606103 0.53534663 0.58825427 0.096264489
2452 -1418 213 -0.9147616 0.36794567 0.16681488 0.058021948
2422 -1458 154 -0.90671039 -0.33367759 0.25794485 0.072355181
2444 -1428 210 -0.95863187 0.25251645 0.13137902 0.067495756
2427 -1418 163 -0.90403116 0.27416146 0.32796815 0.065677464
2415 -1437 160 -0.93851113 0.033431754 0.34362638 0.076859206
2472 -1410 254 -0.51570827 0.5904997 0.62076968 0.066773124
2432 -1400 160 -0.85175705 0.44025525 0.28405148 0.072272189
2428 -1421 160 -0.90997255 0.23570955 0.34116113 0.073202528
2468 -1388 206 -0.68606985 0.68974608 0.23142728 0.11374423
2451 -1422 253 -0.75265092 0.48069349 0.44994488 0.093856514
2450 -1401 206 -0.90035731 0.38088962 0.21042788 0.056969084
2456 -1390 161 -0.72318876 0.67750716 0.13409741 0.13032812
2445 -1422 206 -0.9503451 0.26758569 0.15887794 0.06622842
2437 -1441 206 -0.97974479 0.15628929 0.12519492 0.079940394
2430 -1464 160 -0.87594473 -0.40529731 0.26163909 0.066564597
2431 -1435 212 -0.97723871 0.19356291 0.086821117 0.076868236
2433 -1423 168 -0.92587405 0.21868083 0.30811667 0.059478514
2423 -1446 162 -0.95134026 -0.068281204 0.30048206 0.0722619
2441 -1426 215 -0.94343334 0.30835593 0.12186143 0.067016989
2428 -1435 165 -0.94721705 0.080809616 0.31024128 0.070520677
2451 -1417 219 -0.90464973 0.39159727 0.16810833 0.059103169
2457 -1406 221 -0.85619169 0.46106997 0.23313123 0.064222872
2463 -1394 224 -0.7539646 0.58869618 0.29150349 0.079207584
2468 -1381 226 -0.62460929 0.69457841 0.35696515 0.078831561
2452 -1389 176 -0.80127186 0.56390655 0.1999319 0.10593028
2450 -1403 174 -0.87538946 0.42602035 0.22847295 0.090753891
2439 -1412 171 -0.8933959 0.35083327 0.28064173 0.065464109
2437 -1453 167 -0.94870597 -0.18549789 0.2560223 0.077856183
2436 -1386 167 -0.81384802 0.55654567 0.16705811 0.081785075
2426 -1424 167 -0.92030734 0.2017832 0.33513874 0.060158864
2457 -1376 169 -0.54979223 0.82606244 0.12389262 0.12167186
2426 -1451 120 -0.85302168 -0.33020723 -0.40412518 0.13438648
2429 -1404 167 -0.88325292 0.37027463 0.28768203 0.06355533
2454 -1369 207 -0.68714368 0.68217796 0.24993372 0.087719969
2433 -1407 160 -0.87173653 0.36698377 0.32465115 0.071699806
2431 -1451 160 -0.94459373 -0.18464729 0.27138162 0.084360272
2437 -1387 160 -0.80686438 0.5696643 0.15637273 0.08685644
2429 -1427 160 -0.92708403 0.14631118 0.34512079 0.072645314
2432 -1425 206 -0.95671886 0.24448685 0.15784544 0.067799263
2449 -1389 207 -0.87526166 0.42102057 0.23803076 0.065315038
2451 -1372 161 -0.64252901 0.76248896 0.075940631 0.12632388
2445 -1409 207 -0.91814911 0.34754422 0.19030294 0.05755312
2446 -1482 129 -0.64592206 -0.5491783 -0.53027147 0.078859821
2415 -1421 135 -0.96347779 0.22275108 0.14863545 0.12367766
2456 -1399 194 -0.87611938 0.43157667 0.21484031 0.080093406
2448 -1424 189 -0.94505471 0.24484403 0.21661706 0.062601104
2444 -1436 186 -0.95385253 0.16075771 0.25361833 0.065992028
2454 -1411 239 -0.78434777 0.47903681 0.3941094 0.08073169
2445 -1421 235 -0.86787528 0.4143157 0.27410775 0.072750568
2448 -1409 191 -0.90112245 0.37313867 0.22078466 0.059968423
2427 -1456 130 -0.90617514 -0.38709906 -0.17029694 0.12952456
2443 -1450 183 -0.95756876 -0.043288726 0.28493527 0.084433578
2432 -1428 232 -0.91345108 0.37327394 0.16209191 0.082221158
2463 -1387 197 -0.71078426 0.66175365 0.2384697 0.11111324
2429 -1415 139 -0.9230445 0.33277905 0.19299468 0.10515666
2468 -1404 242 -0.6067093 0.61443102 0.50435942 0.077754021
2418 -1437 133 -0.99385709 -0.033715129 0.10541087 0.14595956
2439 -1462 180 -0.89887989 -0.32724851 0.29141617 0.080990933
2447 -1376 146 -0.60684389 0.77844131 -0.16052926 0.12589665
2442 -1394 145 -0.77708644 0.62790006 0.043337688 0.10139063
2423 -1404 144 -0.8623054 0.48517898 0.14502001 0.089593649
2414 -1420 143 -0.9464258 0.2467411 0.20831977 0.10848318
2417 -1444 142 -0.96933109 -0.13124847 0.20777647 0.12903449
2413 -1434 115 -0.92061925 0.015544271 -0.39015213 0.20123014
2436 -1463 154 -0.86999708 -0.45592636 0.18771324 0.086244605
2459 -1385 218 -0.78631264 0.54432601 0.2922698 0.079484276
2444 -1439 208 -0.98446786 0.13489681 0.11236516 0.083718143
2428 -1413 160 -0.88865799 0.30335671 0.34389192 0.067148305
2431 -1430 158 -0.93144035 0.1136555 0.34568962 0.078143142
2432 -1446 156 -0.9492054 -0.13931935 0.28213337 0.090279296
2446 -1393 215 -0.86794311 0.43939224 0.23153682 0.062627956
2443 -1407 212 -0.90682423 0.38096651 0.18037269 0.053918246
2446 -1376 168 -0.72949725 0.67135602 0.13082419 0.10589885
2437 -1420 210 -0.93922091 0.30999309 0.14754058 0.062149953
2473 -1377 221 -0.55948639 0.78165197 0.2756722 0.097045757
2434 -1401 163 -0.85523134 0.43074161 0.28816837 0.071117669
2439 -1388 165 -0.81541979 0.55498469 0.16456798 0.088776849
2426 -1455 137 -0.9261685 -0.37437817 0.045309834 0.12593096
2435 -1392 137 -0.78930861 0.6139555 -0.0071120677 0.091808096
2425 -1409 137 -0.89914978 0.4173446 0.13173194 0.10090906
2450 -1417 187 -0.92867732 0.30610749 0.20941958 0.070315696
2444 -1374 138 -0.63666153 0.73623872 -0.22937872 0.10566496
2453 -1395 186 -0.85677373 0.45736504 0.23823528 0.084397271
2422 -1430 137 -0.97685683 0.094810858 0.19173312 0.13033542
2475 -1403 235 -0.56125653 0.67823213 0.47433361 0.08421322
2437 -1432 186 -0.94893503 0.18031162 0.25886297 0.06380628
2459 -1376 186 -0.60425955 0.77440143 0.18754385 0.1014316
2436 -1429 170 -0.93802029 0.18750931 0.29147574 0.065178081
2446 -1419 220 -0.91467768 0.36822435 0.16666007 0.061607987
2444 -1448 168 -0.97037512 -0.058131188 0.23450555 0.09341637
2449 -1465 166 -0.83059788 -0.49592701 0.2533052 0.077721298
2429 -1427 121 -0.94350272 0.20122415 -0.26327077 0.18751515
2445 -1419 173 -0.91353315 0.30355144 0.27076522 0.075186767
2427 -1440 118 -0.85956585 -0.16029318 -0.48523453 0.17029719
2437 -1428 217 -0.95382446 0.28344402 0.099389657 0.071524978
2456 -1380 181 -0.66520089 0.72150266 0.19220208 0.11001255
2460 -1396 225 -0.78770262 0.55319482 0.27110893 0.07601463
2448 -1406 175 -0.88157225 0.41059119 0.23290613 0.079268456
2451 -1392 178 -0.82935172 0.52189034 0.19951476 0.10131437
2453 -1408 223 -0.86690277 0.44545925 0.22370887 0.064131878
2468 -1385 228 -0.64435685 0.65239227 0.39898452 0.078971878
2449 -1475 130 -0.6591484 -0.59263545 -0.46293259 0.090122342
2458 -1390 195 -0.81439853 0.53090298 0.23430103 0.092815533
2443 -1426 187 -0.94801867 0.21583867 0.23382513 0.059764139
2422 -1416 137 -0.93494117 0.32062629 0.1519331 0.11266638
2452 -1416 237 -0.82927591 0.43537363 0.35035881 0.07641127
2445 -1385 145 -0.71838105 0.69102931 -0.080045365 0.11143914
2453 -1417 190 -0.93338436 0.30082843 0.19569328 0.072265871
2420 -1443 131 -0.98039281 -0.19687805 -0.0083016418 0.15272722
2438 -1396 143 -0.81298828 0.57667452 0.080601357 0.090801783
2466 -1379 198 -0.54779053 0.80869669 0.21432483 0.11411158
2433 -1408 140 -0.88217705 0.44738105 0.14701606 0.10181025
2456 -1404 192 -0.88847315 0.40375641 0.21816576 0.075581387
2420 -1429 134 -0.97778332 0.12230006 0.17024262 0.13006084
2460 -1405 240 -0.729482 0.52438354 0.43917876 0.081310794
2449 -1444 185 -0.95671707 0.058073275 0.28516632 0.086411282
2447 -1458 182 -0.9273479 -0.22363365 0.30002317 0.095279232
2416 -1442 131 -0.98547751 -0.16931789 0.012867152 0.14769341
2442 -1478 134 -0.69541192 -0.68173212 -0.22725233 0.096773937
2409 -1418 128 -0.94660544 0.30612671 0.10111644 0.14659715
2429 -1410 127 -0.88014406 0.47212899 -0.04940309 0.12379968
2439 -1430 222 -0.95124727 0.29035637 0.10402785 0.075757064
2444 -1469 129 -0.71137422 -0.59671021 -0.37132686 0.094240196
2462 -1395 222 -0.77789438 0.57064569 0.26314223 0.0748749
2438 -1414 176 -0.91210729 0.30093569 0.27838448 0.060941298
2445 -1467 178 -0.84246379 -0.45318142 0.29134408 0.071761049
2444 -1394 176 -0.86306661 0.45673227 0.21566577 0.085536562
2472 -1377 222 -0.55933487 0.77969217 0.28146845 0.096895687
2444 -1442 178 -0.9574433 0.062025532 0.28187811 0.071895353
2405 -1422 127 -0.96649998 0.24026665 0.090275981 0.15453178
2445 -1371 175 -0.71763122 0.67938912 0.15308785 0.10056661
2438 -1418 128 -0.87631524 0.44021222 -0.19566497 0.16120324
2447 -1411 222 -0.8866291 0.42145151 0.19044007 0.058299206
2423 -1427 134 -0.97983044 0.14588055 0.13656947 0.14170438
2451 -1381 145 -0.67604476 0.72921181 -0.10589457 0.1224693
2449 -1394 189 -0.86862123 0.4382692 0.23112179 0.07444872
2442 -1392 142 -0.77614713 0.63052124 0.006216554 0.095696494
2416 -1437 131 -0.99089116 -0.026074203 0.13211627 0.14401069
2453 -1457 180 -0.91621536 -0.23495911 0.32456678 0.090421341
2435 -1403 140 -0.83690846 0.54173702 0.078135848 0.09407112
2434 -1462 129 -0.81428826 -0.51510984 -0.26757506 0.11735357
2456 -1382 192 -0.73378438 0.64091533 0.22536196 0.10246982
2431 -1416 137 -0.93502712 0.31840494 0.15602097 0.11829606
2455 -1490 128 -0.57470345 -0.45130393 -0.68267173 0.075528666
2452 -1411 187 -0.90757066 0.36177319 0.21315667 0.080483615
2448 -1424 185 -0.94165367 0.24869508 0.22680213 0.066737525
2450 -1440 183 -0.95046514 0.12353303 0.28522915 0.086399078
2438 -1460 132 -0.84112889 -0.48423439 -0.24087168 0.12806991
2441 -1412 178 -0.90287113 0.34227821 0.26013336 0.063531116
2439 -1416 132 -0.90072298 0.42365885 -0.095976211 0.15148667
2443 -1391 178 -0.84922296 0.48168722 0.21632801 0.080368891
2450 -1440 179 -0.95843846 0.12749417 0.255227 0.086043112
2448 -1461 179 -0.8977015 -0.31723011 0.3057729 0.08422485
2419 -1426 131 -0.97845376 0.16542096 0.12354834 0.13757631
2448 -1372 178 -0.72700799 0.66533828 0.16965944 0.096482903
2446 -1456 175 -0.93302673 -0.22986439 0.27680942 0.082871489
2446 -1471 125 -0.64281964 -0.5262959 -0.55659264 0.091983169
2425 -1444 127 -0.96843421 -0.22334424 -0.11069078 0.15506129
2452 -1474 172 -0.79151112 -0.53526098 0.29496747 0.053721927
2445 -1442 177 -0.95832133 0.067774691 0.27753696 0.075085431
2419 -1427 129 -0.98178124 0.16275267 0.098066457 0.14230128
2454 -1416 232 -0.8439554 0.43883717 0.30848229 0.072758697
2444 -1440 226 -0.95897484 0.2597028 0.11367358 0.084187992
2446 -1426 229 -0.91001654 0.3543911 0.21512039 0.075901598
2476 -1398 238 -0.50553703 0.69686639 0.50873333 0.076942936
2451 -1417 136 -0.74380684 0.55723679 -0.36910492 0.17772573
2452 -1431 180 -0.94526893 0.23128186 0.23016411 0.080489583
2450 -1400 185 -0.87737459 0.4174822 0.23647927 0.083066218
2456 -1388 187 -0.78386986 0.57563043 0.23280409 0.098021261
2427 -1417 132 -0.93968856 0.32724154 0.099490821 0.11961945
2447 -1414 182 -0.9156512 0.32637367 0.2346555 0.071640328
2462 -1406 235 -0.7511732 0.52142406 0.40479103 0.082868591
2426 -1436 120 -0.95320719 -0.083033346 -0.29069129 0.17853221
2458 -1413 242 -0.73859155 0.50483149 0.44679713 0.080737464
2419 -1423 138 -0.96049321 0.18681838 0.2062806 0.11713236
2446 -1481 132 -0.66122812 -0.6121251 -0.43368214 0.085841812
2456 -1428 192 -0.95578706 0.22647569 0.187563 0.070183255
2444 -1450 186 -0.95815033 -0.025978412 0.28508428 0.087532811
2444 -1435 189 -0.95730394 0.15790428 0.24214761 0.067178905
2432 -1416 142 -0.92462683 0.29395691 0.24218698 0.11450296
2437 -1462 134 -0.84471017 -0.51062882 -0.16038381 0.12551574
2442 -1433 236 -0.90412354 0.34495133 0.25212938 0.086995959
2452 -1410 194 -0.90279251 0.37241611 0.21510901 0.065808058
2447 -1466 184 -0.85702485 -0.40909377 0.31329003 0.0914433
2452 -1413 145 -0.86225629 0.4560551 0.22029026 0.12949181
2446 -1421 238 -0.86274606 0.38689223 0.32555139 0.077857517
2420 -1438 136 -0.99435163 -0.047505513 0.094910726 0.14831977
2458 -1418 256 -0.65975964 0.50531954 0.55620986 0.085939735
2430 -1413 159 -0.88822418 0.31402683 0.33532795 0.071612038
2429 -1436 159 -0.9459762 0.053125463 0.31985417 0.082364678
2455 -1397 208 -0.87160546 0.43403623 0.22785194 0.068370588
2425 -1457 159 -0.91338176 -0.29896927 0.27631712 0.06884899
2443 -1398 159 -0.82730138 0.50551581 0.24500261 0.1022718
2454 -1420 209 -0.93844569 0.31422201 0.14347202 0.060671706
2441 -1436 208 -0.97653371 0.17700015 0.12269064 0.073023036
2454 -1405 197 -0.89527893 0.39206508 0.21156709 0.069423206
2420 -1431 139 -0.97117215 0.076919809 0.22562794 0.12302332
2453 -1418 242 -0.80042243 0.43683711 0.41048416 0.079505563
2461 -1423 196 -0.94681048 0.28545162 0.14855076 0.070896119
2449 -1431 192 -0.96246749 0.17839834 0.20452468 0.065863878
2435 -1454 137 -0.9064281 -0.4212296 0.030882392 0.14896291
2444 -1442 237 -0.92054373 0.27083239 0.2815119 0.092109464
2447 -1459 187 -0.93343705 -0.21457314 0.2874954 0.10198955
2443 -1472 135 -0.72070831 -0.65580654 -0.22471617 0.09836036
2445 -1443 189 -0.96108049 0.074912116 0.26591814 0.086190313
2432 -1423 142 -0.93222749 0.20961033 0.29498389 0.11965922
2435 -1410 145 -0.88381374 0.38275453 0.26902103 0.093675449
2443 -1427 239 -0.86673355 0.39419192 0.30559078 0.079956286
2460 -1393 200 -0.81183052 0.5351547 0.23353924 0.090280823
2465 -1410 245 -0.66978818 0.53371871 0.5162636 0.078063287
2441 -1479 134 -0.69546694 -0.68156898 -0.22757302 0.097314879
2431 -1452 131 -0.91760844 -0.3662301 -0.15450005 0.14698075
2401 -1415 127 -0.91654897 0.37502789 0.13889548 0.12107554
2418 -1416 148 -0.91476083 0.29417294 0.27690244 0.090169504
2434 -1404 149 -0.86401689 0.45230544 0.22112133 0.088450782
2415 -1436 147 -0.95710635 0.011570103 0.28950581 0.11309726
2437 -1471 148 -0.78498805 -0.60889006 0.11422149 0.097009622
2424 -1427 172 -0.93113875 0.19003594 0.3112345 0.058552779
2446 -1373 173 -0.71235204 0.68711215 0.14293876 0.10186964
2436 -1390 173 -0.85074496 0.47623011 0.2223464 0.074539132
2430 -1409 173 -0.89583689 0.33498493 0.29199535 0.055504985
2437 -1457 173 -0.93892777 -0.21132718 0.27157974 0.074495971
2445 -1381 169 -0.7696566 0.6249091 0.13083361 0.092566304
2430 -1466 154 -0.85931295 -0.46445382 0.21415849 0.07106825
2443 -1396 167 -0.84545887 0.48014489 0.233795 0.094914824
2415 -1442 156 -0.93730021 -0.046597384 0.34539396 0.076294765
2421 -1430 159 -0.93415391 0.10363664 0.34149078 0.075487539
2428 -1419 161 -0.90892851 0.25895619 0.32678828 0.068215713
2437 -1408 164 -0.87653393 0.37324527 0.30393481 0.070173003
2431 -1461 164 -0.90260744 -0.34056351 0.26327983 0.064353719
2465 -1391 228 -0.71585095 0.60369122 0.35087642 0.07846684
2441 -1409 175 -0.89107251 0.37684965 0.25293133 0.068711527
2450 -1413 222 -0.89245558 0.41187841 0.18406311 0.05909
2432 -1446 213 -0.98480058 0.17323038 0.012617807 0.093649454
2435 -1420 172 -0.91337287 0.26602915 0.30818605 0.060323227
2434 -1434 169 -0.95002395 0.13772613 0.28015363 0.06755238
2459 -1403 225 -0.82447487 0.50627488 0.25283796 0.077683099
2449 -1427 220 -0.93371212 0.32540411 0.1493113 0.069960952
2438 -1435 216 -0.97324938 0.2141874 0.083122939 0.074452251
2450 -1399 177 -0.87163872 0.44405779 0.20750546 0.09291248
2431 -1447 167 -0.96342313 -0.056487013 0.26196408 0.076859973
2458 -1388 180 -0.73664916 0.64931238 0.1890541 0.11992563
2452 -1406 222 -0.86959726 0.44425055 0.21550408 0.061632842
2432 -1441 221 -0.96881914 0.24649656 0.025075685 0.088084064
2434 -1426 172 -0.9295882 0.21841578 0.29691806 0.059111759
2432 -1448 173 -0.96076941 -0.04311135 0.27397734 0.071489848
2438 -1405 172 -0.8863647 0.37963188 0.26502305 0.066772841
2447 -1386 172 -0.81379658 0.55554354 0.17060634 0.094970204
2451 -1429 222 -0.93596482 0.31213313 0.16291943 0.076111093
2456 -1490 128 -0.56539863 -0.44461223 -0.69472611 0.077823855
2437 -1455 127 -0.84610122 -0.4178929 -0.33087516 0.13878834
2459 -1386 221 -0.78385538 0.55310649 0.28221264 0.079442874
2425 -1440 163 -0.95192188 0.015435708 0.30595174 0.069689393
2443 -1432 213 -0.96834207 0.22658557 0.10475105 0.068348631
2440 -1404 172 -0.87433535 0.41494617 0.25170892 0.077107005
2439 -1418 169 -0.91077155 0.28589684 0.29792318 0.073012166
2418 -1449 160 -0.9346419 -0.16754414 0.31364554 0.066571645
2440 -1445 210 -0.99029815 0.11233615 0.081793435 0.096882939
2456 -1425 216 -0.93075562 0.33115771 0.15501109 0.066025212
2432 -1429 167 -0.94005233 0.16670541 0.29750791 0.064023271
2445 -1418 256 -0.73847264 0.52105147 0.42797607 0.092065953
2451 -1387 211 -0.85989964 0.43896112 0.26054901 0.067752331
2434 -1457 199 -0.96022511 -0.1595709 0.22913939 0.11222806
2433 -1425 204 -0.95804495 0.22433844 0.17838725 0.064725779
2430 -1439 201 -0.97353703 0.12109152 0.19381051 0.085380301
2435 -1394 208 -0.89719528 0.37157544 0.23868853 0.061215706
2463 -1411 259 -0.54587722 0.56777364 0.61615831 0.066374868
2443 -1414 206 -0.92000884 0.34577185 0.18446048 0.057529364
2445 -1483 141 -0.67510724 -0.7280134 -0.11927558 0.10417364
2414 -1435 145 -0.96932352 0.048992638 0.24085598 0.11538654
2445 -1424 200 -0.95331007 0.24225859 0.18030703 0.062220454
2424 -1456 143 -0.91857356 -0.36899424 0.14165415 0.11825624
2429 -1399 153 -0.84523588 0.48839402 0.21690442 0.080555469
2471 -1406 253 -0.5378294 0.5914306 0.60079062 0.063181646
2448 -1411 203 -0.9132973 0.35877088 0.19279927 0.054451779
2461 -1386 159 -0.53634363 0.84146154 0.065405875 0.1493887
2460 -1386 208 -0.78591466 0.55525702 0.27208042 0.087151907
2434 -1449 195 -0.966272 -0.031125426 0.25563565 0.097621419
2424 -1411 150 -0.89442199 0.34024507 0.29024562 0.089701958
2451 -1426 247 -0.80596715 0.43443117 0.40210268 0.083474725
2433 -1433 197 -0.96572787 0.15292059 0.20972599 0.070665948
2443 -1392 204 -0.88466442 0.39805064 0.24274394 0.059930615
2462 -1416 250 -0.671799 0.51338536 0.53396767 0.083132245
2417 -1422 147 -0.9412058 0.18469429 0.28287748 0.099758163
2442 -1391 156 -0.7991907 0.57460564 0.17641592 0.09987662
2469 -1388 242 -0.51670659 0.67786199 0.52298892 0.062058635
2451 -1412 237 -0.82498091 0.44027239 0.35435399 0.072491966
2436 -1437 232 -0.93323243 0.31232795 0.1775628 0.093359493
2460 -1401 239 -0.7242105 0.53495294 0.43513742 0.077387236
2444 -1424 234 -0.88359326 0.3829934 0.26940501 0.075762756
2429 -1451 163 -0.94782889 -0.18246871 0.2613917 0.078471355
2446 -1434 210 -0.97187984 0.21167821 0.10315929 0.070600584
2423 -1424 163 -0.911394 0.20510821 0.35677958 0.064184502
2469 -1417 260 -0.52932566 0.53905219 0.65516192 0.072415285
2450 -1430 259 -0.70452827 0.53387231 0.46756846 0.11350563
2442 -1388 163 -0.79780567 0.58220953 0.15664673 0.093547866
2432 -1449 210 -0.98918837 0.14032878 0.042593159 0.095285416
2431 -1405 163 -0.87237829 0.38394603 0.30255836 0.070382029
2459 -1394 210 -0.82980585 0.50010407 0.24762496 0.079744592
2452 -1413 210 -0.91314596 0.37054938 0.16987538 0.056820001
2434 -1392 156 -0.82527745 0.53208321 0.18922107 0.076376386
2421 -1447 146 -0.93691105 -0.20793624 0.28099856 0.1120492
2442 -1476 145 -0.73261064 -0.68064201 0.0028394959 0.091873191
2419 -1431 148 -0.94184256 0.096791573 0.32181364 0.10450002
2431 -1407 153 -0.87424076 0.39286765 0.28523353 0.083261862
2444 -1382 159 -0.75948459 0.64176399 0.10640547 0.10310466
2428 -1421 151 -0.91682655 0.21033937 0.33939135 0.086691104
2438 -1438 226 -0.95964777 0.25581092 0.11677714 0.088732503
2455 -1400 226 -0.82117617 0.50654888 0.26282677 0.074578568
2448 -1447 178 -0.95833379 -0.0049487343 0.2856077 0.078701846
2465 -1381 225 -0.67596227 0.66211975 0.32353106 0.08290302
2442 -1416 225 -0.89633483 0.40577048 0.17870097 0.064155936
2445 -1374 175 -0.74374044 0.64639854 0.17034945 0.092872567
2436 -1392 175 -0.85742301 0.45877686 0.23312993 0.076302603
2436 -1415 176 -0.9182446 0.27578145 0.28420311 0.058088582
2435 -1426 214 -0.95078999 0.28561619 0.12009054 0.064985707
2432 -1448 215 -0.98383993 0.17486441 -0.038488142 0.098918669
2461 -1393 214 -0.79601651 0.54908943 0.25467351 0.081672601
2454 -1412 215 -0.89022702 0.41345295 0.19118671 0.058914438
2419 -1448 150 -0.93111074 -0.20165023 0.30392408 0.095824808
2443 -1428 246 -0.82884067 0.42991301 0.35804743 0.083112642
2449 -1437 198 -0.97425061 0.13604477 0.17979895 0.082774542
2456 -1418 198 -0.93292093 0.31576902 0.17305624 0.068386309
2432 -1408 150 -0.88128513 0.38476938 0.27438837 0.091793634
2423 -1426 150 -0.92715341 0.14246601 0.34654012 0.093191192
2455 -1394 197 -0.84602612 0.47857946 0.23495011 0.083112031
2432 -1451 197 -0.97467488 -0.010210698 0.2233932 0.10339586
2461 -1414 247 -0.68746281 0.50564617 0.52126467 0.084193811
2423 -1443 130 -0.97960275 -0.19532071 -0.047205824 0.15538335
2456 -1484 131 -0.58027852 -0.49287942 -0.64834154 0.085336626
2434 -1421 165 -0.9138056 0.24600023 0.32317671 0.070717126
2421 -1456 156 -0.90734917 -0.31332546 0.28025812 0.070378684
2440 -1410 168 -0.87662101 0.38387182 0.29013467 0.075040139
2451 -1386 173 -0.81261837 0.55753118 0.16973616 0.098174877
2447 -1398 170 -0.85817868 0.46618444 0.21494529 0.094175711
2436 -1436 162 -0.95265305 0.085057043 0.29192004 0.086040519
2456 -1402 220 -0.85110974 0.47859102 0.21578403 0.066856571
2462 -1421 218 -0.89826608 0.39279276 0.19705798 0.071273081
2454 -1431 215 -0.9549588 0.27040538 0.12220718 0.073100768
2433 -1447 208 -0.98765677 0.13082881 0.086127259 0.090315409
2427 -1445 159 -0.95178932 -0.087038077 0.29414544 0.083135314
2461 -1390 222 -0.77859193 0.56445712 0.27419484 0.07565961
2465 -1437 264 -0.56770033 0.51757258 0.64018357 0.1179183
2440 -1437 212 -0.97739613 0.18939528 0.093947537 0.075392254
2466 -1393 209 -0.74644685 0.61900324 0.24423768 0.099133424
2442 -1398 160 -0.83051705 0.49702519 0.25141093 0.098636098
2449 -1443 199 -0.98284149 0.072906829 0.16943173 0.093555436
2420 -1444 148 -0.94206715 -0.12686136 0.3105087 0.10553874
2427 -1433 151 -0.93467635 0.048109416 0.35222951 0.097319551
2426 -1462 146 -0.87245291 -0.46245152 0.15800156 0.090446346
2441 -1412 157 -0.87877661 0.35158649 0.32270521 0.087005928
2443 -1455 196 -0.97381741 -0.070644431 0.2160764 0.11249165
2450 -1429 201 -0.9601652 0.23353507 0.15344138 0.070519112
2454 -1416 204 -0.9213087 0.35159764 0.16604057 0.062943831
2472 -1412 254 -0.53553194 0.56183857 0.63051003 0.070881255
2458 -1419 251 -0.72362524 0.4832783 0.49275604 0.089479648
2449 -1387 162 -0.7808342 0.60764253 0.14514954 0.10890089
2430 -1421 154 -0.9114812 0.23553258 0.3372333 0.084536113
2456 -1403 206 -0.87658781 0.43084985 0.21438794 0.067716397
2446 -1428 247 -0.81923687 0.41658154 0.39409485 0.086155444
2443 -1448 192 -0.96604049 0.014205366 0.25799981 0.092322581
2466 -1416 251 -0.62180537 0.53487432 0.57207304 0.078892432
2457 -1412 200 -0.90500826 0.38357911 0.18392169 0.068795994
2444 -1405 153 -0.83630586 0.48561689 0.25449708 0.11451394
2449 -1437 195 -0.96929592 0.13370112 0.20637223 0.080159448
2439 -1474 140 -0.72992253 -0.68243837 -0.038612068 0.090200245
2462 -1400 157 -0.71571755 0.67659092 0.1731277 0.15727037
2430 -1411 150 -0.89334816 0.34426603 0.2888079 0.083659641
2439 -1430 243 -0.87350494 0.37425807 0.31131989 0.080177881
2451 -1422 247 -0.80082422 0.42407471 0.42289621 0.081972815
2419 -1447 141 -0.96078849 -0.22040111 0.16825221 0.13712001
2426 -1423 147 -0.92494112 0.19061272 0.32886279 0.099780902
2453 -1424 198 -0.94729763 0.25774229 0.19025283 0.065955214
2420 -1434 144 -0.95635796 0.032638878 0.29036903 0.11696591
2462 -1400 203 -0.83661914 0.50655067 0.20850576 0.089065179
2440 -1460 189 -0.91839677 -0.2556977 0.30193725 0.099111699
2425 -1441 158 -0.94774038 -0.023902692 0.31814608 0.081916951
2453 -1404 207 -0.89364839 0.39865199 0.20608038 0.060578596
2429 -1420 158 -0.9087379 0.25574312 0.32983464 0.073040582
2450 -1426 208 -0.95486289 0.26387933 0.13639861 0.064504191
2456 -1390 159 -0.739676 0.66087621 0.12697278 0.13178565
2455 -1425 255 -0.72455668 0.50535148 0.46865502 0.09935268
2473 -1392 209 -0.69314498 0.68762493 0.21615271 0.11201651
2439 -1403 158 -0.8455025 0.44481421 0.29540801 0.087928265
2435 -1440 207 -0.98206472 0.14216565 0.12384546 0.082811698
2448 -1429 187 -0.95134461 0.20966183 0.22579931 0.063763008
2437 -1425 139 -0.94820344 0.21042027 0.23797801 0.14874572
2445 -1412 189 -0.91763622 0.33370268 0.21583846 0.063071214
2452 -1418 143 -0.91375256 0.37070701 0.16623077 0.16582268
2457 -1388 194 -0.79032218 0.56621498 0.23407568 0.093875408
2450 -1460 182 -0.90557152 -0.28469631 0.31446499 0.096701026
2450 -1477 132 -0.66707075 -0.64584512 -0.37135002 0.089030243
2449 -1474 179 -0.79607552 -0.53103584 0.29028362 0.066705309
2446 -1442 184 -0.95422941 0.081751876 0.28768554 0.079022028
2444 -1396 191 -0.89053464 0.38487688 0.24252394 0.064182393
2437 -1454 134 -0.89976174 -0.4282209 -0.083997287 0.15286118
2421 -1430 136 -0.97951227 0.10024659 0.17466027 0.12612505
2435 -1444 202 -0.9797858 0.10936994 0.16750532 0.086626448
2444 -1401 201 -0.90145379 0.37082711 0.22331214 0.05707971
2478 -1417 253 -0.50184631 0.57222354 0.64862198 0.071836241
2457 -1430 252 -0.74241644 0.51182383 0.43226632 0.09950915
2442 -1423 202 -0.95167583 0.2520119 0.17550814 0.059441309
2451 -1381 201 -0.83048475 0.50114846 0.24319826 0.073720552
2436 -1465 172 -0.87097913 -0.42192146 0.25174937 0.065724537
2432 -1435 220 -0.96748662 0.24788584 0.050222989 0.084374711
2437 -1393 170 -0.85089201 0.48576212 0.20004505 0.078785479
2434 -1440 171 -0.95973569 0.071857266 0.27155843 0.067869015
2449 -1397 219 -0.86675221 0.45501289 0.2042155 0.057313882
2459 -1382 171 -0.56730479 0.81582081 0.11225797 0.1305972
2447 -1420 220 -0.91617805 0.36684832 0.16136919 0.061178338
2426 -1411 170 -0.89783323 0.31915566 0.3033731 0.052702188
2428 -1426 158 -0.92503738 0.15897329 0.34501195 0.077187791
2443 -1408 206 -0.91286033 0.35617667 0.19955993 0.055731848
2431 -1447 205 -0.98845166 0.11054838 0.10364567 0.092185721
2439 -1429 206 -0.96455044 0.21710189 0.15003105 0.069703005
2429 -1450 159 -0.94595039 -0.1795052 0.27010328 0.083838902
2442 -1412 159 -0.87501293 0.37230322 0.30942327 0.089164987
2451 -1394 160 -0.80516124 0.56043893 0.19396813 0.11634861
2456 -1392 206 -0.83991724 0.48981085 0.23371868 0.080543354
2428 -1445 167 -0.96052361 -0.012719313 0.27790764 0.074030191
2431 -1445 214 -0.98365206 0.17938045 0.015855458 0.093210652
2436 -1464 164 -0.87996554 -0.40801337 0.24328092 0.0710233
2448 -1412 175 -0.89618528 0.37008405 0.24472366 0.080697395
2435 -1435 170 -0.95224017 0.13354939 0.27459639 0.068408266
2436 -1421 172 -0.9165833 0.25511679 0.30788058 0.064598471
2451 -1399 178 -0.86275369 0.4559457 0.21856251 0.09579476
2472 -1394 229 -0.61602527 0.6678071 0.41778764 0.089233421
2459 -1388 181 -0.71154767 0.67603481 0.191512 0.12605715
2439 -1436 217 -0.97422242 0.21078421 0.080378644 0.075313732
2462 -1404 226 -0.78918618 0.52944744 0.31124035 0.080112599
2456 -1416 223 -0.88167953 0.41753533 0.21978523 0.06554921
2449 -1427 220 -0.93371212 0.32540411 0.1493113 0.069960952
2424 -1423 162 -0.91470039 0.22403587 0.3363497 0.067352802
2447 -1409 211 -0.9079954 0.38023698 0.17596634 0.055225864
2440 -1385 162 -0.78419727 0.61023194 0.11247928 0.093521602
2428 -1447 212 -0.9889549 0.14819807 0.0023525099 0.098186903
2450 -1387 211 -0.86102247 0.43666929 0.2606917 0.068650849
2427 -1401 161 -0.86356878 0.41298738 0.28929293 0.070492491
2422 -1446 162 -0.94973379 -0.06470681 0.30629838 0.071838289
2461 -1434 259 -0.63951284 0.55293715 0.53411973 0.11754416
2440 -1429 212 -0.96716619 0.22315654 0.12161761 0.068966545
2418 -1422 138 -0.95999837 0.20386682 0.19194095 0.12074598
2466 -1413 231 -0.7820847 0.48741513 0.38829112 0.082952417
2451 -1385 183 -0.80128586 0.55409211 0.22566135 0.096493445
2446 -1429 184 -0.94612759 0.2127178 0.24411841 0.069610685
2409 -1440 137 -0.98022068 -0.072939247 0.18397634 0.12264799
2451 -1428 231 -0.8877421 0.37924075 0.26094154 0.079463735
2443 -1447 231 -0.95676947 0.22605516 0.18300655 0.10122267
2442 -1484 140 -0.71255505 -0.68497324 -0.15191109 0.093141116
2466 -1389 230 -0.68215334 0.61846912 0.39008048 0.079680935
2452 -1457 185 -0.94600946 -0.19556411 0.25849706 0.10709658
2442 -1403 183 -0.89645576 0.36394215 0.25281024 0.062945507
2422 -1427 125 -0.98622453 0.16184983 -0.034145027 0.16518721
2445 -1408 131 -0.80294961 0.58845115 -0.094853714 0.14103054
2432 -1417 128 -0.93377727 0.35659701 -0.029975586 0.14528872
2411 -1437 122 -0.99573344 -0.030757913 -0.086999245 0.18160924
2451 -1466 167 -0.82215792 -0.49882564 0.27427965 0.080036685
2445 -1417 173 -0.90837032 0.31506163 0.27495372 0.075932764
2423 -1422 123 -0.96728152 0.24131823 -0.078307353 0.1640192
2451 -1389 178 -0.8079769 0.54970711 0.21212122 0.09856125
2454 -1438 172 -0.95099562 0.16809805 0.25951967 0.094725005
2419 -1435 120 -0.97331208 -0.035460267 -0.22672911 0.18792507
2432 -1412 126 -0.87853944 0.47279495 -0.068068549 0.12573475
2447 -1403 176 -0.88774455 0.40680799 0.21544576 0.082436956
2427 -1454 118 -0.79031765 -0.36328503 -0.49337831 0.1146106
2460 -1406 197 -0.88192374 0.42934519 0.19461057 0.086679675
2438 -1395 146 -0.80982351 0.57903725 0.094349205 0.088804126
2464 -1393 199 -0.75651878 0.61298633 0.22787522 0.10748772
2451 -1387 149 -0.73367828 0.67946476 -0.0066185854 0.13056864
2455 -1418 194 -0.93400264 0.3084774 0.18022403 0.068705156
2457 -1421 204 -0.94207782 0.30650681 0.13617226 0.066109538
2456 -1405 206 -0.88633478 0.41763082 0.19998789 0.069233201
2421 -1429 148 -0.93322688 0.11259644 0.34118855 0.099324718
2436 -1468 143 -0.80240715 -0.59113193 0.081889451 0.095561214
2445 -1382 158 -0.74325854 0.66501999 0.072906092 0.10438377
2460 -1375 210 -0.71908396 0.63635802 0.27922508 0.089472704
2435 -1424 200 -0.95185161 0.23469849 0.19721846 0.062464021
2411 -1438 145 -0.96587038 0.008415876 0.25888893 0.11008252
2427 -1418 150 -0.91085422 0.24377592 0.33304346 0.090427428
2433 -1438 197 -0.97035694 0.12120029 0.20908831 0.078978546
2429 -1404 153 -0.86414146 0.42201528 0.274158 0.076121561
2436 -1392 155 -0.81636161 0.54882157 0.17985754 0.079409413
2451 -1386 207 -0.85934275 0.45005834 0.24285302 0.069696724
2444 -1428 202 -0.95886052 0.22114854 0.17798808 0.066672824
2456 -1391 163 -0.73980713 0.65158784 0.16768634 0.13177037
2424 -1433 151 -0.93660361 0.040961038 0.34798813 0.098495275
2462 -1393 210 -0.80045372 0.53933573 0.26151621 0.082224846
2452 -1418 205 -0.93509817 0.31454104 0.16326469 0.062334072
2438 -1426 155 -0.91955018 0.1807754 0.34892383 0.095308907
2457 -1405 207 -0.88227659 0.42962018 0.19239156 0.067044385
2448 -1402 160 -0.8412782 0.47963896 0.24939428 0.10659665
2445 -1474 147 -0.72011513 -0.69235486 0.045595668 0.097915024
2429 -1450 149 -0.93664366 -0.2418116 0.2534281 0.10417567
2445 -1415 158 -0.88193941 0.3492116 0.31659779 0.096429735
2442 -1442 199 -0.9758684 0.075303145 0.20496424 0.091422118
2454 -1374 165 -0.6283806 0.772596 0.090737276 0.11586744
2465 -1379 212 -0.70126969 0.659881 0.26977372 0.098383665
2413 -1426 135 -0.97502637 0.16008922 0.15393178 0.13251719
2460 -1395 232 -0.7364831 0.5833227 0.3425307 0.083169647
2436 -1428 231 -0.90818769 0.38100079 0.17330192 0.077660188
2445 -1461 185 -0.90737051 -0.28956899 0.30467778 0.099286616
2449 -1440 185 -0.95332128 0.1106085 0.28097004 0.078420691
2437 -1463 136 -0.83511478 -0.54695076 -0.058550656 0.11823799
2448 -1416 185 -0.92381227 0.31119999 0.22299197 0.069518164
2430 -1413 135 -0.90885568 0.40241441 0.10974477 0.10971188
2451 -1414 231 -0.86282027 0.42258015 0.27742982 0.068933405
2454 -1397 185 -0.86970788 0.44302341 0.21757425 0.089103088
2446 -1434 183 -0.94493741 0.19365843 0.26379839 0.071115814
2453 -1414 183 -0.91756105 0.33059582 0.22088036 0.082288563
2456 -1410 232 -0.81856066 0.46652022 0.33513787 0.076302119
2447 -1416 137 -0.8840552 0.46496049 -0.047520909 0.1630387
2463 -1390 232 -0.69378257 0.6134727 0.37724909 0.080496274
2445 -1457 184 -0.93441039 -0.19085057 0.30075434 0.091387004
2433 -1454 137 -0.91374516 -0.40409446 0.042158898 0.14582428
2420 -1423 136 -0.9628194 0.19719909 0.18463831 0.12008107
2453 -1391 183 -0.82335985 0.52233893 0.22190195 0.090831615
2443 -1426 232 -0.90217501 0.36156738 0.23526433 0.075304411
2431 -1442 160 -0.95678049 -0.030077713 0.28925163 0.0828771
2436 -1430 163 -0.94165659 0.15324201 0.29966623 0.079881944
2442 -1448 207 -0.99316865 0.027042523 0.11351106 0.096991539
2467 -1388 221 -0.72767389 0.62418979 0.28439024 0.087939084
2457 -1382 173 -0.58841681 0.7994647 0.12092105 0.12805115
2463 -1401 218 -0.82448322 0.51880401 0.22598627 0.075718269
2425 -1452 157 -0.93189853 -0.23680505 0.27475172 0.078908145
2442 -1404 168 -0.86584526 0.42650285 0.26154804 0.083860755
2450 -1394 171 -0.84123945 0.50136268 0.20236476 0.10250646
2457 -1413 215 -0.88752812 0.42231777 0.18423253 0.061171383
2458 -1428 213 -0.94396412 0.30278856 0.13134217 0.069162332
2449 -1438 210 -0.98207062 0.16125385 0.097645044 0.080411807
2439 -1417 165 -0.90290809 0.29926702 0.30853876 0.075014472
2408 -1433 127 -0.99915648 0.025363395 0.032297246 0.16274461
2426 -1404 124 -0.78684551 0.59352857 -0.1691093 0.11098577
2413 -1417 125 -0.93343145 0.3573513 0.031715035 0.15867902
2432 -1468 131 -0.7947641 -0.57224721 -0.20219581 0.088146254
2423 -1415 136 -0.93230563 0.32969564 0.14868458 0.11077693
2433 -1463 136 -0.84846205 -0.52156311 -0.08991126 0.11750042
2413 -1430 135 -0.97774428 0.10391328 0.18225838 0.12776914
2438 -1402 138 -0.81671643 0.57692325 0.011571535 0.099891394
2460 -1411 209 -0.8869012 0.4254441 0.18001017 0.068039492
2470 -1412 257 -0.52166653 0.57232487 0.63269919 0.067531221
2454 -1427 257 -0.69166309 0.5268389 0.49400708 0.10142778
2452 -1430 209 -0.95977175 0.25442228 0.11877476 0.069974825
2432 -1448 160 -0.9501062 -0.14612848 0.2755807 0.084680498
2447 -1387 160 -0.76691514 0.63074517 0.11832876 0.10975377
2433 -1441 208 -0.98429024 0.14201058 0.10490766 0.084402844
2439 -1405 160 -0.85506284 0.41879225 0.30574611 0.083238415
2431 -1424 159 -0.9215641 0.18141535 0.34323192 0.076324813
2437 -1418 148 -0.90570259 0.28075951 0.31761122 0.11117192
2448 -1484 138 -0.66459805 -0.70367634 -0.25129449 0.098657154
2449 -1424 195 -0.9496178 0.24481247 0.19568571 0.061618824
2449 -1468 188 -0.84829563 -0.43124661 0.30727968 0.10452312
2430 -1430 145 -0.93971884 0.068060778 0.33510622 0.11885
2448 -1453 190 -0.95625728 -0.11267418 0.26995641 0.10399991
2421 -1439 142 -0.96383089 -0.05854943 0.26000395 0.13078392
2451 -1410 197 -0.90682501 0.36622694 0.20867729 0.057668932
2433 -1461 140 -0.87732077 -0.47707841 0.052004561 0.12588856
2445 -1408 150 -0.84890175 0.46765351 0.24630453 0.11855859
2448 -1439 193 -0.96957159 0.10485083 0.22121738 0.083039947
2451 -1395 200 -0.88084668 0.41522771 0.22736554 0.064997561
2454 -1398 153 -0.77303433 0.61819011 0.14233401 0.14256132
2429 -1428 153 -0.92677343 0.13208076 0.35163304 0.091494069
2457 -1430 204 -0.96034014 0.25682342 0.10857522 0.070785753
2441 -1406 159 -0.85218447 0.41470855 0.31905875 0.08452706
2466 -1390 211 -0.76153433 0.59602433 0.25459868 0.092029072
2456 -1385 164 -0.67261982 0.73510653 0.084858954 0.12877579
2460 -1417 206 -0.91240609 0.38450208 0.14026117 0.068312451
2449 -1440 201 -0.98270965 0.10388308 0.1532646 0.085721411
2449 -1396 161 -0.8178851 0.53413141 0.21393359 0.10950716
2433 -1416 156 -0.89306319 0.29595277 0.33889535 0.07990548
2447 -1453 198 -0.97198319 -0.086791456 0.21843971 0.11002947
2454 -1427 253 -0.74423033 0.49931714 0.44362554 0.096694335
2423 -1439 150 -0.94182718 -0.041254051 0.33355626 0.10248048
2464 -1418 256 -0.5921331 0.52472687 0.61158812 0.082554609
2427 -1456 148 -0.91186935 -0.35225838 0.21073298 0.10646135
2461 -1402 209 -0.85329068 0.467866 0.23020945 0.073868573
2447 -1382 155 -0.73693383 0.67378688 0.054219723 0.11174779
2450 -1422 201 -0.95110047 0.25286284 0.17739271 0.061762769
2441 -1402 155 -0.83400148 0.47473189 0.281196 0.091435134
2463 -1401 248 -0.60892165 0.57611394 0.54525882 0.068164378
2456 -1402 201 -0.8874135 0.41317004 0.20442078 0.0694042
2435 -1422 155 -0.91059929 0.20849858 0.35684341 0.095549554
2452 -1419 248 -0.78051794 0.44435108 0.43970886 0.084179819
2438 -1439 201 -0.97632045 0.13870578 0.16600919 0.077980831
2415 -1434 155 -0.93126017 0.060876261 0.35923347 0.082334578
2459 -1428 195 -0.9602347 0.23349312 0.1530695 0.071225733
2452 -1481 137 -0.67527038 -0.66732192 -0.31415182 0.097415186
2438 -1401 150 -0.83488482 0.50029159 0.2295119 0.085338846
2468 -1402 250 -0.56701767 0.60078365 0.5635156 0.065855518
2460 -1412 247 -0.69803917 0.50821412 0.50444001 0.08061935
2432 -1412 147 -0.89042526 0.36184096 0.2760689 0.09525463
2438 -1429 240 -0.87883711 0.36449167 0.30788177 0.084462367
2426 -1423 144 -0.93588281 0.19300114 0.2947439 0.11138351
2461 -1398 200 -0.82853985 0.51108676 0.2287185 0.090584137
2442 -1446 189 -0.96103889 0.041056417 0.27334714 0.086282052
2457 -1382 155 -0.61959773 0.78488737 0.0071029789 0.14787842
2447 -1391 153 -0.76738304 0.63518113 0.087567523 0.11664799
2420 -1434 141 -0.97261977 0.037627429 0.22933583 0.12254359
2444 -1462 186 -0.89924562 -0.32110482 0.29706725 0.10045668
2446 -1419 243 -0.81785429 0.41616753 0.39739022 0.073106535
2431 -1454 139 -0.92054945 -0.37231588 0.1181925 0.13307059
2457 -1411 197 -0.9020679 0.38775861 0.18951681 0.072724774
2448 -1436 192 -0.96518677 0.13214953 0.22572342 0.077081233
2440 -1456 128 -0.80628973 -0.44589406 -0.38868397 0.1375732
2459 -1482 127 -0.54673207 -0.44282821 -0.71062452 0.081727341
2447 -1461 178 -0.89660174 -0.3260403 0.29967156 0.081352882
2443 -1429 183 -0.9435479 0.20812097 0.25768784 0.060629051
2443 -1413 185 -0.91193843 0.33142748 0.24191776 0.061103683
2462 -1406 234 -0.7561487 0.51706368 0.40110382 0.081021436
2443 -1398 187 -0.88939899 0.38344893 0.24887019 0.065549694
2444 -1413 136 -0.87104166 0.48923209 -0.044027716 0.1490055
2446 -1446 180 -0.95860624 0.0060880305 0.28467003 0.081386529
2472 -1396 237 -0.5575251 0.67503935 0.48320568 0.079300031
2452 -1416 231 -0.86003923 0.41905946 0.29106998 0.070688009
2431 -1421 133 -0.95692092 0.27978772 0.077595457 0.14372654
2436 -1437 225 -0.95636553 0.2782276 0.089187905 0.086593568
2443 -1426 228 -0.91629326 0.35550037 0.18446186 0.073070355
2414 -1425 130 -0.97827685 0.17164056 0.11625002 0.140121
2435 -1477 139 -0.75711977 -0.64562857 -0.099666424 0.075567566
2411 -1425 133 -0.97608978 0.14985643 0.15745409 0.13076076
2431 -1418 132 -0.94241011 0.33108082 0.047419824 0.1321176
2425 -1452 136 -0.94040722 -0.33963418 0.016820146 0.13494264
2429 -1442 164 -0.9548977 0.010438332 0.29675141 0.071760811
2433 -1414 169 -0.8976441 0.31861699 0.30449665 0.058386233
2443 -1405 172 -0.87841308 0.40870419 0.24769224 0.078877784
2432 -1429 166 -0.93954879 0.16327834 0.30097884 0.065395825
2435 -1461 162 -0.89209366 -0.37495029 0.25215301 0.07384149
2453 -1379 176 -0.67830968 0.72080582 0.14260079 0.10401478
2448 -1392 174 -0.83884776 0.50911099 0.19271867 0.09793587
2431 -1442 216 -0.97674143 0.21409899 0.01174147 0.089313418
2439 -1406 168 -0.87386853 0.40044975 0.27566981 0.0735147
2462 -1390 217 -0.77118289 0.58155483 0.25898057 0.083730973
2452 -1407 217 -0.87933832 0.43215814 0.20000856 0.058602337
2447 -1428 217 -0.94704413 0.30002704 0.11441652 0.070174307
2438 -1429 168 -0.93922818 0.18811749 0.28716221 0.06968163
2435 -1451 168 -0.95883322 -0.12799132 0.25348988 0.078217454
2455 -1393 168 -0.77483463 0.6049633 0.18344143 0.12727728
2416 -1443 133 -0.98537892 -0.16819656 0.027173612 0.14711179
2451 -1479 133 -0.67270869 -0.63328922 -0.38263267 0.09029147
2451 -1462 182 -0.89729154 -0.30625534 0.31792378 0.099047959
2427 -1435 137 -0.98488951 -0.022946429 0.17165701 0.14819075
2448 -1430 187 -0.95118803 0.21372993 0.22262281 0.066448286
2454 -1406 146 -0.81737065 0.56327975 0.12091794 0.13885018
2427 -1420 139 -0.94049901 0.26103187 0.21754082 0.12295697
2447 -1415 189 -0.92998266 0.29506913 0.21924058 0.065116562
2449 -1400 192 -0.89132947 0.39140016 0.22877446 0.06799496
2447 -1445 185 -0.95752949 0.04709468 0.28446338 0.084413119
2441 -1413 142 -0.88613516 0.40153134 0.23138098 0.12219618
2440 -1462 196 -0.92120302 -0.2840611 0.26588398 0.12119835
2435 -1473 144 -0.77408445 -0.63007581 0.061626036 0.084074482
2429 -1442 149 -0.94702345 -0.14695928 0.28556886 0.10657245
2436 -1445 199 -0.97621572 0.080735289 0.20120801 0.091298014
2423 -1452 146 -0.92870873 -0.28747031 0.23422375 0.11136702
2430 -1428 152 -0.9236443 0.12933017 0.36076996 0.091827273
2466 -1418 256 -0.58161944 0.52377915 0.62239403 0.080058761
2438 -1419 155 -0.90146464 0.26455331 0.34259751 0.094538733
2462 -1388 164 -0.58566773 0.80446929 0.099107996 0.14485875
2452 -1397 161 -0.81885272 0.53311723 0.21275851 0.117925
2455 -1427 205 -0.95831585 0.25526208 0.12834384 0.066468559
2443 -1407 158 -0.84506404 0.42048395 0.33024243 0.090865143
2462 -1416 208 -0.89596921 0.41618785 0.15500602 0.069874644
2440 -1432 202 -0.96332192 0.20047665 0.17838177 0.068320125
2455 -1397 210 -0.86786401 0.44394949 0.22298172 0.069149792
2453 -1425 252 -0.75094706 0.50268507 0.42823625 0.097055107
2421 -1433 143 -0.95911151 0.041589767 0.27995616 0.11705343
2432 -1428 238 -0.89141673 0.37298766 0.25740337 0.077385344
2430 -1461 144 -0.88412869 -0.44717136 0.13547747 0.097622529
2465 -1401 240 -0.65624219 0.58122241 0.4811722 0.075048618
2441 -1438 192 -0.9642427 0.1313026 0.23020779 0.075018525
2438 -1460 193 -0.9210974 -0.26557401 0.28469285 0.11327868
2451 -1416 239 -0.81231117 0.44630608 0.37544844 0.0755511
2431 -1416 143 -0.91891354 0.29803771 0.2584019 0.11134007
2446 -1417 192 -0.93545312 0.2808747 0.21456207 0.062752672
2456 -1400 193 -0.87605828 0.43187064 0.21449858 0.079107024
2404 -1433 126 -0.99546903 0.002099107 0.095063105 0.15136948
2446 -1479 130 -0.65361607 -0.60499102 -0.45472181 0.083724126
2433 -1447 166 -0.96224874 -0.052765474 0.26700777 0.077992648
2454 -1400 177 -0.86325711 0.45982334 0.20820586 0.10099675
2426 -1457 163 -0.91314554 -0.2993899 0.2766422 0.067815192
2454 -1429 219 -0.94015706 0.30881193 0.14401373 0.071838722
2458 -1401 224 -0.82106 0.51526958 0.24567825 0.073296316
2439 -1436 169 -0.95652807 0.12307213 0.26439986 0.076484725
2446 -1439 216 -0.97570407 0.20500797 0.0772871 0.07804618
2455 -1415 222 -0.88265216 0.42504638 0.20065086 0.064105652
2433 -1446 213 -0.98453647 0.17473388 0.012492969 0.092686944
2448 -1412 174 -0.89607507 0.36908406 0.24663018 0.084185928
2442 -1423 171 -0.92228782 0.26025748 0.28574687 0.071126394
2403 -1432 133 -0.98961234 0.010908886 0.14334717 0.13658707
2428 -1466 137 -0.84031457 -0.54206508 0.0060781706 0.091901399
