# .PCD v0.7 - Point Cloud Data file format
VERSION 0.7
FIELDS x y z normal_x normal_y normal_z curvature
SIZE 4 4 4 4 4 4 4
TYPE F F F F F F F
COUNT 1 1 1 1 1 1 1
WIDTH 792
HEIGHT 1
VIEWPOINT 0 0 0 1 0 0 0
POINTS 792
DATA ascii
2654 -1028 35 -0.91386336 0.2242551 -0.33847234 0.087527923
2645 -1020 83 -0.9343977 0.34394595 -0.092747487 0.084121257
2647 -1061 33 -0.89220029 -0.15697543 -0.42348239 0.11907703
2661 -1051 173 -0.88617235 0.022213282 0.46282303 0.1223809
2634 -1062 125 -0.99282217 0.062479716 0.10198194 0.13757053
2630 -1050 81 -0.96983606 0.22138898 -0.10200495 0.098044917
2650 -1044 34 -0.92588985 0.095234439 -0.36559319 0.091890045
2655 -1012 173 -0.60138857 0.7394774 0.30249798 0.1585321
2648 -1032 127 -0.86849934 0.47063869 0.15558986 0.11677124
2665 -1035 173 -0.83990324 0.31680328 0.44067928 0.14816366
2660 -1017 -11 -0.75518435 0.24665923 -0.60733509 0.10616143
2646 -1041 32 -0.92160052 0.14450629 -0.36023641 0.084891282
2650 -1021 170 -0.68927598 0.64700979 0.32600132 0.14485827
2649 -1041 171 -0.89024371 0.19973077 0.40935764 0.14772928
2632 -1041 125 -0.94407189 0.29803175 0.14108609 0.10183527
2645 -1014 77 -0.91891891 0.38384163 -0.090849772 0.084470399
2645 -1021 32 -0.90017992 0.24650379 -0.35904327 0.079957664
2628 -1019 124 -0.90046346 0.41523179 0.12941431 0.1083346
2631 -1061 125 -0.98693317 0.12741141 0.098637253 0.13001172
2646 -1035 77 -0.96189165 0.24940339 -0.11208181 0.09450531
2656 -1036 -11 -0.79901338 0.12652068 -0.58785218 0.11042471
2628 -1055 112 -0.99013186 0.13886917 -0.018820345 0.11927405
2639 -1019 111 -0.88613856 0.4626177 0.027262295 0.093458302
2649 -1034 160 -0.82413208 0.38604808 0.41445521 0.12447603
2627 -1041 66 -0.96486235 0.23299406 -0.12146793 0.083064325
2647 -1028 66 -0.94279617 0.29550016 -0.15432145 0.08854752
2655 -1016 159 -0.69392055 0.62691861 0.35418546 0.14061897
2649 -1019 22 -0.88431513 0.23915061 -0.40099084 0.077700287
2643 -1053 160 -0.86454731 0.13994078 0.4826743 0.109655
2652 -1009 66 -0.86828655 0.47353706 -0.14778742 0.092164047
2646 -1038 22 -0.90354514 0.16119182 -0.39701813 0.08251442
2639 -1039 112 -0.92781097 0.37202191 0.027685486 0.10754986
2681 -1050 194 -0.82687092 0.014921721 0.56219363 0.18386693
2669 -1031 147 -0.73983675 0.53557098 0.40719193 0.13015497
2648 -1016 54 -0.89692545 0.39803904 -0.19258666 0.087348469
2636 -1025 101 -0.91433281 0.40363771 -0.032743178 0.089230016
2691 -1035 194 -0.63126016 0.46663162 0.61948812 0.20390417
2640 -1045 100 -0.9624365 0.25848031 -0.083089419 0.10387122
2643 -1056 145 -0.88239199 0.23668942 0.40664795 0.10960641
2639 -1047 52 -0.96784908 0.11852389 -0.22185649 0.10335818
2631 -1059 99 -0.98770154 0.12567435 -0.093014158 0.11643898
2657 -1044 146 -0.85741812 0.30870125 0.41174951 0.11020809
2649 -1034 53 -0.94171232 0.25736123 -0.21666342 0.10200984
2658 -1041 148 -0.85184628 0.31714898 0.41686255 0.10216801
2684 -1049 199 -0.81617516 -0.0027308441 0.57779807 0.17063828
2689 -1032 199 -0.73921686 0.28901947 0.60829782 0.1977073
2666 -1026 149 -0.75350386 0.51097995 0.41368043 0.11683983
2639 -1051 146 -0.87768406 0.2837638 0.38619795 0.10498815
2667 -1045 -13 -0.72784889 0.035181485 -0.68483448 0.1382686
2646 -1030 31 -0.90858287 0.18908492 -0.37245691 0.083226919
2663 -1057 31 -0.89686799 -0.17682076 -0.40541592 0.1370056
2631 -1030 123 -0.91439456 0.38231683 0.13310288 0.10173645
2624 -1033 78 -0.9584254 0.26700723 -0.10063788 0.081342116
2617 -1044 123 -0.98356366 0.16224188 0.079247482 0.10618593
2668 -1026 -13 -0.71320754 0.17339061 -0.67916918 0.11859404
2664 -1009 78 -0.8897444 0.44830394 -0.085898302 0.11499765
2679 -1010 -13 -0.58034259 0.33723712 -0.74126494 0.11691204
2648 -1011 31 -0.89738476 0.2628727 -0.3543987 0.080712698
2636 -1012 123 -0.82761723 0.54453319 0.13613737 0.11211549
2644 -1021 78 -0.93808591 0.33065245 -0.10326593 0.086510763
2620 -1041 126 -0.96954161 0.21101207 0.12435014 0.1071092
2667 -1022 -9 -0.74779689 0.21451029 -0.62831932 0.11244021
2644 -1012 127 -0.81740439 0.54963595 0.17248271 0.10661743
2642 -1006 35 -0.89494878 0.31590122 -0.31507644 0.083614811
2646 -1027 34 -0.91035265 0.23211703 -0.34260738 0.086673364
2636 -1028 127 -0.88842881 0.42961916 0.16162185 0.10743335
2648 -1019 82 -0.93152714 0.3526153 -0.088992432 0.083892055
2628 -1031 81 -0.95078909 0.29013881 -0.10871767 0.080942206
2646 -1000 82 -0.91723168 0.38598177 -0.09850882 0.10112924
2671 -1005 -9 -0.66630453 0.35412177 -0.6562286 0.11791079
2642 -1030 151 -0.85833734 0.40157738 0.31936282 0.12045815
2663 -1040 13 -0.8447929 0.074000366 -0.52995181 0.1055445
2661 -1017 151 -0.71965617 0.5735904 0.39126581 0.1052861
2632 -1032 105 -0.93574017 0.35171449 -0.026214702 0.088392906
2648 -1027 58 -0.9328782 0.30909845 -0.18492299 0.09757401
2642 -1005 57 -0.89130712 0.42512241 -0.15761511 0.081625737
2664 -1020 13 -0.81924605 0.23780477 -0.52180928 0.098385617
2633 -1013 104 -0.8727088 0.48749572 -0.026968662 0.092713103
2669 -1001 12 -0.78161293 0.35861188 -0.51037121 0.12583849
2635 -1048 111 -0.95524651 0.29579371 0.0031766368 0.11276405
2663 -1017 20 -0.85625994 0.267079 -0.44213992 0.097146802
2669 -1019 159 -0.67702115 0.59662592 0.43090597 0.10977058
2647 -1016 112 -0.85553324 0.51531541 0.050129045 0.10466158
2651 -1030 158 -0.80562198 0.44359371 0.39268035 0.131301
2644 -1041 64 -0.96201885 0.22349891 -0.15674186 0.094732933
2657 -1051 19 -0.88674158 -0.054484487 -0.45904323 0.10845333
2646 -1034 112 -0.90829337 0.41544089 0.049111839 0.10656878
2649 -1024 65 -0.93255407 0.32633907 -0.15442042 0.094234593
2645 -1047 157 -0.86940855 0.24005963 0.43185657 0.11724799
2659 -1034 19 -0.88378447 0.15419362 -0.44175717 0.091748767
2668 -1046 210 -0.85257185 -0.45749858 0.25261888 0.20076561
2679 -1069 211 -0.77162385 -0.43351164 0.46547219 0.15542349
2646 -1033 45 -0.92959249 0.25277776 -0.2682561 0.088423841
2662 -1025 -2 -0.80320615 0.16001587 -0.57380736 0.098064192
2645 -1042 90 -0.96708578 0.23004566 -0.10873881 0.10488831
2665 -1009 89 -0.91598195 0.39982492 -0.033423435 0.11936166
2666 -1006 -2 -0.74324608 0.3222231 -0.58630848 0.11965593
2676 -1061 186 -0.85313022 -0.096968248 0.5126071 0.1384387
2656 -1020 135 -0.79794019 0.53575385 0.27615076 0.11131214
2641 -1056 136 -0.93115503 0.22125503 0.28982142 0.13378367
2650 -1014 45 -0.89229608 0.38182047 -0.24087521 0.087048881
2641 -1035 135 -0.88786614 0.37926194 0.26048839 0.10265668
2651 -1024 89 -0.92613012 0.37457991 -0.044418756 0.098807476
2674 -1054 192 -0.84959149 -0.085589707 0.52045047 0.15452968
2646 -1046 144 -0.8708567 0.33252886 0.36198506 0.10311905
2639 -1036 52 -0.94409162 0.25147951 -0.21318801 0.092490122
2638 -1051 99 -0.97800422 0.18509795 -0.096159056 0.11636538
2649 -1037 100 -0.92255408 0.38467401 -0.030329054 0.10818446
2682 -1039 193 -0.79414868 0.21538348 0.56827617 0.20039058
2644 -1017 101 -0.88020998 0.47457543 -0.0029338286 0.097827822
2674 -1021 147 -0.57967693 0.72456449 0.37280157 0.14452553
2663 -1035 146 -0.81608826 0.42629704 0.39021885 0.11755105
2652 -1024 53 -0.89931983 0.37193802 -0.22996962 0.092361189
2652 -1006 53 -0.88045669 0.43220136 -0.19493085 0.097388901
2650 -1049 16 -0.88609862 0.026068274 -0.46276313 0.11140381
2637 -1022 108 -0.899863 0.43615326 -0.004095736 0.095309138
2643 -1038 63 -0.95616591 0.23820399 -0.1703105 0.093184315
2643 -1018 62 -0.90781587 0.38702601 -0.16149659 0.084786147
2652 -1011 15 -0.87113523 0.24260283 -0.42692775 0.08560992
2650 -1030 15 -0.87806368 0.17694138 -0.44463009 0.083370335
2637 -1061 109 -0.99818957 -0.023895999 -0.05519563 0.13868031
2636 -1041 108 -0.94356889 0.33109948 -0.0071346895 0.10457516
2628 -1041 119 -0.96992248 0.23517361 0.062798813 0.10185716
2636 -1023 119 -0.88845599 0.45140633 0.082935639 0.10098974
2650 -1008 118 -0.81088352 0.57779372 0.092856482 0.11044532
2649 -1044 169 -0.90451068 0.090314858 0.41677767 0.13667049
2667 -1029 168 -0.75025952 0.49060363 0.44319156 0.13032714
2657 -997 85 -0.9366464 0.33402056 -0.10546944 0.11039265
2651 -1006 133 -0.71222341 0.6521982 0.25956786 0.12186027
2659 -1004 40 -0.87089509 0.41123095 -0.26912993 0.094182022
2681 -1003 -3 -0.6267367 0.37402168 -0.68359989 0.13422921
2653 -1022 41 -0.91509074 0.28985161 -0.28034797 0.087299608
2644 -1024 133 -0.86573976 0.44645181 0.22621997 0.10451041
2654 -1016 86 -0.89793128 0.43797264 -0.043581337 0.097914986
2630 -1039 133 -0.92299223 0.32854974 0.20035045 0.11389826
2644 -1032 86 -0.95088547 0.29267368 -0.10079181 0.096968435
2667 -1001 3 -0.76804739 0.33514091 -0.54569578 0.12734759
2645 -1003 50 -0.88396734 0.42865738 -0.18669391 0.085851841
2653 -1049 98 -0.97527581 0.19317405 -0.10733511 0.13023517
2635 -1018 51 -0.91531163 0.34727475 -0.20397279 0.07579565
2684 -1027 4 -0.69838417 0.25405598 -0.66911507 0.14611501
2641 -1025 97 -0.91658354 0.39863878 -0.031011712 0.090179637
2641 -1007 96 -0.89360482 0.44757137 -0.033917446 0.089802317
2682 -1026 -4 -0.68049151 0.25901464 -0.68545067 0.13449039
2658 -1010 40 -0.88713062 0.36782369 -0.27875614 0.093822971
2636 -1033 87 -0.95198613 0.29444125 -0.083826244 0.087689102
2649 -1011 133 -0.742158 0.62130862 0.2513504 0.11298297
2653 -1028 40 -0.92586797 0.24127117 -0.29078639 0.08762525
2652 -1019 87 -0.90830958 0.41577539 -0.045875076 0.095275439
2691 -1010 -4 -0.5714888 0.33809906 -0.74772286 0.1418712
2636 -1026 133 -0.88472307 0.409863 0.22198527 0.10400625
2625 -1042 132 -0.9462415 0.26044402 0.19182247 0.1147349
2649 -998 87 -0.91728443 0.38622674 -0.097047165 0.10119797
2659 -995 76 -0.89637226 0.4324103 -0.097662777 0.12701188
2652 -1012 76 -0.89385957 0.43850753 -0.093413733 0.09212932
2643 -1029 76 -0.95431638 0.27669117 -0.11279345 0.091635339
2652 -1027 30 -0.90721655 0.20670485 -0.36637592 0.084152795
2660 -1009 31 -0.86958396 0.34712234 -0.35118347 0.1005168
2648 -1020 109 -0.87578648 0.48161811 0.032279681 0.10104836
2673 -1036 205 -0.88656574 -0.071461536 0.45704973 0.2103342
2668 -1024 17 -0.82780117 0.23353618 -0.51010394 0.10285778
2656 -1013 64 -0.88264507 0.44171041 -0.16071557 0.099673741
2682 -1061 207 -0.78885663 -0.27969101 0.54724592 0.17858548
2666 -1003 16 -0.82172918 0.33019373 -0.46447104 0.10695111
2647 -1031 65 -0.94709563 0.28100654 -0.15506485 0.088262156
2656 -1038 156 -0.82885712 0.33248708 0.44994244 0.10208555
2657 -1018 155 -0.72193342 0.57578909 0.38376954 0.12032479
2648 -1041 110 -0.93669689 0.3499307 0.012146382 0.12676241
2668 -1015 29 -0.8690933 0.27740699 -0.40953913 0.10185613
2660 -1031 29 -0.89942473 0.17030571 -0.40253097 0.10003687
2636 -1033 76 -0.95883548 0.26372609 -0.10527619 0.08685784
2655 -1021 76 -0.93189675 0.34813768 -0.10182631 0.10228564
2643 -1029 121 -0.87994343 0.46485612 0.098022133 0.10395525
2627 -1042 121 -0.96561247 0.23623319 0.10856542 0.096277267
2652 -1000 76 -0.9089033 0.40769932 -0.087613888 0.10378914
2640 -1008 121 -0.77913779 0.61125088 0.13898411 0.10491077
2667 -1053 197 -0.85742831 -0.20812359 0.47063914 0.16050051
2643 -1047 149 -0.87520796 0.31674093 0.36563116 0.11131955
2653 -1008 59 -0.88600731 0.44025892 -0.1454753 0.099471845
2653 -1026 58 -0.92658067 0.32618433 -0.18722205 0.098990664
2642 -1036 105 -0.9287318 0.37072909 -0.0041558226 0.1041574
2655 -1006 107 -0.8654905 0.50075722 0.012979597 0.11381142
2648 -1021 106 -0.88663125 0.46225628 0.014286391 0.10000257
2673 -1023 152 -0.62096113 0.64911723 0.43937913 0.1294546
2682 -1041 198 -0.79804021 0.086080708 0.59642422 0.19449808
2663 -1037 151 -0.81619263 0.35713568 0.45418471 0.10668557
2640 -1021 108 -0.90090925 0.43398091 -0.0048021153 0.094072267
2647 -999 62 -0.86873001 0.47395352 -0.14379263 0.097606927
2651 -1020 63 -0.91063178 0.38077289 -0.16050483 0.090935491
2656 -1011 15 -0.85261971 0.26684013 -0.44926158 0.0915493
2633 -1038 108 -0.93980324 0.34152126 -0.011535303 0.098706312
2688 -1013 -5 -0.56944877 0.35145307 -0.74310762 0.13590468
2640 -1041 155 -0.8789953 0.30457434 0.3668811 0.12121739
2651 -1000 61 -0.87002784 0.47661099 -0.12606922 0.098366387
2642 -1022 154 -0.79506481 0.51549083 0.31959549 0.12828158
2640 -1007 108 -0.84512627 0.53455418 0.0036614807 0.1053068
2664 -1010 155 -0.70494574 0.5948903 0.38620862 0.13690537
2642 -1037 62 -0.95324963 0.24845988 -0.17199625 0.092847168
2640 -1028 109 -0.91197854 0.40983286 0.018223394 0.096109122
2677 -1017 16 -0.79818118 0.27570161 -0.53562611 0.12957639
2658 -1023 62 -0.90255237 0.38846031 -0.18573582 0.10899635
2636 -1046 109 -0.95236117 0.30426624 -0.020743906 0.10986266
2674 -1030 21 -0.83890241 0.19424669 -0.50843966 0.12419134
2672 -1009 21 -0.81418228 0.34270993 -0.46867585 0.11441349
2658 -1021 82 -0.93413824 0.34618497 -0.086843461 0.10183948
2644 -1007 129 -0.75912637 0.61745566 0.20609647 0.10871191
2666 -1031 37 -0.915676 0.20947677 -0.34301162 0.1196751
2656 -1000 81 -0.9226107 0.37719411 -0.080710024 0.1116878
2673 -1013 37 -0.87724406 0.35048875 -0.32802519 0.11139915
2657 -1047 177 -0.89267749 -0.11228162 0.43648571 0.14844684
2626 -1041 129 -0.94450325 0.27970919 0.17226805 0.11100242
2645 -1037 82 -0.96093458 0.26176783 -0.089901671 0.091076672
2642 -1026 129 -0.88028616 0.44015408 0.17708947 0.10572071
2660 -1027 176 -0.59400177 0.70767599 0.38256568 0.172567
2688 -1030 -6 -0.59609073 0.2659499 -0.75759256 0.1472259
2660 -1017 164 -0.61261427 0.6960662 0.37442702 0.13388492
2660 -1035 164 -0.80533391 0.38806379 0.44815606 0.12083288
2638 -1038 70 -0.967902 0.21182813 -0.13525745 0.092426024
2663 -1002 28 -0.84956634 0.34784916 -0.39653236 0.10823352
2658 -1036 26 -0.90283185 0.11649854 -0.41391167 0.10057714
2655 -1008 71 -0.87613916 0.46237305 -0.13635021 0.096380062
2654 -1021 116 -0.87417442 0.47903597 0.079646885 0.098661527
2657 -1027 71 -0.94155139 0.30550522 -0.14194232 0.095347606
2664 -1020 27 -0.86975831 0.27457219 -0.41003743 0.098431796
2648 -1055 115 -0.96967638 0.24434558 0.0047946787 0.14367022
2652 -1038 116 -0.90837926 0.41270068 0.067269422 0.12106986
2647 -1048 163 -0.88570964 0.14167666 0.44209293 0.12024019
2646 -1000 54 -0.88305128 0.44189405 -0.15795578 0.089976184
2671 -1003 9 -0.75541228 0.36886245 -0.54156518 0.12655094
2666 -1022 8 -0.80088526 0.23617823 -0.55027503 0.10299624
2652 -1022 54 -0.89954007 0.37682694 -0.22097309 0.093277872
2666 -1048 176 -0.86750633 0.096343495 0.48800686 0.13349462
2633 -1046 84 -0.97175115 0.21135382 -0.10502089 0.088263869
2650 -1028 130 -0.84875661 0.49188787 0.19405787 0.11044517
2646 -1044 129 -0.9112004 0.36435348 0.19225079 0.12234654
2659 -1025 38 -0.89790493 0.30472371 -0.31766376 0.096254162
2637 -1058 128 -0.98447675 0.13135631 0.11640906 0.13114201
2649 -1017 86 -0.92522871 0.37405837 -0.063498594 0.093350813
2652 -1040 37 -0.92935157 0.133949 -0.3440398 0.099354506
2662 -1040 86 -0.97599006 0.20915532 -0.060806368 0.13721718
2667 -1030 177 -0.69906747 0.5638411 0.43975887 0.16620131
2670 -1017 131 -0.5736509 0.77942556 0.25183439 0.12758315
2663 -1020 9 -0.81221211 0.23441695 -0.53419113 0.10047764
2643 -1009 101 -0.88703191 0.46142015 -0.016306095 0.093979932
2672 -1069 201 -0.80538499 -0.39842153 0.43887964 0.13863294
2679 -1035 202 -0.78696674 0.10785852 0.60749477 0.18425101
2666 -1049 201 -0.85295719 -0.23207691 0.46755144 0.17053054
2647 -1003 57 -0.87660927 0.45895222 -0.14463392 0.094477393
2646 -1021 58 -0.9062916 0.38479131 -0.17484607 0.091154061
2640 -1037 59 -0.95704889 0.22518666 -0.18261532 0.094805114
2652 -1037 13 -0.87713629 0.13816868 -0.45993632 0.083341576
2659 -1003 12 -0.82918966 0.29585162 -0.47425339 0.1041632
2652 -1019 12 -0.8638131 0.21881741 -0.45381251 0.087048553
2669 -1044 -9 -0.76080799 0.073890612 -0.64475679 0.12066777
2642 -1030 83 -0.96027696 0.26132441 -0.097866371 0.093573399
2640 -1043 37 -0.92622507 0.13693619 -0.35122004 0.082037345
2690 -1011 -8 -0.54193819 0.32617697 -0.77453965 0.13520007
2643 -1010 83 -0.91100246 0.40249786 -0.089832895 0.089440003
2647 -1026 38 -0.91455048 0.25880879 -0.31083018 0.083966926
2627 -1044 83 -0.97056472 0.21112742 -0.11588463 0.085779361
2684 -1029 -9 -0.60306203 0.26512134 -0.75234753 0.1353686
2689 -1049 -10 -0.55561686 -0.032080662 -0.83081937 0.15247677
2634 -1034 64 -0.95647216 0.24634992 -0.15643765 0.08096692
2645 -1032 112 -0.90602547 0.4199481 0.052549016 0.10490209
2650 -1044 157 -0.86354744 0.27451825 0.42299595 0.11525158
2687 -1075 207 -0.71999806 -0.40900216 0.56064254 0.12967664
2631 -1047 112 -0.96849304 0.24880356 0.01086125 0.10989319
2686 -1031 204 -0.65358275 0.34405357 0.67413414 0.1998712
2636 -1007 110 -0.84789199 0.5300597 -0.010769201 0.10586891
2654 -999 62 -0.86681503 0.48307291 -0.12358095 0.10419689
2661 -1028 157 -0.76662904 0.45202029 0.45602357 0.11458398
2647 -1017 63 -0.89793837 0.41127512 -0.15671466 0.088461027
2623 -1035 127 -0.95576173 0.25436559 0.14770848 0.10872485
2634 -1019 127 -0.86504972 0.46890333 0.17837748 0.111576
2640 -1002 127 -0.71705866 0.66425997 0.21115316 0.11565551
2649 -1021 35 -0.89791739 0.29722458 -0.32465652 0.082227029
2655 -1014 83 -0.90888143 0.41126627 -0.069243737 0.097528838
2670 -1000 83 -0.92274266 0.37948233 -0.06737224 0.14808996
2657 -1004 35 -0.88101977 0.36110741 -0.30562317 0.091411956
2636 -1027 82 -0.9470759 0.3059431 -0.09719114 0.080329128
2649 -1010 61 -0.87434936 0.45890823 -0.15784942 0.092790686
2646 -1028 62 -0.94072002 0.29639637 -0.16490945 0.091957629
2659 -1009 15 -0.8453005 0.26818421 -0.46210864 0.093206331
2658 -1027 16 -0.86286265 0.20794341 -0.46068168 0.089647807
2662 -1028 168 -0.75923681 0.50109917 0.41528189 0.13346738
2651 -1045 168 -0.90628266 0.034434516 0.42126712 0.14070965
2671 -1002 -9 -0.65260017 0.36907262 -0.66173893 0.12117931
2649 -1034 37 -0.91867602 0.20705217 -0.33639821 0.089911297
2666 -1036 -8 -0.76922882 0.16719335 -0.61671174 0.11834863
2680 -1023 -9 -0.6587562 0.26667601 -0.7035085 0.12408427
2657 -1019 36 -0.88353366 0.34645638 -0.31517664 0.090385973
2667 -1037 206 -0.7409727 -0.66132045 0.11668222 0.21682771
2659 -1056 206 -0.82485282 -0.40718338 0.39219829 0.17735872
2658 -1030 145 -0.81361824 0.45034659 0.3677136 0.10947769
2650 -1037 100 -0.92382872 0.38202584 -0.024429314 0.10663659
2636 -1053 101 -0.9868837 0.13253279 -0.092171937 0.11448446
2662 -1027 52 -0.91836733 0.31446567 -0.24023508 0.11466289
2641 -1040 52 -0.954198 0.19466141 -0.22718509 0.10070527
2664 -1007 51 -0.87195575 0.4459601 -0.20202164 0.10728824
2648 -1016 99 -0.87941968 0.47599724 -0.0068961461 0.094316505
2649 -1048 145 -0.87136817 0.31322733 0.37763217 0.10646781
2673 -1051 193 -0.85073912 -0.097740665 0.51642007 0.15131694
2681 -1033 192 -0.70932275 0.39721829 0.58230484 0.19787198
2675 -1046 3 -0.77762711 -0.0089452881 -0.62866217 0.12181705
2642 -1018 95 -0.89854348 0.4380872 -0.026441762 0.088562228
2638 -1030 140 -0.86846125 0.40265831 0.28920811 0.10454565
2685 -1030 2 -0.67977703 0.23651426 -0.6942364 0.15071274
2624 -1044 140 -0.92575532 0.29343051 0.2384861 0.12541118
2661 -1018 141 -0.75161189 0.5671587 0.33676481 0.10900911
2634 -1055 95 -0.98395437 0.12665518 -0.12566739 0.1086618
2681 -1008 2 -0.71139449 0.29365343 -0.6385026 0.1303564
2645 -1039 95 -0.9481408 0.30649439 -0.084203281 0.10359577
2656 -1012 47 -0.88588923 0.40297946 -0.22979955 0.095754758
2656 -1052 48 -0.9451654 0.066620588 -0.31972495 0.12161045
2656 -1032 48 -0.91967046 0.29959419 -0.25386935 0.10694455
2631 -1035 122 -0.93035716 0.34661525 0.11955508 0.10175177
2636 -1017 122 -0.86981487 0.4774802 0.12423657 0.10125559
2633 -1042 77 -0.97512931 0.19245163 -0.10993251 0.093620643
2624 -1052 122 -0.98857945 0.13093233 0.074614994 0.11083108
2666 -1024 30 -0.88058037 0.2661736 -0.39208397 0.10424689
2660 -1041 30 -0.9138034 0.064875469 -0.40094206 0.11203486
2648 -1028 77 -0.95640332 0.27201295 -0.10630944 0.091071799
2651 -1042 81 -0.9735924 0.20065632 -0.10888021 0.10390058
2644 -1014 126 -0.82522702 0.54272211 0.1563749 0.1045514
2643 -1033 126 -0.88778663 0.43694666 0.1446114 0.10863899
2650 -1050 34 -0.92624575 0.018341368 -0.37647361 0.09234038
2693 -1055 -10 -0.55323994 0.044482391 -0.83183348 0.13292028
2627 -1046 126 -0.96465778 0.22527377 0.13670091 0.10910725
2626 -1052 80 -0.96358258 0.24868637 -0.098304152 0.09965384
2658 -1034 34 -0.91973633 0.13934049 -0.36697307 0.10211828
2650 -1023 81 -0.93412441 0.34162477 -0.10346048 0.096413285
2633 -1063 126 -0.99332285 -0.020447643 0.11354139 0.13995683
2639 -1047 127 -0.94433898 0.29878652 0.13766079 0.11833508
2640 -1051 79 -0.98578739 0.1289389 -0.10769349 0.09732268
2676 -1037 174 -0.79649919 0.31898126 0.51365352 0.13607132
2649 -1016 129 -0.78909892 0.581366 0.19833422 0.1103517
2673 -1054 174 -0.81701392 0.24044062 0.52409601 0.14182295
2646 -1032 128 -0.8713733 0.45957443 0.17175564 0.10979197
2652 -1038 80 -0.97419643 0.20209062 -0.10050212 0.10566554
2655 -1021 80 -0.93321359 0.34496963 -0.10054037 0.10127486
2675 -1033 159 -0.77921194 0.40735731 0.47632843 0.11471184
2672 -1048 208 -0.88610399 -0.24577157 0.39295802 0.1957013
2635 -1054 156 -0.8597123 0.23331115 0.45437944 0.11730865
2659 -1045 158 -0.84488744 0.25189713 0.47192484 0.095561571
2665 -1064 207 -0.78832185 -0.45844436 0.41033822 0.16220875
2663 -1021 27 -0.86961621 0.27445927 -0.41041425 0.098813511
2663 -1039 27 -0.8975085 0.12049177 -0.42421708 0.11336762
2655 -1055 28 -0.9054845 -0.093131818 -0.41403416 0.11306717
2648 -1040 76 -0.97472668 0.19565694 -0.10782559 0.10360128
2650 -1020 76 -0.93281794 0.34448704 -0.10573278 0.09027943
2655 -1036 30 -0.91891468 0.10783777 -0.37942964 0.10259593
2673 -1023 30 -0.87879854 0.23632672 -0.41456336 0.11181098
2686 -1058 -17 -0.54746896 0.27279103 -0.79111493 0.15653931
2693 -1040 -16 -0.51288152 0.29713982 -0.80539471 0.13715294
2646 -1053 30 -0.91844726 -0.038500603 -0.39366537 0.10481971
2630 -1053 75 -0.97691977 0.18904364 -0.099449545 0.10736168
2646 -1038 64 -0.95495939 0.24959363 -0.1604856 0.095624536
2647 -1027 108 -0.90136713 0.43226117 0.026223244 0.10013193
2674 -1013 15 -0.79597622 0.29036286 -0.5311414 0.11669472
2668 -1052 17 -0.86128277 0.0028338339 -0.50811821 0.12659517
2670 -1032 16 -0.83031976 0.16827825 -0.53127354 0.10819408
2691 -1029 204 -0.58256972 0.45792219 0.67150557 0.19923234
2642 -1046 109 -0.94405508 0.32959443 -0.011293693 0.1137196
2655 -1024 154 -0.78588516 0.48600495 0.38233969 0.11475191
2648 -1017 64 -0.89800054 0.41030189 -0.1588943 0.085412428
2678 -1067 206 -0.78376293 -0.26625499 0.56109172 0.16716821
2649 -1043 155 -0.86474025 0.26560158 0.42623958 0.11686254
2674 -1044 204 -0.84912044 -0.098396413 0.51895344 0.20194785
2677 -1014 5 -0.74966061 0.2406652 -0.61651379 0.1154011
2652 -1042 141 -0.87252986 0.35356826 0.33716643 0.11238538
2639 -1049 51 -0.96869349 0.072079495 -0.23756593 0.10341215
2669 -1047 4 -0.81462795 -0.0071880105 -0.57993931 0.11080873
2672 -1030 4 -0.77686036 0.21271653 -0.59265482 0.10728093
2683 -1066 191 -0.81799358 -0.099874713 0.56649065 0.15409784
2684 -1048 191 -0.80112547 0.23246148 0.5515067 0.19288303
2661 -1027 142 -0.78853232 0.50733268 0.34760645 0.11647832
2651 -1018 52 -0.90546894 0.36889613 -0.20986095 0.092172883
2652 -1028 96 -0.92523903 0.37669611 -0.04508682 0.10569523
2655 -1038 52 -0.94128984 0.23225686 -0.24501057 0.11381755
2654 -1047 96 -0.97072297 0.21558055 -0.10593387 0.12753569
2646 -1058 140 -0.91844547 0.18744488 0.34831366 0.13521744
2664 -1053 194 -0.87399322 -0.1564104 0.46007791 0.1540934
2652 -1044 32 -0.91883111 0.10812163 -0.37955126 0.10404831
2627 -1058 125 -0.98540324 0.14075002 0.095758922 0.12393646
2661 -1028 33 -0.89744383 0.25811285 -0.35773209 0.10626564
2635 -1042 125 -0.94962406 0.28744787 0.12485114 0.10801551
2695 -1047 -12 -0.54815948 0.063706674 -0.83394402 0.13619353
2637 -1023 125 -0.8707965 0.46872926 0.14834549 0.10500854
2649 -1015 80 -0.91591448 0.39184797 -0.086924374 0.087114304
2631 -1046 79 -0.97233367 0.20784804 -0.1066133 0.092442222
2657 -1037 80 -0.96500283 0.24802496 -0.08516556 0.11753264
2661 -1029 162 -0.73367715 0.53199488 0.42272821 0.11367689
2645 -1044 162 -0.87987936 0.25787216 0.39914197 0.12435524
2678 -1030 21 -0.82932258 0.1837671 -0.52768719 0.13014416
2658 -1053 206 -0.77826339 -0.52861708 0.33892485 0.18703261
2649 -1029 65 -0.9384197 0.30632687 -0.15978844 0.091181882
2642 -999 109 -0.81922448 0.57346296 0.003407408 0.1067049
2651 -1023 110 -0.88652337 0.46114695 0.037679557 0.10134529
2656 -1011 65 -0.86765581 0.47034398 -0.16108964 0.096255034
2664 -1005 20 -0.84084553 0.3189044 -0.43735424 0.097037449
2657 -1017 158 -0.71524155 0.58709478 0.37914279 0.1267633
2649 -1035 158 -0.84617835 0.36353055 0.38965073 0.12628332
2690 -1023 206 -0.56776077 0.40128225 0.71876299 0.2069097
2640 -1040 111 -0.92835379 0.37124217 0.018396456 0.110096
2662 -1002 76 -0.9044022 0.41435316 -0.10182374 0.11458288
2636 -1006 121 -0.79497558 0.59462935 0.12012362 0.11128794
2637 -1025 121 -0.88667697 0.44843659 0.11273246 0.10065587
2647 -1016 76 -0.91627192 0.38561961 -0.10836639 0.086805783
2624 -1040 120 -0.97028625 0.22540851 0.087952398 0.099095017
2635 -1031 75 -0.95068783 0.29052883 -0.1085621 0.085774928
2657 -1009 29 -0.87419659 0.3090156 -0.37455255 0.090833254
2658 -1029 29 -0.90172738 0.17968366 -0.39319411 0.090528049
2692 -1027 -7 -0.54658836 0.28270021 -0.7882396 0.15360202
2629 -1039 129 -0.93450338 0.30452573 0.18430273 0.11056911
2657 -1012 131 -0.73731548 0.63347077 0.23469299 0.11109816
2649 -1042 37 -0.93207324 0.10826151 -0.34571499 0.10143323
2683 -1043 -7 -0.66487098 0.0063627781 -0.74693108 0.14486618
2630 -1046 84 -0.97497153 0.19166389 -0.11267412 0.08862596
2652 -1016 85 -0.90642524 0.41880977 -0.054694641 0.097208545
2631 -1021 129 -0.88463372 0.42521819 0.1913445 0.11281904
2656 -1026 37 -0.89679581 0.29708326 -0.32787022 0.096140265
2696 -1009 -6 -0.51821852 0.32538012 -0.79093444 0.15709297
2650 -1035 85 -0.96473938 0.25066447 -0.080282927 0.10209209
2647 -1054 157 -0.86363608 0.15498146 0.47970143 0.098816924
2673 -1027 19 -0.8277691 0.22762015 -0.51282293 0.12293301
2658 -1034 64 -0.94941956 0.25803033 -0.17894942 0.11048663
2638 -1056 111 -0.98884773 0.1484019 -0.012531452 0.12010661
2668 -1044 19 -0.85965484 0.08818651 -0.50320637 0.11332266
2650 -1050 64 -0.97854924 0.11906109 -0.16812474 0.12317555
2664 -1024 158 -0.76661623 0.44874111 0.45927224 0.11784898
2658 -1045 112 -0.92283368 0.38446689 0.023731645 0.1474047
2640 -1020 111 -0.8873781 0.46020579 0.027762098 0.094038956
2665 -1061 19 -0.85829479 -0.18358226 -0.47919488 0.1288991
2657 -1040 158 -0.8416748 0.31757662 0.43672469 0.10393238
2661 -1015 169 -0.5448826 0.75698876 0.36065361 0.1360745
2689 -1058 -15 -0.58783329 0.057028707 -0.80696946 0.14303987
2650 -1040 121 -0.89779258 0.43082708 0.091413237 0.11701535
2648 -1056 32 -0.91458809 -0.016352143 -0.40405604 0.10644784
2643 -1043 76 -0.96939635 0.22050937 -0.1079183 0.097514175
2641 -1057 122 -0.97723448 0.20448093 0.056572352 0.1294518
2663 -1036 170 -0.82157439 0.34935841 0.45051548 0.13746016
2655 -1028 76 -0.94279766 0.31285369 -0.11513134 0.10038117
2658 -1040 32 -0.91274357 0.13453728 -0.38574457 0.10250938
2646 -1018 120 -0.85829377 0.5034942 0.099123344 0.10115814
2648 -1052 170 -0.89551204 -0.12224547 0.42791861 0.13249919
2692 -1038 -16 -0.50703692 0.25619513 -0.82296872 0.13590808
2658 -1019 31 -0.88014674 0.31911582 -0.35143542 0.095759496
2665 -1052 217 -0.70835251 -0.69928414 0.096117213 0.19436407
2646 -1044 130 -0.90835208 0.36788946 0.19888137 0.12252389
2661 -1039 86 -0.96602672 0.25042164 -0.063885614 0.12187009
2654 -1041 38 -0.9306553 0.1368141 -0.33935618 0.097474374
2654 -1019 87 -0.90994638 0.41198918 -0.047566473 0.09611658
2653 -1028 130 -0.83994704 0.50717741 0.19302867 0.11335863
2635 -1057 129 -0.97465879 0.19017248 0.11779126 0.12888676
2667 -1048 177 -0.8753345 0.078877471 0.47704074 0.13523349
2666 -1027 39 -0.90647924 0.26412296 -0.32944563 0.11348721
2633 -1046 85 -0.97331369 0.20123269 -0.11029923 0.087659478
2670 -1031 177 -0.73792398 0.48958167 0.46451905 0.16828179
2667 -1016 131 -0.623891 0.7405799 0.24960238 0.12694529
2672 -1038 5 -0.78504539 0.18951765 -0.58973449 0.11570957
2680 -1000 6 -0.71723455 0.38337025 -0.58189493 0.14102606
2670 -1017 6 -0.79224509 0.22056502 -0.56894547 0.11327388
2644 -1035 47 -0.93357658 0.24106374 -0.26518488 0.089284144
2636 -1043 93 -0.96544254 0.24283525 -0.094613984 0.097011507
2667 -1025 47 -0.92093241 0.28432101 -0.26654282 0.11143047
2644 -1021 140 -0.8438006 0.43531859 0.3138442 0.09638644
2674 -1034 2 -0.77135199 0.18405418 -0.60921276 0.11986277
2641 -1039 139 -0.8788622 0.3714132 0.29942176 0.10103553
2677 -1016 2 -0.73557925 0.26766855 -0.62231559 0.12034532
2657 -1033 94 -0.93876439 0.33762935 -0.068759412 0.11719935
2646 -1009 94 -0.90017295 0.4338116 -0.038678445 0.093266457
2689 -1002 3 -0.64405406 0.29603508 -0.70537758 0.1365557
2636 -1056 139 -0.9244265 0.23813945 0.29786766 0.12479132
2660 -1020 153 -0.74051386 0.55289555 0.38202864 0.12541938
2671 -1062 205 -0.80913907 -0.36039203 0.46412438 0.1760298
2689 -1026 203 -0.55065149 0.52228022 0.65115768 0.20735894
2647 -1037 153 -0.86541468 0.34833372 0.36016807 0.12149333
2638 -1055 154 -0.87398028 0.21267943 0.43695077 0.11798313
2633 -1038 131 -0.91604054 0.34689942 0.20132217 0.11090915
2650 -1029 83 -0.95139432 0.29236311 -0.096812271 0.095093906
2650 -1008 82 -0.91528946 0.39445403 -0.081555091 0.087917842
2634 -1059 132 -0.97163737 0.17391616 0.16023117 0.14110629
2670 -1021 176 -0.55459541 0.74328548 0.37409967 0.15276805
2651 -1023 131 -0.83074832 0.51757479 0.20487472 0.11185411
2667 -1041 177 -0.86222476 0.14668226 0.48482233 0.15896326
2631 -1043 83 -0.9735148 0.19284894 -0.12279384 0.088847227
2672 -1014 89 -0.90045953 0.4343358 -0.022914335 0.13338634
2643 -1035 133 -0.88795686 0.39740968 0.23151274 0.10300332
2693 -1017 -3 -0.56487489 0.32701796 -0.75761187 0.15762857
2660 -1037 41 -0.93482178 0.14169297 -0.32562456 0.11964319
2649 -1013 41 -0.89617556 0.35143426 -0.2708568 0.088985987
2649 -1018 134 -0.81651193 0.52098107 0.24877092 0.11030563
2645 -1023 88 -0.92581558 0.37149689 -0.069681369 0.08931528
2638 -1047 40 -0.93108976 0.10790055 -0.34846726 0.088589862
2616 -1043 132 -0.96743178 0.19414842 0.16242547 0.1196022
2670 -1028 -3 -0.76346159 0.21024187 -0.61067569 0.11871995
2641 -1040 88 -0.96441042 0.24181628 -0.10694581 0.096689075
2664 -1044 -3 -0.81441188 0.019051159 -0.57997447 0.10723151
2665 -1047 168 -0.83718216 0.26688299 0.47738823 0.12496829
2642 -1043 121 -0.91737384 0.3867659 0.094007105 0.1098153
2650 -1035 74 -0.95439619 0.27232316 -0.12234361 0.091985151
2663 -1027 168 -0.76274329 0.49314561 0.41836596 0.1212872
2643 -1056 167 -0.8945201 0.011830502 0.44687119 0.1258302
2664 -1022 75 -0.91529149 0.37717572 -0.14135072 0.11411325
2640 -1060 121 -0.981291 0.18602543 0.049622975 0.13121089
2642 -1056 28 -0.9192313 -0.058027163 -0.38941851 0.10415529
2655 -1024 29 -0.89625269 0.24614352 -0.36897773 0.086334348
2636 -1048 73 -0.98202592 0.15346999 -0.10987217 0.094082125
2643 -1025 121 -0.87755859 0.46808288 0.10387197 0.10491743
2656 -1034 -14 -0.78754902 0.13312386 -0.60170132 0.12010439
2647 -1039 29 -0.91307408 0.15468656 -0.37731668 0.090588063
2634 -1051 35 -0.9156329 0.075264424 -0.39490709 0.091319606
2639 -1057 124 -0.97857475 0.18915714 0.081308596 0.12752441
2668 -1014 -10 -0.71490496 0.25500986 -0.6510613 0.11568622
2667 -1026 174 -0.67188442 0.59999943 0.43424889 0.14534892
2668 -1032 -11 -0.73170972 0.17734103 -0.65814215 0.12670001
2637 -1044 79 -0.97301829 0.20491408 -0.10604582 0.092647105
2657 -1015 81 -0.90836477 0.41085356 -0.077928618 0.098589435
2647 -1020 36 -0.90411955 0.29518771 -0.30892068 0.081151411
2652 -1031 80 -0.95270365 0.28576729 -0.10340625 0.099069901
2661 -1048 -11 -0.78341746 -0.015966374 -0.62129062 0.12934111
2652 -1057 173 -0.88728493 -0.16551454 0.43050018 0.12327445
2651 -1044 125 -0.92293632 0.35684842 0.14438781 0.13569936
2646 -1037 36 -0.92671067 0.17012155 -0.33506104 0.091614574
2646 -1024 125 -0.8671816 0.48162594 0.12661958 0.10967959
2667 -1044 174 -0.83591729 0.23373221 0.49659988 0.14832792
2634 -1048 103 -0.96493906 0.25505683 -0.061956614 0.10643576
2666 -1035 150 -0.78559166 0.42128533 0.45317158 0.11580756
2647 -1035 104 -0.91844136 0.39541128 -0.01074254 0.10681742
2657 -1049 149 -0.84333074 0.31146407 0.43793088 0.10512295
2644 -1020 57 -0.90401447 0.39015183 -0.17475505 0.087522231
2649 -1039 56 -0.94744796 0.2379863 -0.21378718 0.1019635
2667 -1050 195 -0.8741619 -0.16798247 0.45565647 0.1595069
2681 -1074 196 -0.78021604 -0.46010503 0.42375255 0.12608017
2633 -1051 55 -0.96782684 0.14446686 -0.20601094 0.10898447
2638 -1014 104 -0.87544191 0.48314434 -0.013152291 0.093009889
2678 -1039 186 -0.80767423 0.25828427 0.53004861 0.19115688
2640 -1063 134 -0.96997321 0.016584981 0.24264567 0.15942138
2657 -1033 136 -0.85780591 0.41348222 0.30528918 0.11744035
2650 -1049 135 -0.90472078 0.2957595 0.30660498 0.12547719
2670 -1020 137 -0.6895982 0.65801972 0.30243081 0.1333136
2645 -1014 40 -0.90693015 0.32289687 -0.27058321 0.085378982
2666 -1016 -5 -0.7631228 0.24118505 -0.59956104 0.11205422
2641 -1033 40 -0.92805475 0.20512858 -0.31086433 0.081410371
2659 -1034 -5 -0.81165528 0.12111492 -0.57144278 0.098762169
2662 -1043 -9 -0.80183345 0.065779611 -0.59391594 0.11666043
2646 -1049 35 -0.92577583 0.010710491 -0.37792128 0.09503103
2679 -1024 35 -0.89341903 0.1863993 -0.40872699 0.12718377
2647 -1017 128 -0.82135063 0.54455113 0.16984458 0.10780677
2656 -1026 82 -0.94585353 0.31293237 -0.086223766 0.098665811
2638 -1038 82 -0.96396232 0.24510217 -0.10344886 0.09091752
2628 -1053 81 -0.96343291 0.249947 -0.096558481 0.1022284
2625 -1046 127 -0.9639771 0.22876954 0.135693 0.1092555
2677 -1030 -9 -0.68350142 0.23897347 -0.68972272 0.12580127
2641 -1033 127 -0.8823998 0.4436655 0.15662538 0.10784443
2651 -1033 35 -0.91866148 0.19083901 -0.34589252 0.089995965
2668 -1026 5 -0.78834164 0.22549759 -0.57242322 0.10474645
2666 -1044 6 -0.82894969 0.039906248 -0.55789763 0.10966818
2676 -1011 4 -0.7484498 0.2494569 -0.61448687 0.12186617
2661 -1052 201 -0.80608153 -0.42517814 0.41165048 0.16585515
2684 -1024 203 -0.62988222 0.42234874 0.65182048 0.20677608
2651 -1029 21 -0.89333552 0.1958573 -0.40446469 0.079408802
2643 -1012 67 -0.8913911 0.43143505 -0.13887298 0.086904354
2643 -1046 21 -0.91673732 0.10139973 -0.38640758 0.09449771
2658 -1012 22 -0.86357063 0.27945539 -0.41970295 0.086555868
2647 -1034 67 -0.95248121 0.26714087 -0.14633967 0.087864995
2623 -1045 66 -0.95315617 0.28990063 -0.086318642 0.091875754
2667 -1032 21 -0.85948175 0.17128192 -0.4816156 0.10970473
2682 -1070 208 -0.76545024 -0.34962556 0.54022962 0.14584939
2649 -1049 112 -0.93829745 0.34529632 0.019193828 0.13876618
2650 -1067 111 -0.87487614 -0.46887815 -0.12142915 0.16237606
2668 -1034 159 -0.77861542 0.43078813 0.45626715 0.1062227
2652 -1040 68 -0.9625923 0.21970855 -0.15856935 0.10207824
2650 -1031 112 -0.90362185 0.42558789 0.048399452 0.10758624
2656 -1048 158 -0.8418895 0.24608733 0.48027396 0.096966468
2667 -1050 20 -0.883026 -0.04835812 -0.46682608 0.1206539
2635 -1051 67 -0.97939169 0.14535855 -0.14022401 0.10058714
2650 -1021 69 -0.9283666 0.339724 -0.15074186 0.092311829
2666 -1029 0 -0.79269713 0.20199314 -0.57517821 0.10734154
2647 -1012 46 -0.89572275 0.38288894 -0.22600184 0.085952647
2681 -1015 0 -0.71158373 0.24987122 -0.65666813 0.12254174
2638 -1015 92 -0.91576707 0.39917967 -0.045013294 0.079919599
2627 -1050 92 -0.97344351 0.19701956 -0.11658036 0.096539252
2632 -1046 46 -0.95062757 0.11398195 -0.28864402 0.091894493
2653 -1044 0 -0.85260886 0.088644005 -0.51497608 0.096921004
2642 -1037 92 -0.95560181 0.28264582 -0.083286025 0.0932348
2647 -1032 46 -0.92198706 0.28148732 -0.2659035 0.093188554
2648 -1029 134 -0.85681897 0.44946316 0.25267404 0.10958137
2637 -1049 88 -0.96994632 0.20997994 -0.12293314 0.099178039
2657 -1008 41 -0.87234682 0.41120934 -0.26442012 0.094747066
2629 -1040 133 -0.92560655 0.31929728 0.20322827 0.11254931
2679 -1023 -2 -0.70534104 0.25589713 -0.66106778 0.12331711
2649 -1043 41 -0.93602192 0.11511695 -0.33258241 0.10266221
2654 -1026 41 -0.9170416 0.2844266 -0.27952862 0.093421116
2680 -1004 -2 -0.6641289 0.34295723 -0.66431403 0.13253006
2653 -1011 134 -0.74295306 0.61757034 0.25812346 0.11049948
2653 -1017 89 -0.90859812 0.4158133 -0.039354943 0.099264853
2676 -1041 -3 -0.75029391 0.01994646 -0.66080344 0.12466696
2643 -1033 88 -0.95614928 0.27844164 -0.090822674 0.094242901
2662 -1013 23 -0.85525542 0.31425083 -0.41204929 0.099948421
2661 -1031 24 -0.88504124 0.18579181 -0.42682958 0.095192157
2667 -1052 25 -0.88510054 -0.054726731 -0.46217093 0.1207939
2645 -1007 52 -0.89522094 0.40515307 -0.18555458 0.088148877
2676 -1062 184 -0.85788465 -0.13559103 0.49562994 0.13521409
2635 -1054 134 -0.94015175 0.26198182 0.21789923 0.1311927
2652 -1040 134 -0.85964537 0.42467654 0.28400633 0.11597817
2639 -1041 88 -0.96533072 0.23847611 -0.10614024 0.094008371
2646 -1034 44 -0.928895 0.24585027 -0.27696869 0.08889129
2651 -1025 88 -0.93276501 0.35650566 -0.053415574 0.10259851
2647 -1018 133 -0.81283522 0.53446132 0.23162454 0.11118292
2671 -1029 -4 -0.76031232 0.20406199 -0.61667162 0.11976269
2658 -1018 43 -0.89051795 0.36945421 -0.26548356 0.096168138
2650 -1004 87 -0.90930963 0.4094871 -0.07400158 0.095694311
2668 -1038 182 -0.86475754 0.10409693 0.49128222 0.16488878
2675 -1010 -4 -0.71195757 0.31870148 -0.62573618 0.12894444
2668 -1020 130 -0.69259626 0.67447716 0.25571644 0.13341738
2661 -1047 36 -0.93106645 -0.015439105 -0.36452278 0.12625508
2635 -1061 127 -0.98813313 0.099656016 0.11688255 0.13336584
2647 -1048 128 -0.92905378 0.32616124 0.17457914 0.13099796
2664 -1051 175 -0.8698923 0.089764237 0.48500496 0.12274704
2655 -1033 129 -0.84710532 0.49662086 0.18915674 0.11301985
2669 -1035 175 -0.81814218 0.32981378 0.47102666 0.16508318
2648 -1038 84 -0.96516091 0.24654782 -0.087628074 0.10107512
2641 -1053 83 -0.98448819 0.13438356 -0.11280131 0.11116204
2664 -1030 37 -0.91918498 0.18999466 -0.34496507 0.11840218
2647 -1020 84 -0.9330219 0.35124651 -0.078076489 0.088203162
2648 -1003 75 -0.88617259 0.45470378 -0.089121781 0.098336793
2631 -1036 74 -0.96734273 0.23393215 -0.09758988 0.081101075
2655 -1026 75 -0.94292808 0.3082003 -0.1260922 0.096242942
2661 -1037 28 -0.90220189 0.11898766 -0.41457665 0.10480143
2665 -1019 28 -0.86989707 0.2777392 -0.40760267 0.098031797
2639 -1013 120 -0.83850896 0.53255033 0.11529507 0.10246464
2634 -1030 120 -0.90950191 0.40486053 0.094309382 0.098655485
2633 -1050 120 -0.97539884 0.20647596 0.077231504 0.11491711
2643 -1035 87 -0.96039289 0.26074859 -0.098263785 0.096338138
2654 -1023 177 -0.63390791 0.68319297 0.36250243 0.16605057
2636 -1043 132 -0.91032529 0.35233784 0.21717717 0.1082665
2649 -1017 86 -0.92522871 0.37405837 -0.063498594 0.093350813
2655 -1025 39 -0.90350091 0.29816553 -0.30786908 0.091487117
2662 -1007 38 -0.87141222 0.38143542 -0.30846035 0.10098793
2650 -1027 131 -0.85259551 0.48006788 0.20643577 0.11265152
2657 -1045 178 -0.89065796 -0.14108486 0.43223065 0.15217103
2644 -1042 39 -0.92624599 0.18438137 -0.32874295 0.086668998
2665 -1012 131 -0.66711605 0.70043713 0.2536613 0.1232129
2630 -1036 122 -0.9304961 0.34537315 0.12204236 0.1010107
2641 -1008 76 -0.90468502 0.41929084 -0.075763725 0.095392033
2663 -1005 29 -0.86261386 0.32980999 -0.3835659 0.10447233
2638 -1026 76 -0.94151014 0.32085761 -0.10300016 0.085767962
2662 -1025 29 -0.87875903 0.26926222 -0.39405659 0.10078248
2634 -1018 121 -0.86835879 0.47958791 0.12628737 0.1010329
2638 -1027 79 -0.94494921 0.30855396 -0.1089288 0.082385615
2659 -1016 80 -0.91556966 0.39485112 -0.076320253 0.11136989
2656 -1023 32 -0.89315218 0.29010913 -0.34367976 0.092465304
2651 -1006 125 -0.75168151 0.63708162 0.17059246 0.11205882
2643 -1022 125 -0.85879564 0.49234301 0.14166301 0.11080616
2657 -1004 32 -0.88338077 0.33433542 -0.32841775 0.092192136
2634 -1038 124 -0.92796636 0.34892032 0.13089319 0.10172661
2667 -1000 80 -0.89798951 0.43602946 -0.059103146 0.14815089
2648 -1040 123 -0.89781076 0.4287214 0.10066669 0.11528328
2646 -1022 124 -0.86373562 0.48755708 0.12747099 0.10936794
2633 -1053 122 -0.9834196 0.16349643 0.078452244 0.11456598
2661 -1043 173 -0.88952589 0.084732503 0.44895896 0.14782877
2662 -1026 173 -0.68406516 0.61957437 0.38494468 0.15391432
2649 -1057 172 -0.87114584 -0.2133099 0.44227105 0.12890224
2668 -1049 192 -0.86654592 -0.071163595 0.49399799 0.150452
2672 -1069 192 -0.83133602 -0.1909924 0.52192169 0.12311294
2633 -1052 107 -0.97741753 0.20357908 -0.056662153 0.11074401
2647 -1021 15 -0.87455428 0.20560956 -0.4391804 0.078315333
2638 -1009 61 -0.89410591 0.41871184 -0.15891849 0.086621314
2637 -1014 107 -0.8688162 0.49503145 -0.010114708 0.0943629
2649 -1032 62 -0.94009155 0.29689863 -0.16756812 0.096012637
2630 -1044 62 -0.96743232 0.19784401 -0.15790018 0.098672397
2634 -1032 107 -0.93312967 0.35934609 -0.011806836 0.093928255
2649 -1041 15 -0.87595725 0.14492649 -0.46010342 0.089433409
2645 -1039 52 -0.95421457 0.20271403 -0.2199582 0.098097742
2645 -1018 52 -0.90110219 0.38682255 -0.19591618 0.086056776
2646 -1044 145 -0.87168914 0.33074653 0.36161402 0.10233954
2654 -1027 145 -0.83318925 0.4137491 0.36688894 0.10317796
2639 -1027 99 -0.92123151 0.3875249 -0.034014057 0.090041898
2667 -1034 7 -0.81909925 0.15016386 -0.55364895 0.10508014
2633 -1045 99 -0.96665287 0.24407373 -0.077526033 0.10103845
2676 -1058 7 -0.79196477 -0.19214106 -0.57954609 0.13586226
2680 -1019 7 -0.74426305 0.25160003 -0.61868399 0.12625404
2682 -1071 208 -0.76841664 -0.38440496 0.51163334 0.14117308
2659 -1051 18 -0.87407261 -0.018593416 -0.48543933 0.1095163
2650 -1045 156 -0.86568063 0.26090249 0.42723176 0.11089206
2649 -1020 65 -0.90932804 0.38706318 -0.15265816 0.09148138
2669 -1034 18 -0.84674454 0.12360556 -0.51744127 0.11310512
2653 -1025 155 -0.79579026 0.4772062 0.37281641 0.12507729
2674 -1015 17 -0.80857682 0.28781429 -0.51319224 0.11409346
2645 -1039 66 -0.95937121 0.24109951 -0.14655365 0.092310004
2637 -1046 110 -0.95334727 0.30142969 -0.016406152 0.11018536
2647 -1029 110 -0.90430784 0.42472124 0.042885702 0.10348146
2687 -1026 200 -0.54797417 0.54924542 0.63091499 0.20815581
2672 -1043 12 -0.83265382 0.092471734 -0.54601878 0.11342499
2652 -1013 60 -0.87669599 0.45207825 -0.16440606 0.093171902
2676 -1026 12 -0.79222369 0.24085514 -0.56068736 0.11619662
2682 -1010 13 -0.75229204 0.30974165 -0.58147812 0.14408559
2664 -1023 150 -0.72155428 0.55708653 0.41111323 0.11462262
2652 -1031 60 -0.93602085 0.29644129 -0.18970367 0.10193131
2658 -1051 59 -0.96963108 0.09749411 -0.22430007 0.13204795
2685 -1062 199 -0.79679465 -0.14760867 0.58594364 0.17441612
2649 -1021 104 -0.89390737 0.44821554 -0.0056998613 0.098104335
2659 -1039 149 -0.83356506 0.34457096 0.4317871 0.10218248
2638 -1049 148 -0.87553024 0.30489802 0.37481177 0.11118203
2647 -1039 103 -0.92734039 0.37386996 -0.016160868 0.11215525
2667 -1014 19 -0.83020282 0.27140582 -0.48693138 0.10257307
2662 -1032 18 -0.85743684 0.17116372 -0.48528868 0.094086513
2644 -1027 78 -0.94931614 0.29585019 -0.10616746 0.091836631
2639 -1018 123 -0.85516107 0.50303477 0.12512225 0.10266558
2646 -1008 78 -0.90303057 0.4222264 -0.079123631 0.094118558
2642 -1046 78 -0.97613555 0.18651624 -0.11122514 0.10259312
2631 -1035 123 -0.93201637 0.3413527 0.12175328 0.1031712
2665 -1004 31 -0.86122686 0.35118982 -0.36736089 0.10491491
2669 -1010 124 -0.54815441 0.80669606 0.22083533 0.13364752
2663 -1023 31 -0.87741578 0.2802622 -0.38935149 0.1022528
2651 -1010 116 -0.82351232 0.56186759 0.078309201 0.11233582
2639 -1041 115 -0.93095213 0.36055547 0.057689011 0.10547117
2665 -1012 165 -0.52822036 0.76891941 0.36020294 0.13196462
2678 -1066 210 -0.78711498 -0.38490114 0.48197618 0.16944583
2652 -1028 116 -0.8921234 0.44498137 0.07815028 0.10826492
2664 -1030 165 -0.76700598 0.47574988 0.43053922 0.12063845
2649 -1042 163 -0.87251049 0.25337979 0.41776067 0.12685236
2643 -1012 93 -0.89164323 0.45197374 -0.026306598 0.087243982
2638 -1029 93 -0.94260573 0.32673851 -0.068821199 0.085306279
2653 -1009 47 -0.87979913 0.42369893 -0.21548261 0.094858266
2641 -1025 47 -0.9155283 0.3219907 -0.24110128 0.082859851
2644 -1038 99 -0.93601143 0.3486554 -0.048187055 0.10309719
2645 -1032 147 -0.84988862 0.39828822 0.34504464 0.11135355
2672 -1054 195 -0.84565395 -0.1159773 0.52097857 0.16349134
2634 -1049 148 -0.88039565 0.29438958 0.37180409 0.11857217
2655 -1015 147 -0.74946856 0.54213625 0.37998039 0.097536243
2644 -1016 98 -0.88240153 0.47032222 -0.012830009 0.09432932
2627 -1046 123 -0.97225255 0.2051622 0.11239839 0.10082946
2640 -1012 124 -0.81266469 0.56398976 0.14660037 0.11027751
2660 -1035 31 -0.90608758 0.14263089 -0.3983236 0.10884312
2668 -1000 32 -0.85842156 0.33776537 -0.38604021 0.10978856
2661 -1027 79 -0.94309044 0.31546229 -0.10518614 0.11589484
2651 -1004 79 -0.91374046 0.39662728 -0.088119693 0.099017382
2662 -1016 32 -0.87253165 0.3340703 -0.35649052 0.096725672
2636 -1030 124 -0.89181226 0.43202254 0.13426606 0.1079687
2635 -1036 78 -0.9667502 0.23341124 -0.10446613 0.086467944
2685 -998 2 -0.68398887 0.31278238 -0.65903443 0.14567596
2664 -1008 140 -0.61976928 0.70624393 0.3422069 0.12027724
2634 -1040 93 -0.95448369 0.28738067 -0.07983277 0.085545555
2640 -1037 139 -0.8782863 0.38162345 0.28805676 0.10054846
2658 -1031 94 -0.94052029 0.33494678 -0.056853078 0.12603953
2645 -1020 139 -0.83667272 0.45814633 0.3001346 0.097077407
2665 -1004 47 -0.86814386 0.44144726 -0.22682732 0.10551281
2681 -1016 2 -0.71926069 0.24816608 -0.64890492 0.12085325
2657 -1020 47 -0.89742094 0.35847399 -0.25716147 0.10092679
2680 -1034 2 -0.72447246 0.15889537 -0.67073989 0.13921371
2649 -1009 94 -0.88764614 0.45927495 -0.033922598 0.098057792
2643 -1033 46 -0.93126315 0.24864323 -0.26631838 0.091684557
2640 -1054 153 -0.87859362 0.18351959 0.44090113 0.11985121
2650 -1025 106 -0.89920616 0.4372566 0.015325717 0.10692963
2681 -1063 201 -0.78863627 -0.26426125 0.55517459 0.17383647
2658 -1025 155 -0.78636628 0.46180701 0.41031978 0.12127671
2644 -1037 154 -0.87128979 0.33307654 0.36043605 0.1192902
2653 -1008 107 -0.86194426 0.50696391 0.0063039213 0.10984024
2652 -1043 106 -0.95041978 0.30957407 -0.029431706 0.13682994
2640 -1035 79 -0.95948148 0.26148623 -0.10497746 0.091210276
2658 -1031 33 -0.9139924 0.18692012 -0.36010924 0.10329294
2631 -1045 124 -0.95763993 0.26345384 0.11626599 0.10955137
2643 -1030 125 -0.8740716 0.46687791 0.13425331 0.10845125
2643 -1011 125 -0.81675756 0.5585084 0.14482903 0.10817783
2659 -1023 80 -0.93112093 0.35494143 -0.083846748 0.10559054
2662 -1014 33 -0.87108272 0.35425812 -0.34017074 0.095742583
2660 -1004 80 -0.90451163 0.41825157 -0.083213113 0.11860625
2688 -1030 -7 -0.58735543 0.22281584 -0.77805316 0.14443159
2667 -1042 185 -0.86942846 -0.022584986 0.49354246 0.15140696
2672 -1062 185 -0.85664552 -0.095217369 0.50704253 0.12704791
2642 -1018 60 -0.91359526 0.37359196 -0.16053906 0.086707443
2671 -1019 13 -0.80406904 0.27170575 -0.52881861 0.11146129
2664 -1035 14 -0.83747774 0.16411448 -0.52124614 0.096151717
2643 -1024 106 -0.89527959 0.44545603 0.0065835896 0.096983939
2664 -1007 61 -0.87881243 0.44802734 -0.1641957 0.11030731
2636 -1034 61 -0.95305359 0.24952912 -0.17153466 0.089571513
2641 -1043 107 -0.94105995 0.33801389 -0.012362547 0.1087513
2687 -1045 -14 -0.54243761 0.06115916 -0.8378669 0.15316167
2662 -1022 77 -0.92603028 0.36107793 -0.10995726 0.11077116
2664 -1048 171 -0.85888648 0.1879213 0.47644478 0.12506093
2659 -1034 123 -0.85056919 0.51248473 0.11786239 0.12386957
2654 -1037 77 -0.97232324 0.21150886 -0.099254347 0.10630392
2667 -1031 171 -0.74806905 0.49086565 0.44659102 0.1438264
2660 -1016 123 -0.77336526 0.61348933 0.15980305 0.11682743
2651 -1049 122 -0.93318158 0.34367719 0.10515737 0.14048137
2643 -1051 76 -0.98836827 0.11896551 -0.094738215 0.1061869
2645 -1065 121 -0.99968648 0.0030907881 0.024847299 0.15454717
2657 -1046 32 -0.91610765 0.052378353 -0.39749613 0.1173931
2662 -1030 33 -0.9028672 0.21556133 -0.37197331 0.1101553
2649 -1056 52 -0.96098447 -0.029831076 -0.27498904 0.12398805
