# .PCD v0.7 - Point Cloud Data file format
VERSION 0.7
FIELDS x y z normal_x normal_y normal_z curvature
SIZE 4 4 4 4 4 4 4
TYPE F F F F F F F
COUNT 1 1 1 1 1 1 1
WIDTH 815
HEIGHT 1
VIEWPOINT 0 0 0 1 0 0 0
POINTS 815
DATA ascii
2489 -700 36 -0.61408359 0.13368236 0.77783704 0.088166945
2539 -702 121 -0.78258127 -0.51276469 0.35304227 0.18451385
2538 -672 121 -0.69139493 -0.31027704 0.65245789 0.24874739
2526 -683 120 -0.78420794 -0.53469676 0.31482887 0.1859487
2574 -723 87 -0.6819672 -0.72886628 0.060618859 0.12688439
2548 -671 84 -0.62773508 0.76871991 0.12254962 0.1412683
2518 -678 83 -0.64703161 0.74681979 0.15365674 0.12866627
2537 -698 85 -0.88750285 -0.41955596 0.19055583 0.18519947
2580 -723 84 -0.69373864 -0.71696001 0.068520129 0.13949184
2493 -714 37 -0.65604633 0.079788744 0.75049114 0.098342538
2492 -701 37 -0.63621485 0.16685064 0.75325394 0.081741422
2539 -693 123 -0.72281253 -0.5207839 0.45423147 0.2216347
2510 -694 37 -0.65184933 0.30570775 0.69399941 0.095848292
2531 -697 82 -0.90453345 -0.35623741 0.23433755 0.17383723
2570 -681 83 -0.54496378 0.79335272 0.27130404 0.18807057
2537 -685 82 -0.67846531 0.70577168 0.20389023 0.16177988
2516 -682 38 -0.60647678 0.53705853 0.58630538 0.09638948
2499 -720 23 -0.59018159 -0.42066595 0.68900353 0.15814725
2498 -679 22 -0.60010409 0.33951759 0.72429478 0.1015384
2588 -678 108 -0.61054409 0.79096478 -0.040131543 0.18767482
2558 -684 108 -0.70868659 0.6607945 0.24721262 0.24672323
2531 -691 107 -0.86045712 -0.4538933 0.23150481 0.15722613
2538 -699 64 -0.61747277 0.60062063 0.50791955 0.17723827
2569 -729 110 -0.6394949 -0.76179177 0.10353597 0.064536795
2550 -674 63 -0.5252049 0.78305322 0.33314785 0.14835337
2550 -710 109 -0.74735117 -0.60444355 0.275888 0.16576467
2555 -718 65 -0.75515038 -0.64191496 0.13301533 0.14332096
2528 -682 63 -0.56598634 0.74268109 0.35788855 0.11586582
2491 -691 22 -0.64200711 0.1353046 0.75466514 0.11347388
2485 -703 22 -0.65604866 -0.057038803 0.75256014 0.11262664
2526 -702 53 -0.66771024 0.42817721 0.60895592 0.13605747
2569 -723 96 -0.70871133 -0.69504154 0.12101888 0.13698211
2480 -696 12 -0.64527959 -0.19541912 0.73852932 0.13183419
2551 -690 94 -0.81386942 0.52451038 0.25001073 0.22196507
2578 -740 97 -0.52437723 -0.85088092 0.032097805 0.028902907
2571 -681 94 -0.55834591 0.79685563 0.23080523 0.18698338
2483 -711 13 -0.6868217 -0.22875206 0.68989015 0.13327195
2532 -689 52 -0.57746303 0.66122669 0.47886932 0.13624181
2556 -681 52 -0.51143903 0.70290732 0.49431914 0.19324683
2538 -700 94 -0.85969615 -0.47199658 0.19529913 0.1487553
2554 -723 101 -0.70404428 -0.69699019 0.13611148 0.094622388
2523 -690 55 -0.60724908 0.62758476 0.48722258 0.11601114
2545 -694 100 -0.92424792 -0.28139895 0.25803158 0.21234632
2535 -681 56 -0.54241526 0.73901618 0.39955053 0.1281005
2535 -707 56 -0.70908213 -0.094789781 0.69872558 0.18187858
2591 -680 102 -0.61104739 0.78955805 0.056737393 0.18486679
2565 -739 101 -0.56922615 -0.82141089 0.035577189 0.030962687
2559 -685 101 -0.63949674 0.72829914 0.24622002 0.22009276
2535 -705 100 -0.80864382 -0.54736936 0.21559644 0.11393884
2490 -708 25 -0.6622166 -0.072600178 0.74578708 0.11198197
2543 -712 111 -0.76650232 -0.59555906 0.24038209 0.12879255
2500 -684 24 -0.61193287 0.26113033 0.74655819 0.099213429
2539 -697 111 -0.81990254 -0.50102997 0.27699971 0.17194769
2549 -686 111 -0.85874301 0.38813415 0.33453286 0.2625654
2539 -702 69 -0.63547701 0.58982545 0.49827182 0.20798266
2568 -733 113 -0.59474164 -0.79860926 0.09222649 0.041394383
2521 -684 68 -0.58456403 0.7398684 0.332986 0.10491362
2497 -696 25 -0.61358148 0.096742511 0.78368276 0.11547738
2565 -723 70 -0.67401028 -0.7358042 0.065592609 0.1032377
2484 -719 25 -0.70582759 -0.13949811 0.69451261 0.11368867
2538 -675 68 -0.54314321 0.78984135 0.28486156 0.12292312
2578 -680 112 -0.65077412 0.69677544 -0.30165717 0.1940874
2523 -679 68 -0.58114523 0.75056952 0.31450877 0.094450101
2541 -698 69 -0.59547806 0.66383648 0.45246756 0.2034654
2541 -671 69 -0.53394836 0.80471444 0.25948748 0.11264351
2549 -681 111 -0.76416898 0.57724631 0.28780645 0.2421447
2500 -693 25 -0.61816132 0.11859547 0.77705318 0.10893139
2495 -705 26 -0.64332914 -0.025779836 0.76515549 0.11798244
2567 -673 112 -0.64567035 0.76333082 0.020877825 0.19906619
2509 -722 26 -0.57702756 -0.33968318 0.74273449 0.14376546
2509 -682 25 -0.58428997 0.45133561 0.67446381 0.10655794
2538 -706 112 -0.79044253 -0.54558885 0.27844849 0.13891055
2524 -689 111 -0.78908306 -0.58237177 0.19542536 0.13939063
2563 -718 70 -0.74832714 -0.663194 0.013422155 0.16430254
2530 -686 75 -0.61675251 0.72789741 0.29963595 0.14665148
2543 -685 118 -0.8587082 -0.046518549 0.51034921 0.2534526
2490 -707 32 -0.63424277 0.03639064 0.77227706 0.10408617
2514 -674 31 -0.56105334 0.59698689 0.57343334 0.087281242
2535 -696 118 -0.77121812 -0.54466289 0.32949185 0.18152273
2503 -685 32 -0.63114631 0.30659339 0.71249902 0.084523961
2554 -706 76 -0.82166409 -0.56897604 0.033678848 0.22223122
2570 -720 120 -0.61354727 -0.63518524 0.46914765 0.16860096
2567 -678 119 -0.599729 0.63711667 -0.48415637 0.21808513
2539 -675 75 -0.57019854 0.79210478 0.21781567 0.12637727
2499 -696 32 -0.62450647 0.16872707 0.76257652 0.088469185
2549 -705 92 -0.83652616 -0.51667231 0.18241063 0.17769761
2534 -680 47 -0.53513277 0.75733626 0.37426555 0.11801582
2532 -687 90 -0.80492717 0.57082164 0.16203342 0.16964516
2481 -683 6 -0.63626158 -0.11123769 0.7634117 0.13582718
2578 -727 93 -0.63535947 -0.77209443 0.01372596 0.097896196
2505 -699 47 -0.69818848 0.21450487 0.6830231 0.087180823
2566 -682 91 -0.56986892 0.78335792 0.24819306 0.19609991
2524 -691 47 -0.6060887 0.60261893 0.51914054 0.1104086
2474 -708 6 -0.63420153 -0.31555229 0.70584351 0.13474645
2559 -715 63 -0.76906788 -0.63587999 0.064739078 0.19725394
2588 -677 108 -0.59302253 0.80310243 -0.057886619 0.1915071
2535 -695 62 -0.58842927 0.64678174 0.48520553 0.15803061
2538 -690 106 -0.90151745 -0.33410269 0.27503031 0.19091073
2503 -690 20 -0.60276347 0.21289726 0.76899344 0.1398688
2568 -685 107 -0.65945357 0.74603719 0.092463084 0.24838902
2559 -709 107 -0.69780213 -0.60848057 0.37791985 0.22017583
2566 -725 108 -0.68502235 -0.71139032 0.15706106 0.10982693
2526 -679 62 -0.57631475 0.72849393 0.37034839 0.10231397
2498 -676 20 -0.59420228 0.34569359 0.72623658 0.10697886
2495 -701 20 -0.64791846 -0.11527237 0.7529369 0.13233139
2484 -711 20 -0.66643262 -0.15930147 0.7283479 0.12147464
2526 -676 32 -0.52306682 0.71134263 0.46946007 0.10987531
2495 -709 33 -0.63962781 0.091321319 0.76324087 0.098728612
2545 -697 116 -0.78345776 -0.48687357 0.38619703 0.21780679
2525 -682 73 -0.56892943 0.77290678 0.28095272 0.10944688
2570 -718 117 -0.64447182 -0.64710045 0.40732917 0.18091503
2513 -686 32 -0.60654068 0.41008762 0.68112892 0.10092199
2543 -701 74 -0.718288 0.5637036 0.40779972 0.21806993
2544 -682 115 -0.88198149 -0.0023299896 0.47127825 0.25481299
2571 -675 115 -0.63759607 0.73979378 -0.2148868 0.20398842
2504 -698 33 -0.64025164 0.16461839 0.750319 0.097848088
2534 -671 72 -0.53800166 0.80285424 0.25686431 0.10671191
2567 -660 114 -0.56472576 0.75982827 -0.32209596 0.19374925
2590 -674 113 -0.51914334 0.82727271 -0.21473233 0.17910208
2555 -670 69 -0.50779891 0.82427639 0.25041705 0.13266543
2556 -689 100 -0.78970861 0.55574667 0.25981873 0.23461616
2519 -694 54 -0.63805026 0.56490636 0.523233 0.10365838
2514 -705 54 -0.72733474 0.21978354 0.65013802 0.097335383
2536 -696 99 -0.87473917 -0.43422711 0.21512388 0.15005292
2585 -736 101 -0.52207983 -0.85274392 0.016141448 0.035890073
2535 -685 55 -0.55827451 0.69806296 0.44837236 0.14016818
2558 -715 100 -0.71489733 -0.66747969 0.20830876 0.15613115
2559 -679 55 -0.51934791 0.74818796 0.41290754 0.19486277
2584 -683 101 -0.68099695 0.72944319 0.064464882 0.18883936
2486 -695 15 -0.67168409 -0.024218511 0.74044174 0.12471676
2496 -685 15 -0.62506157 0.23855001 0.7432307 0.11367536
2576 -732 103 -0.56592244 -0.82361484 0.037289295 0.043344136
2481 -707 15 -0.67562115 -0.13634017 0.72453243 0.11984826
2536 -676 59 -0.54049957 0.76970953 0.33971676 0.11816032
2546 -706 59 -0.77268773 0.072313927 0.63065386 0.22913671
2540 -695 101 -0.86876452 -0.44454485 0.21823888 0.16887777
2553 -712 102 -0.7527709 -0.61840528 0.2256345 0.15646492
2537 -690 59 -0.57008034 0.68788856 0.44924128 0.15171266
2569 -676 103 -0.63910091 0.75666571 0.1378662 0.19891982
2489 -670 15 -0.59529567 0.28017992 0.75307524 0.1151996
2551 -684 102 -0.74748552 0.60170358 0.28145728 0.22290225
2548 -715 100 -0.7396906 -0.63407594 0.22540082 0.12977381
2573 -676 99 -0.60968989 0.7831679 0.12217309 0.1839249
2531 -695 98 -0.87380296 -0.44020146 0.20661813 0.14342403
2540 -682 98 -0.85132021 0.49462834 0.17491886 0.19418657
2550 -705 88 -0.84561944 -0.51761413 0.13039695 0.19148208
2535 -684 45 -0.52717566 0.75220186 0.39532042 0.12670708
2481 -702 2 -0.66219389 -0.2492906 0.70664942 0.14155464
2554 -680 88 -0.65616661 0.72946882 0.19318548 0.17161795
2530 -686 87 -0.71238559 0.67955786 0.17523691 0.15383483
2563 -722 89 -0.7052291 -0.69611973 0.13442153 0.1246211
2504 -682 2 -0.57023704 -0.16412775 0.80491728 0.20465636
2528 -695 45 -0.61200035 0.57211882 0.54601794 0.12746233
2513 -704 45 -0.70056868 0.22049721 0.67866367 0.095494084
2507 -688 32 -0.63676143 0.26768142 0.72310543 0.088649325
2577 -668 119 -0.55065399 0.69909436 -0.4561221 0.16030364
2532 -675 75 -0.54913104 0.8038165 0.22876664 0.1080743
2546 -701 119 -0.76391202 -0.49774826 0.41071293 0.20487709
2552 -667 76 -0.57460898 0.80723983 0.13486442 0.13290972
2542 -686 118 -0.84398639 -0.17172091 0.50813276 0.25336406
2537 -690 76 -0.62700069 0.71115643 0.31800422 0.16481549
2515 -677 32 -0.59149784 0.54025418 0.59854478 0.091983028
2497 -699 32 -0.62401116 0.1507401 0.76673818 0.090874925
2568 -713 77 -0.81881285 -0.56714755 0.088820495 0.20901315
2558 -677 118 -0.71796352 0.63001281 -0.29599389 0.25789836
2563 -669 77 -0.50230771 0.85432547 0.13347238 0.14284237
2564 -711 76 -0.83330888 -0.55220842 0.025733283 0.21715751
2501 -703 32 -0.635346 0.11065581 0.76425833 0.098610699
2525 -682 33 -0.53053468 0.70491582 0.47077233 0.11298741
2529 -688 75 -0.60984451 0.7336607 0.29971927 0.14522272
2509 -691 33 -0.63219452 0.29729429 0.71550423 0.095992871
2534 -675 76 -0.55898869 0.80116504 0.21369685 0.11607417
2466 -703 7 -0.58395416 -0.344991 0.73483253 0.11531264
2509 -696 50 -0.71223664 0.24601266 0.65741676 0.088096596
2589 -725 93 -0.62255508 -0.78176427 0.03563321 0.12067949
2506 -709 50 -0.70261872 0.11058044 0.70292169 0.085791148
2498 -684 6 -0.64828813 -0.026330428 0.76093966 0.16983764
2525 -687 50 -0.59512144 0.64674437 0.4770245 0.11266685
2533 -675 49 -0.51446825 0.79291308 0.32651368 0.10381608
2531 -681 90 -0.7604053 0.6379652 0.12158994 0.16168289
2571 -677 91 -0.55310047 0.81788707 0.15855817 0.1770761
2541 -698 91 -0.89011067 -0.41982663 0.17733777 0.18192533
2557 -714 69 -0.79017794 -0.60648662 0.088276424 0.18947624
2556 -710 111 -0.71520913 -0.61461848 0.33274627 0.19121513
2489 -702 24 -0.64953506 0.003739072 0.76032239 0.10795078
2536 -695 68 -0.56762975 0.7113741 0.41441947 0.16505605
2554 -682 110 -0.78044719 0.5799948 0.2334701 0.24748893
2486 -674 24 -0.58245903 0.22713366 0.78048176 0.090998568
2574 -729 112 -0.59386963 -0.79322171 0.13460334 0.067590013
2498 -691 24 -0.60841721 0.18688978 0.77129799 0.10577515
2531 -689 110 -0.83541369 -0.49238417 0.24421692 0.16764165
2529 -680 67 -0.57136172 0.75182468 0.3290979 0.11622551
2549 -672 67 -0.52202529 0.80841041 0.27196017 0.13657957
2577 -674 111 -0.64764088 0.75311565 -0.11566356 0.18911737
2550 -688 104 -0.82253361 0.48817939 0.29175213 0.23845664
2544 -699 104 -0.83488607 -0.49045044 0.24984726 0.17635047
2531 -698 59 -0.60624409 0.61046654 0.50970447 0.15037525
2518 -708 59 -0.73515064 0.056540571 0.67554182 0.11087909
2574 -721 105 -0.7348274 -0.64729553 0.20257649 0.17544916
2533 -686 59 -0.56751257 0.68720108 0.45352414 0.1346712
2582 -683 105 -0.69506705 0.71072304 -0.10841833 0.20232652
2545 -676 60 -0.53937685 0.75253171 0.37784749 0.14175193
2475 -699 2 -0.60191405 -0.33895615 0.72305477 0.13120453
2534 -674 50 -0.51361692 0.79580885 0.32075831 0.10681129
2537 -683 94 -0.77621168 0.61358887 0.14492746 0.17619406
2479 -705 9 -0.68284667 -0.21822456 0.69720769 0.14064348
2522 -685 50 -0.60511637 0.62945771 0.48745999 0.099795409
2548 -700 95 -0.88758314 -0.40793988 0.21396522 0.20441739
2575 -679 95 -0.58210802 0.79716772 0.16023047 0.17980744
2505 -694 50 -0.70262325 0.2613202 0.66184014 0.082216762
2491 -666 27 -0.54546326 0.34277663 0.76483589 0.087365285
2502 -682 26 -0.60208541 0.33121446 0.72649163 0.085141428
2500 -696 26 -0.62268388 0.11109738 0.7745465 0.10642245
2490 -706 26 -0.64953822 -0.043048318 0.75910938 0.11358145
2488 -677 26 -0.59588701 0.24178062 0.76580727 0.086037777
2572 -723 70 -0.64059019 -0.76466274 0.070249647 0.12062033
2494 -692 26 -0.60925323 0.17774907 0.77279735 0.099016361
2552 -684 112 -0.81020659 0.52327305 0.26410341 0.26247483
2487 -704 27 -0.65487957 -0.0073740724 0.75569725 0.10904987
2542 -673 68 -0.53528512 0.79944021 0.27269986 0.12213358
2585 -678 113 -0.65140301 0.69034517 -0.31479767 0.17785442
2549 -703 69 -0.77113295 0.37958011 0.51114863 0.23332687
2532 -684 68 -0.5692181 0.74658602 0.34438375 0.13431028
2548 -696 113 -0.80143487 -0.4308016 0.41486403 0.22812028
2567 -716 114 -0.6929208 -0.64815682 0.31583768 0.19175132
2526 -705 56 -0.7060281 0.25739181 0.65975279 0.13796523
2538 -681 57 -0.55367261 0.7208969 0.41683856 0.14445779
2480 -702 13 -0.68204731 -0.1649311 0.71246696 0.13375977
2480 -688 13 -0.64554572 -0.063372321 0.76108778 0.1207239
2534 -694 56 -0.57209986 0.65162212 0.49808669 0.15197392
2476 -674 14 -0.57301652 0.034171607 0.81883109 0.11057075
2502 -688 40 -0.67665827 0.32312372 0.66160756 0.077298097
2577 -680 86 -0.56981236 0.78036702 0.25756767 0.18574138
2528 -693 85 -0.96144921 -0.107609 0.25305289 0.16783646
2573 -718 86 -0.74747008 -0.65382874 0.11745884 0.18097672
2539 -690 126 -0.70598912 -0.54228222 0.45553195 0.23916398
2491 -698 40 -0.64372116 0.16924484 0.74631041 0.079312377
2536 -682 85 -0.70362735 0.69133586 0.16420503 0.14748825
2482 -708 40 -0.66097319 0.063790232 0.7476933 0.089957774
2507 -677 40 -0.64221531 0.48806226 0.59106231 0.078167439
2570 -724 94 -0.6838159 -0.723167 0.097083919 0.12162156
2471 -699 6 -0.59028596 -0.28988078 0.75334692 0.121435
2511 -704 50 -0.70871645 0.21068408 0.67330027 0.090087384
2557 -676 51 -0.51098686 0.77905756 0.3632654 0.17720911
2524 -694 50 -0.62738568 0.54898345 0.55227202 0.1141817
2538 -685 50 -0.55043036 0.6867668 0.47473967 0.14686535
2542 -703 93 -0.84045953 -0.5094623 0.18459675 0.15537778
2536 -688 92 -0.91790974 0.35265511 0.18186846 0.18203907
2471 -712 6 -0.61860251 -0.4136287 0.66801357 0.12553445
2569 -684 94 -0.60482663 0.7636494 0.22588538 0.20529664
2557 -681 50 -0.51536226 0.68569672 0.51402521 0.19478668
2540 -689 49 -0.54527092 0.67872947 0.49194103 0.15606643
2475 -707 7 -0.64409506 -0.3116962 0.69856066 0.13221277
2483 -683 7 -0.65412933 -0.063705243 0.75369519 0.13564137
2505 -706 49 -0.7025001 0.17080384 0.69088316 0.088807926
2523 -698 49 -0.66264296 0.44185147 0.60470778 0.11832087
2516 -695 39 -0.65399265 0.38975567 0.64837033 0.10699889
2542 -707 82 -0.81704044 -0.55620325 0.1519303 0.17053939
2524 -688 82 -0.63304192 0.74135637 0.22281972 0.14633608
2587 -733 83 -0.50223285 -0.86470962 -0.0062795049 0.034818769
2531 -686 40 -0.57296234 0.64639682 0.50387025 0.11957315
2548 -681 83 -0.63529348 0.75159967 0.1774826 0.16275963
2495 -703 39 -0.65028101 0.16699103 0.74111313 0.081387326
2471 -707 -1 -0.5820784 -0.42785406 0.69146627 0.13011324
2505 -684 47 -0.67769283 0.41181952 0.60921019 0.075047247
2569 -712 94 -0.78144568 -0.59043473 0.20181547 0.21862721
2534 -688 92 -0.91911757 0.34766278 0.18534698 0.17741616
2562 -681 92 -0.5819568 0.78271884 0.22062996 0.18918246
2497 -696 48 -0.68569279 0.26206571 0.67907804 0.078450762
2513 -673 47 -0.59196043 0.64823151 0.47893497 0.079293676
2508 -713 49 -0.69350719 0.13355747 0.70796198 0.08922106
2535 -682 114 -0.85758936 -0.40016088 0.3231281 0.20794551
2544 -703 73 -0.89632154 0.14117543 0.42032996 0.22863975
2562 -676 115 -0.70924181 0.70317876 -0.050156698 0.22850946
2544 -698 115 -0.79193687 -0.49270543 0.36066246 0.20589198
2534 -673 71 -0.52616942 0.81052649 0.25727925 0.1098128
2486 -707 29 -0.66395193 -0.016889799 0.74758452 0.11096734
2565 -718 116 -0.66740441 -0.65205884 0.35970911 0.17309929
2499 -683 28 -0.61223805 0.31323144 0.72598255 0.08018662
2489 -694 28 -0.63198268 0.12479626 0.76486844 0.10098654
2573 -725 74 -0.6108132 -0.78713459 0.08559379 0.092677802
2525 -684 72 -0.57814175 0.7554903 0.30819875 0.11797212
2483 -687 10 -0.65333515 -0.14096585 0.74382919 0.13215731
2485 -714 10 -0.69035071 -0.2914229 0.66218472 0.14866054
2545 -708 53 -0.69447356 -0.41921589 0.5847773 0.22661676
2487 -702 10 -0.69640875 -0.1612263 0.69930023 0.13623802
2549 -683 53 -0.53626841 0.69380713 0.48067427 0.16872813
2507 -681 10 -0.5793919 0.48205006 0.65721583 0.15431823
2540 -693 53 -0.56765878 0.62059122 0.54095292 0.1765437
2501 -701 28 -0.62919509 0.055000294 0.77529895 0.11628348
2493 -712 28 -0.67888194 0.004892827 0.73423117 0.11813366
2515 -680 28 -0.57490259 0.552131 0.60385293 0.10141578
2511 -691 28 -0.61531764 0.40030399 0.67907357 0.13491957
2568 -664 122 -0.5016886 0.63697183 -0.58529931 0.17890565
2491 -698 37 -0.62694472 0.14767718 0.76493901 0.082392842
2536 -692 82 -0.73555917 0.62561727 0.25991488 0.18156059
2539 -678 81 -0.64603311 0.74244869 0.17723197 0.13809909
2501 -686 37 -0.64099401 0.35381269 0.68113381 0.072182171
2492 -712 38 -0.64145464 0.094073877 0.7613712 0.090199016
2569 -715 83 -0.78474337 -0.61053634 0.10687947 0.19925138
2546 -701 123 -0.74104613 -0.46176386 0.48746777 0.21420918
2535 -684 122 -0.70563662 -0.55705184 0.43791577 0.22407044
2523 -678 37 -0.56935805 0.63565487 0.52131981 0.10424375
2560 -676 122 -0.51793766 0.58453763 -0.62454486 0.23311923
2510 -690 38 -0.66264921 0.31979787 0.67721874 0.091571517
2575 -725 127 -0.54760128 -0.74614388 0.37868464 0.088736154
2500 -701 39 -0.64511514 0.18008432 0.74256051 0.081694327
2489 -711 39 -0.66909868 0.1097071 0.73503155 0.08895281
2531 -689 82 -0.68269998 0.69232035 0.23369502 0.16038397
2548 -708 83 -0.82548839 -0.55399722 0.10796285 0.17059298
2552 -704 126 -0.5926035 -0.50828469 0.62487423 0.22339626
2565 -666 125 -0.52435666 0.57962102 -0.62377036 0.1854316
2539 -687 124 -0.7268194 -0.48068142 0.49059045 0.24029566
2556 -682 82 -0.60458589 0.76057148 0.23665777 0.17897767
2582 -732 85 -0.5249334 -0.85112667 0.0053369687 0.03624909
2489 -708 25 -0.66670543 -0.065366127 0.74244946 0.11298941
2562 -718 112 -0.70044941 -0.65869915 0.27474728 0.16845411
2491 -696 25 -0.63912886 0.09042722 0.76376516 0.10483408
2558 -722 69 -0.70423251 -0.70298374 0.099350087 0.10506871
2543 -704 69 -0.74071109 0.43564904 0.51142639 0.22695597
2496 -684 24 -0.60117871 0.26188242 0.75498456 0.096286826
2544 -699 111 -0.80780035 -0.50012922 0.31197631 0.19003464
2564 -678 111 -0.68922502 0.71709985 0.10361841 0.2219011
2540 -676 68 -0.54680508 0.78333777 0.29561147 0.1341226
2525 -686 68 -0.57286572 0.7375015 0.35765398 0.12139401
2534 -683 110 -0.88208735 -0.37221706 0.28874981 0.2060094
2542 -686 117 -0.86842465 -0.19215213 0.45707354 0.25119618
2574 -727 77 -0.59451485 -0.80196089 0.058402162 0.077675767
2563 -679 118 -0.68860811 0.68999803 -0.22298345 0.23822573
2512 -688 31 -0.61978388 0.33094662 0.71157736 0.10532465
2543 -700 118 -0.77074176 -0.49568665 0.40031466 0.1977433
2494 -710 31 -0.65842903 0.047672119 0.75113153 0.11178435
2545 -705 75 -0.85869962 -0.48167434 0.17499958 0.21273842
2530 -688 75 -0.61624753 0.72966355 0.2963613 0.14653224
2502 -699 31 -0.63660479 0.12977937 0.76019186 0.097881332
2562 -719 119 -0.66258585 -0.63664836 0.39453623 0.17175549
2553 -681 75 -0.59806639 0.75773621 0.26106018 0.16563813
2528 -697 80 -0.84917194 -0.4663161 0.24790382 0.16503362
2561 -717 126 -0.55488729 -0.56750602 0.60830665 0.16770951
2556 -677 81 -0.58220661 0.79138339 0.18640706 0.15561646
2576 -724 82 -0.65314251 -0.74956071 0.10753398 0.11889388
2545 -699 125 -0.71823013 -0.45988455 0.52216065 0.21919839
2528 -683 80 -0.60170865 0.76872289 0.21682175 0.13357715
2484 -684 19 -0.61729848 0.15567409 0.77117324 0.10968693
2494 -712 19 -0.66245699 -0.22920376 0.71317339 0.14026091
2490 -699 19 -0.67588252 0.042037476 0.73580956 0.1218224
2534 -681 75 -0.56653374 0.78063232 0.26391801 0.13038
2528 -676 33 -0.52819997 0.69844967 0.48287976 0.11366251
2474 -721 -10 -0.50881833 -0.77483767 0.37514073 0.13127148
2506 -697 32 -0.64770436 0.17015915 0.74264729 0.095341019
2561 -716 76 -0.7994979 -0.59351289 0.092442594 0.1747307
2539 -696 75 -0.67364132 0.63204187 0.38305396 0.18967621
2498 -708 32 -0.64809811 0.064708702 0.75880277 0.10540885
2520 -687 33 -0.61124235 0.50242221 0.61151826 0.11380513
2466 -680 5 -0.51443374 -0.26918462 0.81418526 0.10241355
2520 -690 49 -0.62704855 0.57563412 0.52483857 0.10086371
2568 -682 90 -0.56393892 0.78886557 0.24426208 0.19205429
2533 -686 90 -0.79052061 0.59259993 0.15460424 0.17220864
2464 -707 6 -0.57060504 -0.41872188 0.70645726 0.11348356
2536 -681 48 -0.54395145 0.74305725 0.3898496 0.12420963
2510 -702 49 -0.70882165 0.19879571 0.67679542 0.088287182
2591 -731 93 -0.5051347 -0.86303723 0.0023782246 0.036698133
2553 -706 91 -0.80913091 -0.56278777 0.16904774 0.19850364
2587 -689 96 -0.80219024 0.58920079 0.096608505 0.22371528
2534 -701 94 -0.84085011 -0.50376278 0.19797523 0.1325253
2475 -719 9 -0.64091045 -0.45577523 0.61765915 0.13514663
2559 -688 54 -0.50445789 0.59292239 0.62766653 0.21857315
2541 -696 53 -0.55548096 0.64980054 0.51884508 0.17976893
2559 -721 95 -0.70337886 -0.69189662 0.16290253 0.12826027
2489 -697 9 -0.69006145 -0.12680644 0.71255547 0.13765088
2568 -737 95 -0.56414145 -0.82482833 0.037452649 0.030692471
2535 -707 53 -0.67426592 -0.14616536 0.72387916 0.17833151
2562 -696 95 -0.79081941 0.50021726 0.35268596 0.26331112
2490 -716 29 -0.69371718 -0.057623077 0.71793872 0.11638557
2539 -697 73 -0.62910503 0.67936265 0.37774768 0.19523384
2544 -694 116 -0.79695338 -0.45824143 0.39354825 0.22552747
2553 -683 116 -0.76639873 0.58902782 0.25627947 0.27260053
2501 -705 29 -0.61316621 0.036609866 0.78910512 0.11022349
2520 -684 29 -0.58291149 0.54650754 0.60128498 0.11979748
2558 -716 74 -0.77650666 -0.62541932 0.076734215 0.17105997
2549 -709 116 -0.74707586 -0.57294732 0.33705947 0.18150297
2506 -694 29 -0.63947022 0.18992606 0.74498719 0.10349763
2573 -674 116 -0.62713593 0.69823974 -0.34519818 0.1928048
2556 -675 73 -0.52566284 0.82668632 0.20066978 0.14617783
2536 -683 73 -0.57171655 0.76569164 0.29471412 0.13996981
2495 -702 24 -0.63181025 -0.022272984 0.77480304 0.12586927
2572 -731 69 -0.52876753 -0.84714574 0.052430954 0.045977123
2562 -724 112 -0.68734783 -0.70183533 0.18702979 0.11675406
2487 -713 24 -0.67776561 -0.13773988 0.72226137 0.12069266
2543 -705 110 -0.78476632 -0.55780089 0.2701849 0.15837844
2549 -711 68 -0.81906539 -0.52889329 0.22226965 0.21291377
2536 -689 110 -0.88860399 -0.33608881 0.31213331 0.19205676
2531 -693 68 -0.62262988 0.66728181 0.40873849 0.14879134
2490 -687 24 -0.61446327 0.16250281 0.77202827 0.098899998
2564 -683 111 -0.68721968 0.7186293 0.10630633 0.24036697
2534 -680 67 -0.5484584 0.77459806 0.31494635 0.13022336
2589 -676 111 -0.54848933 0.82477719 -0.1374848 0.18299918
2507 -695 34 -0.65243721 0.20641799 0.72918952 0.093142733
2561 -677 79 -0.5542376 0.80422872 0.21456192 0.1574643
2497 -719 35 -0.64219475 -0.08359497 0.76196969 0.11150084
2581 -678 122 -0.53737199 0.55754024 -0.63275599 0.16312002
2507 -682 34 -0.63199735 0.40004829 0.66373235 0.077649489
2492 -704 34 -0.62397879 0.10163666 0.77480352 0.096249737
2552 -711 122 -0.70576316 -0.57234055 0.4175221 0.19221175
2560 -717 79 -0.75938761 -0.64005131 0.11689641 0.15235205
2534 -697 78 -0.71219248 0.61298889 0.34209126 0.1913116
2544 -695 121 -0.76121056 -0.47007957 0.44674775 0.22289127
2537 -684 78 -0.61745286 0.74466711 0.25342253 0.1486458
2470 -686 20 -0.58620256 -0.027194558 0.809708 0.096606106
2541 -689 62 -0.55491692 0.69700491 0.45414898 0.16163006
2564 -716 107 -0.67632174 -0.67206979 0.30151454 0.17719799
2482 -702 20 -0.67750752 -0.042352915 0.73429543 0.11382817
2482 -715 20 -0.68278885 -0.21380325 0.69863266 0.12188859
2585 -735 108 -0.51448601 -0.85576212 0.05454573 0.045187905
2591 -683 108 -0.68392158 0.72599614 -0.071978599 0.19162872
2539 -701 62 -0.63259363 0.50498301 0.58721155 0.18537033
2538 -696 106 -0.83510286 -0.49769831 0.23430677 0.16913246
2565 -690 107 -0.68361998 0.70254105 0.19773665 0.26204911
2545 -716 62 -0.74713981 -0.606471 0.27198359 0.16661565
2557 -680 62 -0.5186556 0.76448685 0.38282686 0.18184593
2494 -698 20 -0.6559242 -0.018842358 0.75459152 0.1295009
2487 -710 21 -0.66609228 -0.15406626 0.72978401 0.11953077
2544 -704 61 -0.70718515 0.32891831 0.62586099 0.22043659
2532 -687 60 -0.57595235 0.68918842 0.439657 0.13411391
2546 -700 103 -0.8288945 -0.50539488 0.23981218 0.18287198
2552 -687 103 -0.76396984 0.58431661 0.27372283 0.2316092
2487 -682 20 -0.6116091 0.22016598 0.75990868 0.10389613
2577 -680 103 -0.64315599 0.76329279 0.061109744 0.20385264
2544 -676 60 -0.53525972 0.76296365 0.36246854 0.13778053
2567 -720 105 -0.70209283 -0.66619074 0.25150687 0.16289003
2578 -680 87 -0.5664137 0.77928436 0.26812568 0.177873
2500 -700 40 -0.6557461 0.17451636 0.73453462 0.081273928
2483 -708 40 -0.65486544 0.046157323 0.75433463 0.089924179
2511 -690 41 -0.66212928 0.35449603 0.66024035 0.091648303
2534 -694 85 -0.92876297 0.27437311 0.24923636 0.19128336
2535 -689 126 -0.68842936 -0.5887447 0.42360917 0.23018329
2579 -719 87 -0.75470895 -0.64065582 0.14133114 0.18973154
2517 -679 41 -0.59679598 0.60020292 0.53253263 0.094272472
2538 -682 85 -0.69139576 0.70312804 0.16608091 0.15142462
2494 -698 12 -0.67479938 -0.092340261 0.73220146 0.13904198
2467 -677 13 -0.53572625 -0.13758411 0.83310735 0.095411219
2483 -709 12 -0.6930517 -0.21651645 0.68760455 0.13851304
2544 -685 89 -0.77145463 0.60805398 0.18742505 0.18032697
2569 -719 90 -0.72313386 -0.6696887 0.1690989 0.16680904
2495 -704 44 -0.65674239 0.16051252 0.73683447 0.078555919
2576 -680 90 -0.57586336 0.77849531 0.24965286 0.1841934
2547 -699 89 -0.93577147 -0.31279743 0.16275612 0.2055912
2526 -686 45 -0.5887652 0.64483684 0.48738176 0.111717
2471 -714 4 -0.62504745 -0.44758663 0.63951695 0.12817033
2512 -695 45 -0.67195338 0.37893414 0.63630772 0.095074981
2545 -702 110 -0.79714978 -0.52523506 0.29779252 0.18189007
2566 -723 112 -0.69685858 -0.69030869 0.19458149 0.12815155
2535 -704 66 -0.80483109 0.19596905 0.5602169 0.18621242
2525 -686 65 -0.58734673 0.72350538 0.36271712 0.11839446
2538 -685 109 -0.92566711 -0.23932256 0.29302761 0.21282029
2569 -679 110 -0.6595999 0.75043178 -0.042192202 0.21959789
2531 -673 64 -0.53774178 0.78354096 0.31128332 0.093801729
2474 -698 -2 -0.5716815 -0.36408019 0.73527265 0.13388115
2488 -715 -2 -0.59077108 -0.58532447 0.55532408 0.16401489
2547 -682 82 -0.64560592 0.74149305 0.18270524 0.16124806
2503 -702 38 -0.6528672 0.17184104 0.73772293 0.081963398
2547 -691 125 -0.52476704 -0.36158314 0.77063429 0.25904256
2530 -673 123 -0.55578852 -0.57445198 0.60091931 0.20948428
2577 -676 83 -0.50103152 0.83650798 0.22186007 0.15910214
2573 -716 83 -0.77716976 -0.6177634 0.11989772 0.19483644
2514 -692 38 -0.64725876 0.39113832 0.65426826 0.099983774
2539 -693 82 -0.78955334 0.55504614 0.26178122 0.19658509
2528 -682 38 -0.56016451 0.67554379 0.47943342 0.10607185
2528 -688 71 -0.62285691 0.69582611 0.35759649 0.13724443
2542 -679 71 -0.57095784 0.77187222 0.27967933 0.14125514
2497 -709 29 -0.63632387 -0.054926574 0.76946414 0.1244166
2553 -703 116 -0.71297753 -0.52467448 0.46516642 0.23058173
2546 -688 115 -0.8437202 -0.14659886 0.51637685 0.26330188
2511 -700 30 -0.63650113 0.097544573 0.76508254 0.13157061
2572 -721 117 -0.64379913 -0.66411346 0.38009995 0.16681442
2513 -688 30 -0.60763919 0.37786528 0.69856453 0.11509477
2557 -709 72 -0.82170975 -0.56667525 0.060599957 0.22074299
2589 -731 81 -0.50136912 -0.86508888 -0.015819971 0.03568444
2474 -720 -5 -0.59130269 -0.67702329 0.43817878 0.12731937
2537 -684 38 -0.52713645 0.74239963 0.41348523 0.13334267
2508 -715 38 -0.6233412 0.025877824 0.78152162 0.10259271
2513 -703 38 -0.6545155 0.23319107 0.71918797 0.11087079
2522 -693 38 -0.62179464 0.51369661 0.59117442 0.11431725
2538 -688 121 -0.77970815 -0.44883773 0.43657738 0.22205327
2535 -690 79 -0.65038329 0.70984787 0.27040273 0.16461791
2545 -680 79 -0.63757372 0.74420899 0.19912992 0.15629946
2560 -710 80 -0.82156777 -0.56856108 0.042009093 0.20457059
2554 -714 103 -0.73844415 -0.64003277 0.21226947 0.14909881
2569 -720 59 -0.5948928 -0.73892343 -0.31637761 0.15623938
2564 -730 104 -0.64073807 -0.76455593 0.070063964 0.057879325
2539 -673 58 -0.51687884 0.80165607 0.3003062 0.11361606
2529 -683 58 -0.56368399 0.71508825 0.41341153 0.1210603
2570 -679 104 -0.6464954 0.75430065 0.11434291 0.21115196
2534 -697 58 -0.60353506 0.60290575 0.52177584 0.15170535
2541 -697 103 -0.85378766 -0.4713124 0.2211591 0.16884482
2553 -687 103 -0.76775038 0.57537872 0.28195512 0.23240024
2480 -712 1 -0.66202378 -0.38456753 0.64329809 0.15035482
2552 -680 45 -0.53110737 0.74760509 0.39876264 0.18193384
2531 -689 44 -0.57546604 0.65850103 0.48499003 0.12473454
2527 -701 43 -0.63876444 0.43967351 0.631401 0.12788448
2483 -699 1 -0.66993302 -0.24471503 0.70093107 0.14194731
2501 -700 32 -0.63883996 0.13920948 0.75664014 0.092687368
2506 -715 33 -0.62195647 -0.077065952 0.77925026 0.11107139
2515 -690 32 -0.6160903 0.41465396 0.66969764 0.11588075
2542 -701 119 -0.78297853 -0.50534546 0.36272663 0.19077148
2559 -710 77 -0.8322053 -0.54936981 0.075014405 0.21077022
2532 -689 76 -0.64111435 0.69816273 0.31865534 0.15526077
2541 -687 118 -0.82357919 -0.34812489 0.44780174 0.24401689
2527 -681 32 -0.51101142 0.75064325 0.41881028 0.12083436
2564 -680 119 -0.55475891 0.58521044 -0.59141469 0.2440756
2551 -681 76 -0.61914915 0.7460109 0.24519806 0.16247241
2482 -712 0 -0.62874067 -0.4809123 0.61107159 0.15534341
2466 -695 0 -0.51336175 -0.38254979 0.76818967 0.11281662
2559 -711 68 -0.80629468 -0.59131604 0.015304303 0.22252192
2523 -684 26 -0.54791743 0.61309725 0.56912053 0.13211365
2534 -677 68 -0.53129125 0.79208493 0.3005513 0.11631927
2514 -695 25 -0.60164529 0.19278419 0.77514976 0.14948831
2527 -689 68 -0.58552456 0.72023511 0.3720516 0.13388231
2501 -705 25 -0.63079715 -0.038657501 0.77498424 0.13169736
2494 -702 24 -0.64997774 0.014243051 0.75981981 0.11893576
2556 -711 110 -0.71726191 -0.63314146 0.29097641 0.1833725
2496 -689 24 -0.60626179 0.22677109 0.76224762 0.10646615
2535 -698 69 -0.60937899 0.65680867 0.44413924 0.17290528
2550 -676 69 -0.53942627 0.80495501 0.2471168 0.15291838
2490 -675 24 -0.59663785 0.25840342 0.75977033 0.091523625
2538 -693 110 -0.83903682 -0.4718399 0.27089524 0.17717381
2571 -721 70 -0.69585288 -0.71635938 0.051165767 0.14237744
2569 -727 111 -0.66397381 -0.73734784 0.12432567 0.091014668
2586 -679 112 -0.66290969 0.69903487 -0.26814374 0.18653642
2557 -685 110 -0.80950671 0.52025312 0.27209485 0.2528916
2484 -711 24 -0.67370707 -0.11860029 0.72941947 0.11840425
2536 -685 69 -0.55280566 0.76180363 0.33772942 0.14931045
2544 -682 47 -0.536538 0.72960615 0.42403042 0.16804112
2550 -688 90 -0.75859815 0.60232347 0.2484657 0.20520665
2571 -721 90 -0.72835702 -0.67458558 0.12012681 0.15578289
2478 -697 3 -0.62091023 -0.27707011 0.73328209 0.13239188
2535 -693 47 -0.57508826 0.63373744 0.51734942 0.14784181
2567 -679 91 -0.56011218 0.79899895 0.21880385 0.18092482
2476 -710 3 -0.6818434 -0.30473742 0.66499972 0.14761169
2517 -702 46 -0.67570335 0.33269313 0.65782994 0.1080918
2542 -699 89 -0.90550625 -0.38745683 0.17301907 0.18547298
2473 -691 -1 -0.55554485 -0.3731766 0.7430405 0.12955165
2519 -687 39 -0.61624485 0.52890652 0.58352399 0.10004923
2564 -707 84 -0.86404294 -0.48776117 0.12457485 0.23760289
2476 -705 -1 -0.60412896 -0.40498129 0.68630773 0.1375418
2545 -675 83 -0.64318466 0.7511552 0.14859128 0.14025457
2525 -683 82 -0.6034146 0.7720657 0.19951309 0.12302248
2505 -696 39 -0.66105527 0.2129648 0.71948034 0.082561441
2495 -707 16 -0.64987588 -0.2160977 0.72867221 0.1441623
2508 -686 16 -0.60736448 0.31467867 0.729442 0.15461589
2503 -697 16 -0.58756179 -0.11527033 0.80092686 0.16759619
2485 -666 16 -0.55140716 0.18691747 0.81302649 0.10995663
2500 -685 12 -0.62540495 0.25916946 0.73600256 0.15119435
2501 -671 12 -0.60824132 0.34755379 0.71361673 0.12329114
2496 -697 12 -0.62634534 -0.23025785 0.74476367 0.15473105
2540 -686 55 -0.55354017 0.69559205 0.45797923 0.15560089
2541 -673 55 -0.52572638 0.79569733 0.30079496 0.1184165
2498 -670 30 -0.5708077 0.36863205 0.7336818 0.083845541
2535 -686 71 -0.57004726 0.75239849 0.33006448 0.14579725
2499 -684 30 -0.62263286 0.28410062 0.72911942 0.080424592
2583 -723 116 -0.63557661 -0.69501412 0.33615136 0.16290459
2557 -701 114 -0.59648192 -0.5161134 0.61468387 0.2567457
2535 -681 113 -0.88678575 -0.32736087 0.32626057 0.21493168
2556 -663 71 -0.53432286 0.829799 0.16103625 0.13611148
2567 -676 113 -0.67909837 0.73364776 -0.024216166 0.21404062
2500 -698 31 -0.62957573 0.17263581 0.75751662 0.089158028
2532 -671 70 -0.53886855 0.80468887 0.24919155 0.1021616
2534 -697 84 -0.93797845 -0.23782921 0.2522572 0.19023842
2512 -681 39 -0.6113019 0.54571182 0.57315665 0.088709906
2535 -684 83 -0.67726308 0.70874912 0.19745742 0.15262517
2557 -711 125 -0.57677943 -0.56194973 0.59290636 0.2091106
2569 -681 85 -0.54924554 0.78902221 0.27526972 0.18375404
2576 -722 85 -0.69979179 -0.71171874 0.061220169 0.14472009
2507 -692 39 -0.67768353 0.23771819 0.69586998 0.089902602
2491 -701 39 -0.6407879 0.15776911 0.75133198 0.083085336
2544 -694 125 -0.71439517 -0.43189821 0.55054832 0.22948594
2569 -717 111 -0.70431113 -0.64873201 0.28825802 0.18827693
2546 -675 67 -0.54110175 0.78536117 0.30069372 0.14325625
2542 -696 110 -0.83536345 -0.45925882 0.30207491 0.1957635
2562 -720 68 -0.72263902 -0.68758309 0.070869446 0.14304718
2490 -679 23 -0.59982449 0.24142823 0.76283872 0.091231421
2550 -685 110 -0.84996825 0.40949586 0.33146203 0.25392368
2573 -677 110 -0.66779846 0.74095595 -0.070919089 0.20617045
2493 -693 24 -0.62718278 0.14344828 0.76554841 0.10649683
2545 -702 68 -0.62445176 0.5970313 0.50360066 0.21857683
2483 -704 24 -0.66431612 -0.049374841 0.74581921 0.11311068
2538 -686 67 -0.5543927 0.75651461 0.34689248 0.15345106
2557 -706 112 -0.71646225 -0.57826442 0.39024627 0.22235493
2547 -682 69 -0.5698871 0.76006126 0.31230673 0.16292016
2483 -697 26 -0.64011943 0.047377832 0.7668131 0.1012213
2532 -684 110 -0.88116086 -0.38623038 0.2727302 0.19189036
2540 -694 70 -0.60076153 0.6946528 0.39565518 0.18039788
2477 -681 25 -0.57334244 0.11185358 0.81164479 0.093436308
2503 -716 27 -0.60181183 -0.24296801 0.76078188 0.13852587
2479 -668 25 -0.54199398 0.20217577 0.81570065 0.093469188
2586 -728 114 -0.53445899 -0.82805789 0.1693334 0.089023665
2549 -711 71 -0.80931598 -0.55747455 0.18501255 0.20005782
2550 -669 69 -0.51845223 0.82235807 0.23438112 0.12370784
2567 -680 111 -0.69668216 0.71425587 -0.066877171 0.23053674
2534 -688 68 -0.5569424 0.75240988 0.35170224 0.14476782
2567 -720 112 -0.69662428 -0.66640639 0.26573899 0.16482499
2540 -677 68 -0.54609978 0.78384727 0.29556459 0.13432734
2534 -684 110 -0.87058789 -0.39941007 0.28731221 0.20257148
2485 -694 24 -0.62688625 0.092451356 0.77360606 0.098663576
2563 -678 111 -0.67493224 0.72339404 0.14549105 0.22588667
2579 -668 111 -0.56729722 0.80062366 -0.1928101 0.17610525
2538 -703 68 -0.76582307 0.36152944 0.53180027 0.20755342
2492 -670 24 -0.57714319 0.30030018 0.75942445 0.085130297
2543 -700 111 -0.80326736 -0.51421934 0.30056617 0.18139331
2488 -682 24 -0.60227835 0.21675836 0.76829469 0.090942286
2571 -672 116 -0.61860538 0.70950842 -0.33752817 0.19429189
2540 -695 73 -0.61063689 0.69667417 0.37652051 0.18801175
2563 -711 117 -0.58786905 -0.60390776 0.53824282 0.22330344
2485 -699 29 -0.63714689 0.10560065 0.76347375 0.10237744
2550 -694 116 -0.73166186 -0.35955557 0.57912934 0.25845903
2560 -715 74 -0.79135698 -0.60720348 0.071120434 0.17813592
2539 -677 115 -0.92419022 -0.039724395 0.37986103 0.24712709
2489 -674 29 -0.57203418 0.28824076 0.76791543 0.0802304
2550 -672 73 -0.5491575 0.80849743 0.21156068 0.13095193
2531 -680 73 -0.55824929 0.78146583 0.27869144 0.1214197
2500 -690 29 -0.61854702 0.17531304 0.76594055 0.087818116
2552 -711 121 -0.6838091 -0.59037387 0.42879343 0.18087077
2537 -678 120 -0.81055099 -0.32724601 0.48571309 0.24848995
2564 -671 122 -0.59015149 0.64061755 -0.49125391 0.20366748
2537 -692 120 -0.77308095 -0.50222284 0.38745072 0.2115365
2533 -687 101 -0.91836447 -0.34151581 0.19993439 0.18052536
2546 -673 59 -0.50653154 0.79872555 0.32475108 0.12900253
2583 -673 103 -0.51387662 0.85786372 -0.00080681819 0.17439665
2490 -677 15 -0.60888535 0.25650921 0.75064081 0.11555945
2532 -683 59 -0.55494422 0.72260457 0.41216439 0.12380625
2561 -718 59 -0.66207296 -0.73072672 -0.1664266 0.16399188
2540 -698 59 -0.60590285 0.57762462 0.54702067 0.18075198
2559 -681 102 -0.66975719 0.71193886 0.21111239 0.21462886
2487 -703 14 -0.68150336 -0.13933881 0.71842736 0.13566458
2560 -721 102 -0.69957268 -0.69154465 0.17989992 0.13348995
2549 -705 101 -0.80199605 -0.54674244 0.2405722 0.17428976
2493 -692 15 -0.66858441 0.058517199 0.74133027 0.11877417
2473 -718 2 -0.63665783 -0.53822643 0.55224919 0.13086447
2568 -721 88 -0.71752977 -0.68467867 0.12793033 0.14628057
2539 -685 86 -0.75494254 0.63106704 0.17837077 0.16823168
2574 -680 86 -0.54941958 0.79250741 0.26470736 0.18357711
2523 -687 42 -0.60210282 0.59936166 0.52748233 0.10215209
2544 -700 86 -0.9204219 -0.34784213 0.17840774 0.19441959
2545 -695 128 -0.67837548 -0.42111155 0.60205626 0.22941563
2511 -697 42 -0.68244267 0.27513665 0.67717928 0.095476136
2525 -674 41 -0.54000986 0.71655238 0.44152257 0.10072295
2500 -708 42 -0.65433854 0.13840792 0.74342734 0.078807548
2553 -678 91 -0.66118866 0.72978115 0.1739223 0.17066735
2508 -702 51 -0.7098453 0.21322586 0.67130792 0.088986278
2558 -708 93 -0.77839434 -0.59818375 0.19046937 0.19667807
2518 -691 50 -0.62703568 0.58517933 0.51418996 0.097777419
2529 -686 91 -0.90194994 0.39788589 0.16784842 0.16900606
2535 -681 50 -0.54059869 0.74267441 0.395206 0.12151316
2470 -709 8 -0.60349864 -0.38110891 0.70038944 0.11854711
2576 -722 103 -0.73221844 -0.66924936 0.12633914 0.16347177
2534 -690 61 -0.56688786 0.69428515 0.44340315 0.14637417
2476 -702 16 -0.63693106 -0.18513325 0.74836117 0.11059994
2477 -715 16 -0.67383999 -0.25191331 0.69460732 0.1160356
2547 -701 102 -0.82554311 -0.50462794 0.25264451 0.19040436
2527 -714 60 -0.70047569 -0.28338227 0.65500259 0.12880655
2527 -701 60 -0.65418863 0.53148669 0.53810704 0.14325103
2503 -685 16 -0.60656291 0.33410701 0.72142494 0.14157791
2574 -682 103 -0.64310151 0.75940162 0.098638408 0.2120129
2558 -691 102 -0.87333202 0.3599509 0.32821727 0.25403202
2553 -682 61 -0.5311414 0.7577526 0.37907758 0.17953826
2495 -671 24 -0.5572741 0.33005512 0.76191151 0.081718445
2501 -700 24 -0.61725473 0.058973253 0.78454995 0.11756591
2488 -710 23 -0.66642326 -0.12718244 0.73464596 0.1190195
2503 -687 24 -0.61381257 0.25294152 0.74783343 0.1005956
2560 -674 114 -0.70515031 0.70872724 0.021648897 0.23258916
2558 -717 114 -0.70622581 -0.647439 0.28647473 0.16457795
2540 -697 113 -0.80121297 -0.51312721 0.30782813 0.17492506
2536 -682 113 -0.88740373 -0.32808354 0.32384527 0.21305369
2491 -697 18 -0.67036068 0.039109942 0.74100399 0.11993442
2495 -684 19 -0.61680853 0.29855248 0.72829509 0.11504655
2504 -714 18 -0.58811659 -0.33909333 0.73425788 0.17019254
2489 -669 19 -0.58765405 0.28197435 0.75838864 0.10244361
2567 -670 124 -0.53517765 0.61694956 -0.57702523 0.17933956
2544 -668 79 -0.60957831 0.78571385 0.10520456 0.12565947
2527 -679 79 -0.59002984 0.77779877 0.21655001 0.11715505
2546 -695 125 -0.70933467 -0.42613 0.56147796 0.23153527
2548 -699 81 -0.93838322 0.19190106 0.28742135 0.2184256
2484 -706 28 -0.65978569 -0.02530553 0.75102758 0.11218722
2553 -706 72 -0.83943707 -0.53890598 0.07018397 0.23205656
2539 -684 114 -0.87916309 -0.31741023 0.35541961 0.22295499
2560 -703 115 -0.52953994 -0.51633382 0.67304295 0.25457972
2499 -683 28 -0.61223805 0.31323144 0.72598255 0.08018662
2570 -678 115 -0.62907088 0.72470695 -0.28119308 0.21336685
2569 -719 116 -0.64878631 -0.652843 0.39098883 0.18081038
2531 -686 71 -0.58724624 0.73965728 0.32870802 0.13559303
2493 -695 28 -0.61737823 0.1302453 0.77580947 0.097770572
2539 -675 71 -0.55503124 0.78678972 0.2700043 0.12244469
2521 -676 28 -0.55214804 0.61551172 0.56238592 0.10413845
2545 -698 89 -0.93592036 -0.29075816 0.19877857 0.20128722
2574 -679 89 -0.5484212 0.8032248 0.23251694 0.17687567
2474 -714 3 -0.6607247 -0.45019993 0.60063541 0.13794927
2521 -684 44 -0.60710603 0.62126166 0.49543542 0.097774476
2586 -723 90 -0.67769158 -0.73445493 0.036194183 0.134955
2535 -682 88 -0.74232745 0.65641081 0.13444281 0.15749884
2508 -694 44 -0.6876061 0.28148744 0.6693002 0.087134004
2496 -703 44 -0.65572846 0.14033565 0.74183965 0.079326399
2552 -703 105 -0.77493489 -0.55460089 0.30313981 0.21085155
2535 -684 104 -0.9695521 -0.045036152 0.24070834 0.20181882
2566 -721 106 -0.71924269 -0.67151684 0.17819919 0.15031417
2572 -679 106 -0.66647649 0.7450344 0.027069084 0.21367384
2502 -683 29 -0.60813981 0.31432357 0.72894901 0.082592092
2542 -683 115 -0.89224541 -0.13215339 0.43177947 0.24303725
2572 -678 116 -0.59363544 0.67308301 -0.44108534 0.20822734
2551 -704 74 -0.92709994 -0.31217217 0.20744701 0.23405994
2487 -705 29 -0.6521889 0.014889142 0.75791025 0.10962989
2553 -700 116 -0.64342594 -0.50302988 0.57703036 0.25577685
2498 -695 29 -0.61765558 0.17182897 0.76744789 0.090472765
2578 -725 75 -0.5917629 -0.80562204 0.028104201 0.10487334
2571 -719 117 -0.64453137 -0.65064585 0.40154612 0.17801425
2538 -674 73 -0.54817337 0.80268264 0.23496062 0.11842464
2531 -685 73 -0.58667743 0.75269657 0.29876 0.14226519
2543 -681 56 -0.54280853 0.72656667 0.42125955 0.15413211
2558 -726 56 -0.65020943 -0.75503492 0.084557623 0.10204247
2539 -698 98 -0.86376363 -0.45688695 0.21252464 0.15996929
2477 -696 12 -0.64955616 -0.15784021 0.7437495 0.12623097
2557 -716 99 -0.72092956 -0.66875529 0.18173312 0.14460875
2532 -705 55 -0.68101335 0.29561961 0.66994768 0.16105309
2575 -681 99 -0.61534876 0.77477354 0.14516167 0.20109811
2465 -680 12 -0.53280187 -0.15703107 0.83154273 0.093108892
2480 -710 12 -0.67534769 -0.25259665 0.69289279 0.13289285
2536 -693 55 -0.56306267 0.66662014 0.48844454 0.15634181
2548 -687 98 -0.80740166 0.54110676 0.23517235 0.22089553
2530 -679 76 -0.57737285 0.7789008 0.24485518 0.1198279
2508 -693 35 -0.64920551 0.2234357 0.72705483 0.083357759
2505 -679 35 -0.63082469 0.4036456 0.66266918 0.078959554
2536 -694 76 -0.65910482 0.67471391 0.33217767 0.17580453
2552 -672 76 -0.54759657 0.81807321 0.17576775 0.13488173
2496 -715 35 -0.64211935 0.045096915 0.76527703 0.10073572
2570 -717 77 -0.76780003 -0.62659359 0.13365452 0.17218325
2547 -694 118 -0.73411882 -0.40985727 0.54137462 0.24819583
2561 -711 119 -0.61711907 -0.59160471 0.51881397 0.2179067
2498 -703 35 -0.64067745 0.14958921 0.7530973 0.08611802
2553 -682 118 -0.77371997 0.58075094 0.25315163 0.27370629
2577 -675 119 -0.57237428 0.6117425 -0.54603916 0.17293593
2532 -689 95 -0.93462962 -0.28569436 0.21176949 0.1715904
2510 -702 54 -0.72679901 0.2368499 0.64472115 0.090377107
2559 -710 96 -0.7399444 -0.63866121 0.21117318 0.19093353
2552 -687 55 -0.53220999 0.68897098 0.49200752 0.19346048
2592 -679 97 -0.51459211 0.85645574 0.040969182 0.1780178
2533 -695 54 -0.58917838 0.6355083 0.49899688 0.15322697
2471 -706 10 -0.60444456 -0.33422935 0.72314417 0.1211784
2562 -684 96 -0.61835939 0.75025105 0.23399788 0.20941387
2577 -733 116 -0.54533416 -0.83066839 0.11225261 0.047305021
2571 -676 116 -0.60205758 0.69921166 -0.38552532 0.20491783
2544 -671 70 -0.53111601 0.81097919 0.24541494 0.11694044
2539 -695 114 -0.81204623 -0.49187434 0.31407091 0.17453732
2525 -693 70 -0.61653352 0.68416119 0.38962805 0.14114583
2555 -713 115 -0.70974618 -0.62843621 0.31832078 0.175523
2525 -679 70 -0.57376498 0.76289403 0.29797038 0.10270418
2565 -718 71 -0.74569666 -0.66487986 0.04325771 0.16748576
2551 -684 115 -0.78722775 0.49871311 0.36270875 0.27132043
2493 -710 37 -0.64343715 0.12660851 0.75495625 0.089164294
2548 -704 78 -0.88391584 -0.4508082 0.1243573 0.21412237
2500 -698 37 -0.64365149 0.18166848 0.7434442 0.081631325
2530 -685 77 -0.6017459 0.75208229 0.26883841 0.13926132
2512 -688 37 -0.6399945 0.39404723 0.65964669 0.098829098
2543 -684 119 -0.74161601 -0.35271773 0.57061017 0.26201937
2563 -675 120 -0.62739474 0.63483781 -0.45095098 0.2250582
2564 -718 122 -0.61362869 -0.60817987 0.50356436 0.1751878
2551 -700 120 -0.67564088 -0.45786667 0.57781267 0.24665476
2543 -674 77 -0.59085512 0.78808898 0.17264375 0.13099359
2481 -698 22 -0.67212588 -0.014991404 0.74028516 0.10852167
2481 -710 22 -0.67343456 -0.12103557 0.72927105 0.1173783
2580 -730 110 -0.55856019 -0.82178378 0.11261429 0.059175633
2560 -717 67 -0.77393037 -0.62684721 0.089969091 0.16800368
2558 -678 67 -0.52005935 0.78589499 0.33452567 0.1643803
2581 -677 109 -0.65730858 0.74115789 -0.13649325 0.1966062
2534 -691 107 -0.85855478 -0.45184892 0.24231437 0.16955952
2538 -698 67 -0.57440174 0.67857337 0.45782194 0.17682916
2467 -681 22 -0.55787724 -0.012082392 0.82983559 0.092736386
2555 -684 108 -0.8050521 0.5443306 0.23578654 0.24342407
2541 -686 67 -0.56321722 0.74146658 0.36471048 0.15965863
2516 -682 23 -0.53908235 0.62150216 0.56844115 0.12984693
2558 -711 109 -0.71849018 -0.62136316 0.31253755 0.19123086
2576 -728 126 -0.5337429 -0.79195333 0.29652715 0.058586225
2535 -694 82 -0.77852559 0.55834681 0.28661266 0.18893094
2499 -703 38 -0.64244276 0.1559896 0.75028968 0.080075465
2546 -692 124 -0.62847477 -0.37351906 0.6822778 0.24934137
2571 -677 83 -0.51235187 0.83283556 0.20947655 0.16338041
2509 -679 38 -0.63994521 0.48693031 0.59444839 0.082046263
2508 -692 38 -0.66621578 0.25918868 0.69926947 0.088776335
2543 -683 82 -0.67214268 0.71716779 0.18410482 0.1673357
2563 -715 83 -0.7793954 -0.61759973 0.10542046 0.17504895
2494 -714 38 -0.64419907 0.075565882 0.76111579 0.097137615
2533 -708 58 -0.72789019 0.006027217 0.68566722 0.17480069
2471 -711 14 -0.63197577 -0.2970843 0.71578455 0.11691131
2473 -698 14 -0.6108796 -0.18317944 0.77024114 0.11405946
2549 -717 101 -0.73371089 -0.65025496 0.19707051 0.12614582
2541 -701 101 -0.82179499 -0.52682859 0.21703605 0.15983328
2567 -681 102 -0.60968095 0.76942885 0.19044271 0.21152262
2534 -695 58 -0.59677142 0.6115191 0.51952702 0.15010823
2550 -690 101 -0.86145478 0.40592015 0.30516312 0.23237371
2543 -684 59 -0.55841577 0.70676643 0.43434194 0.16055451
2554 -706 126 -0.57773113 -0.51272249 0.63509244 0.21838784
2588 -734 86 -0.50676268 -0.86175722 -0.023794165 0.033591725
2560 -713 85 -0.78577513 -0.61342227 0.079187244 0.1737029
2525 -680 40 -0.56688315 0.68192911 0.46218637 0.1029738
2503 -687 39 -0.67298615 0.32355866 0.66513121 0.076852478
2493 -710 39 -0.65434772 0.11718794 0.74705815 0.08991608
2539 -689 125 -0.71948004 -0.48563129 0.49649858 0.23874672
2537 -694 84 -0.9078607 0.3398101 0.24559736 0.198745
2500 -699 39 -0.64892775 0.18092895 0.7390247 0.081209585
2550 -684 84 -0.6738531 0.7064324 0.21650703 0.18021396
2545 -700 101 -0.84414417 -0.48100999 0.23674899 0.18427785
2484 -672 15 -0.57464361 0.1869743 0.79675931 0.11805385
2570 -721 102 -0.7320863 -0.65936428 0.17113812 0.16750263
2548 -683 59 -0.52766216 0.7415303 0.41437346 0.17068636
2484 -699 15 -0.6780163 -0.08199013 0.73045987 0.12725101
2560 -677 102 -0.68321413 0.70551509 0.18832654 0.2063766
2534 -684 101 -0.97330046 -0.097381175 0.20785345 0.19457607
