# .PCD v0.7 - Point Cloud Data file format
VERSION 0.7
FIELDS x y z normal_x normal_y normal_z curvature
SIZE 4 4 4 4 4 4 4
TYPE F F F F F F F
COUNT 1 1 1 1 1 1 1
WIDTH 795
HEIGHT 1
VIEWPOINT 0 0 0 1 0 0 0
POINTS 795
DATA ascii
2682 -193 105 -0.89235079 0.13695575 -0.43006194 0.11198264
2684 -207 105 -0.89041573 0.086211264 -0.44690874 0.1041276
2718 -217 62 -0.7026456 0.01298348 -0.71142149 0.090741836
2722 -231 62 -0.68476278 0.03462493 -0.72794294 0.08104381
2735 -246 62 -0.63478273 0.053342 -0.7708472 0.083723687
2728 -286 62 -0.69501108 0.39374346 -0.60160261 0.13099988
2681 -220 104 -0.81486899 0.22446325 -0.53442007 0.093691826
2663 -258 103 -0.66512883 0.15903175 -0.72959757 0.077061504
2673 -286 103 -0.76190025 0.1407499 -0.63221633 0.12104549
2671 -272 103 -0.71466398 0.12467214 -0.68826759 0.098605931
2726 -259 62 -0.65148568 0.086630993 -0.75369841 0.07710433
2730 -237 106 -0.81862336 -0.42729431 -0.38376477 0.15011287
2725 -272 62 -0.66288239 0.23201759 -0.71186709 0.10636223
2673 -299 103 -0.79130626 0.17773141 -0.58501786 0.13175395
2655 -280 145 -0.84019321 -0.076507188 -0.53686315 0.10568482
2650 -293 145 -0.84436238 -0.078263856 -0.53002542 0.11086784
2685 -277 105 -0.67694074 0.17808928 -0.71416777 0.095913656
2619 -279 230 -0.95430809 -0.013399929 0.29852387 0.22043048
2688 -304 105 -0.73951393 0.18182085 -0.64812058 0.12755804
2627 -273 186 -0.94380081 0.0029087791 -0.33050185 0.15153611
2630 -286 186 -0.92520607 0.0029963821 -0.3794533 0.13877581
2733 -286 61 -0.69267213 0.34576529 -0.63297051 0.12123482
2689 -291 105 -0.70371711 0.1731772 -0.68905139 0.1073271
2687 -157 189 -0.90431118 0.37908563 0.1962533 0.1034816
2695 -171 190 -0.93500906 0.24406609 0.25727364 0.11870368
2672 -263 104 -0.65482444 0.16580057 -0.73737049 0.074623071
2702 -198 105 -0.81157476 0.25670996 -0.5248298 0.13092633
2623 -266 230 -0.92876953 0.18165225 0.32309389 0.21037287
2656 -254 145 -0.80106384 0.28978437 -0.52375728 0.11801899
2686 -184 189 -0.97922719 0.040202204 0.1987409 0.10059106
2735 -246 61 -0.63431317 0.05755363 -0.77093089 0.083490729
2621 -252 230 -0.81381357 0.52387035 0.25153002 0.17167117
2686 -203 146 -0.99766964 -0.066594347 -0.014852154 0.093725584
2641 -247 187 -0.90959305 0.21342535 -0.35649708 0.16420609
2687 -216 146 -0.99642015 -0.072662033 -0.043209836 0.087877862
2721 -231 60 -0.68590325 0.016472418 -0.72750634 0.078138284
2707 -212 105 -0.83211261 0.047489826 -0.55256981 0.12471725
2729 -273 61 -0.65202886 0.20888656 -0.72885174 0.09874592
2625 -259 186 -0.94902366 0.062812455 -0.30888301 0.1553054
2723 -258 60 -0.65277451 0.088302143 -0.7523883 0.073656358
2685 -237 105 -0.73642331 0.21199323 -0.64244807 0.087400466
2639 -241 231 -0.55978817 0.77673382 0.28865492 0.18348709
2653 -267 145 -0.82813388 -0.043994192 -0.55880129 0.11811075
2713 -165 237 -0.61264837 0.40628865 0.67793185 0.13037454
2686 -189 146 -0.99758595 0.043899599 -0.053806338 0.09602008
2682 -175 146 -0.99609053 0.087702796 -0.010572841 0.089639053
2711 -226 106 -0.83285749 -0.07368087 -0.54856128 0.10496928
2736 -261 42 -0.6265102 0.24801534 -0.73890013 0.092637435
2724 -287 41 -0.52500975 0.6083383 -0.59522206 0.12550578
2747 -276 42 -0.55869108 0.42503205 -0.7121883 0.082319133
2735 -245 102 -0.81788498 -0.49803305 -0.28814453 0.18903092
2647 -284 143 -0.83941799 -0.081166394 -0.5373913 0.10586818
2684 -308 102 -0.72245324 0.27846518 -0.63286525 0.12785697
2735 -267 57 -0.64099431 0.16510198 -0.7495783 0.094810687
2687 -281 102 -0.68631136 0.20021695 -0.69920659 0.100915
2688 -268 101 -0.63538992 0.18584433 -0.74949419 0.073717564
2644 -257 142 -0.84435111 -0.010587832 -0.53568554 0.1392189
2682 -295 102 -0.72469896 0.18648617 -0.66335088 0.11718345
2736 -281 58 -0.69415265 0.32129785 -0.64414269 0.11079584
2641 -297 143 -0.85250169 -0.10209022 -0.51265818 0.12229922
2740 -240 57 -0.57681906 0.094178975 -0.81142473 0.081622101
2739 -254 57 -0.62916929 0.070772059 -0.77403963 0.079973683
2713 -292 58 -0.58212352 0.66370827 -0.46970576 0.15469354
2648 -271 143 -0.82976866 -0.073489361 -0.55324787 0.11663906
2702 -215 100 -0.83925277 -0.034548242 -0.54264277 0.099680021
2700 -228 101 -0.7827763 0.095762782 -0.61489081 0.096726865
2672 -178 142 -0.9901861 0.13443001 -0.038211349 0.081524529
2675 -205 142 -0.99425709 -0.10519322 -0.019681672 0.077352427
2682 -220 143 -0.99498391 0.026974585 -0.096329242 0.098456979
2669 -191 142 -0.99929327 0.0089616189 -0.036505096 0.068503127
2704 -201 100 -0.77231163 0.21737686 -0.59689373 0.11829872
2718 -292 70 -0.67464387 0.40008521 -0.62031239 0.13374808
2704 -209 71 -0.7284233 0.088415094 -0.67939854 0.075604632
2715 -237 71 -0.72135723 0.041195042 -0.69133693 0.074970461
2702 -223 71 -0.72346926 0.03479344 -0.68947923 0.06440632
2726 -252 71 -0.67602438 0.051009368 -0.73511159 0.084542058
2715 -264 70 -0.6589734 0.11735556 -0.74295479 0.074576862
2709 -277 70 -0.66158545 0.30703861 -0.68412858 0.099607386
2615 -276 211 -0.91926247 0.38745326 -0.06954474 0.17941475
2653 -265 126 -0.79638565 0.055971634 -0.60219359 0.10386404
2662 -292 127 -0.80801958 -0.020636439 -0.58879411 0.10615221
2632 -284 168 -0.89440376 -0.090746507 -0.43795794 0.15470663
2660 -305 127 -0.8119235 0.010042936 -0.58367747 0.1183573
2686 -201 127 -0.95989186 0.14098625 -0.24234404 0.11470918
2684 -214 127 -0.97486478 0.020227836 -0.22187744 0.11825249
2634 -271 168 -0.89399123 0.0042885621 -0.44806397 0.1460374
2689 -182 170 -0.98779035 -0.0011953409 0.15578456 0.10023168
2736 -271 42 -0.60939664 0.40421131 -0.68209165 0.099828415
2665 -279 127 -0.80248672 0.031555876 -0.59583497 0.10693838
2713 -211 87 -0.72162658 0.12232074 -0.68139029 0.098726273
2682 -195 170 -0.9845885 -0.071124785 0.15977082 0.096675977
2677 -187 127 -0.97585028 0.10826739 -0.18972164 0.088365741
2715 -238 87 -0.7572726 0.027603727 -0.65251535 0.081137881
2703 -291 87 -0.64242578 0.28030416 -0.71324521 0.081974484
2629 -258 167 -0.89770788 0.004340135 -0.44056976 0.16217117
2714 -150 217 -0.6852392 0.42785409 0.58939642 0.12194732
2625 -297 167 -0.85408586 -0.24967638 -0.45628846 0.1832259
2748 -259 42 -0.57763612 0.2424721 -0.77945089 0.076953359
2754 -287 42 -0.53394544 0.41200182 -0.73834735 0.086858749
2757 -246 42 -0.50962323 0.2399739 -0.82625467 0.057000186
2610 -249 210 -0.88823837 0.45833173 -0.031058049 0.15480235
2685 -228 128 -0.89797497 0.25403583 -0.35931426 0.11801977
2703 -223 86 -0.76825905 0.019161185 -0.63985223 0.077192627
2699 -277 87 -0.63186532 0.25087282 -0.73335469 0.06558679
2613 -289 211 -0.92654908 0.35624653 -0.120811 0.20894356
2681 -168 170 -0.98331094 0.12673597 0.13052785 0.090740733
2697 -176 216 -0.84108418 0.266752 0.4705537 0.13723038
2614 -263 210 -0.96166599 0.26649645 -0.064638838 0.16548359
2705 -163 217 -0.78801912 0.33369955 0.51736867 0.13378231
2713 -251 87 -0.71560025 0.064383447 -0.69553649 0.070320532
2690 -303 86 -0.62586898 0.38141659 -0.68030095 0.13194239
2688 -200 99 -0.84530038 0.13565634 -0.516783 0.10221587
2679 -292 99 -0.72842288 0.21352255 -0.65100563 0.11666321
2739 -253 57 -0.6216687 0.064590774 -0.78061265 0.076389618
2689 -214 99 -0.84651518 0.021647654 -0.53192431 0.093547694
2730 -239 57 -0.62383556 0.049404196 -0.77999252 0.06737332
2674 -278 99 -0.73388487 0.17355357 -0.65672839 0.10856679
2681 -266 99 -0.65631723 0.18348755 -0.73183334 0.073633902
2672 -305 98 -0.75511891 0.36476001 -0.5447436 0.17493503
2690 -227 99 -0.76501876 0.18741751 -0.61613387 0.088799708
2732 -266 57 -0.64662218 0.16478808 -0.74479842 0.097632319
2738 -280 57 -0.68805277 0.32086173 -0.65086943 0.11087746
2732 -293 57 -0.67715859 0.44511047 -0.5859462 0.12828112
2607 -262 231 -0.89362317 0.36277497 0.26425752 0.17777625
2602 -244 230 -0.86858171 0.42171726 0.26023135 0.14749067
2605 -278 231 -0.93316644 0.27387419 0.23279436 0.19576189
2608 -283 187 -0.90900916 0.25192755 -0.33201626 0.18377861
2611 -279 232 -0.92713922 0.17009804 0.33388573 0.21202354
2608 -248 231 -0.82871783 0.4886384 0.27287209 0.1639535
2710 -178 239 -0.65272301 0.29286504 0.69870079 0.15323529
2615 -264 232 -0.89519417 0.38071328 0.23170003 0.18785547
2679 -165 191 -0.94962007 0.22467636 0.21850008 0.09743464
2608 -268 187 -0.85780138 0.43340242 -0.27629551 0.16782635
2690 -182 192 -0.96102327 0.0076840864 0.27636069 0.11818085
2726 -234 53 -0.62333918 0.029182455 -0.78140688 0.073655531
2737 -248 53 -0.61855549 0.061248034 -0.78335035 0.066407397
2746 -290 53 -0.65300381 0.3746886 -0.65817511 0.1174972
2724 -260 53 -0.66118884 0.15037903 -0.73499358 0.090829194
2739 -276 53 -0.65560907 0.36489362 -0.66108197 0.10650846
2638 -253 159 -0.90361673 0.051318806 -0.4252567 0.16666876
2717 -276 78 -0.655765 0.19448443 -0.7294848 0.077202708
2623 -250 245 -0.76235843 0.40454677 0.50512528 0.17696248
2672 -290 119 -0.77262717 0.035377659 -0.63387358 0.11584096
2683 -202 160 -0.98082608 -0.1548765 0.11829425 0.093543448
2720 -175 251 -0.54281288 0.40340868 0.73662454 0.15299018
2686 -189 160 -0.99538755 -0.01998568 0.093830071 0.098071635
2715 -290 79 -0.64446276 0.26490307 -0.71728241 0.096036717
2701 -302 79 -0.59336603 0.56862187 -0.56972456 0.13436997
2721 -235 77 -0.75229526 0.0080199428 -0.65877718 0.080131501
2637 -293 160 -0.89163029 -0.070168376 -0.44729385 0.15037611
2678 -174 159 -0.99237704 0.091306314 0.082771182 0.090201192
2724 -249 78 -0.72615767 0.028258888 -0.68694717 0.079751603
2625 -263 246 -0.75277901 0.12038054 0.64717257 0.17916
2692 -223 118 -0.85535312 0.17395736 -0.48796502 0.11852697
2690 -196 117 -0.90924275 0.1957953 -0.36734438 0.12340406
2695 -180 205 -0.90824699 0.1677714 0.38332775 0.12465701
2626 -257 203 -0.89335603 0.42468506 -0.1468247 0.1526449
2735 -264 78 -0.71983701 0.11860032 -0.68393612 0.13689351
2663 -261 118 -0.73972636 0.17728257 -0.64913458 0.089059182
2640 -266 159 -0.90231889 -0.086481228 -0.4223052 0.14450981
2625 -284 204 -0.97232211 0.11609533 -0.2027598 0.16448063
2671 -276 119 -0.75667614 0.077211112 -0.64921468 0.10607485
2711 -220 77 -0.75501353 -0.0096889446 -0.65563762 0.071994551
2623 -270 203 -0.94868368 0.24960354 -0.194158 0.14765067
2697 -167 205 -0.85432762 0.39685559 0.33560383 0.11768116
2694 -210 118 -0.92000163 0.096804418 -0.37977087 0.12000325
2672 -303 120 -0.80151069 0.047577959 -0.59608465 0.11593169
2621 -277 246 -0.74532557 -0.095705524 0.65979564 0.1796605
2645 -281 160 -0.89673233 -0.13857512 -0.42031893 0.14775966
2685 -208 105 -0.88824582 0.084197663 -0.45158619 0.10040558
2718 -231 63 -0.70979178 0.019258514 -0.70414829 0.07795763
2730 -287 65 -0.68820465 0.3241823 -0.64906102 0.11776776
2670 -261 106 -0.69062912 0.1755351 -0.70158315 0.076797061
2719 -258 64 -0.6467061 0.085140966 -0.75797242 0.071362503
2693 -236 106 -0.73253912 0.1818236 -0.65599281 0.093024522
2677 -275 106 -0.72360712 0.15310428 -0.67301702 0.09766604
2664 -300 107 -0.80615252 0.15963088 -0.56976843 0.15070714
2708 -298 65 -0.55464679 0.74760056 -0.36532238 0.16062926
2723 -272 64 -0.65585101 0.21774445 -0.7228049 0.10107247
2672 -288 107 -0.79430163 0.087216854 -0.6012305 0.11640687
2678 -194 105 -0.88774133 0.13679622 -0.43954757 0.11138871
2682 -221 106 -0.83501732 0.22121504 -0.5037955 0.095581472
2735 -246 64 -0.64039344 0.047118608 -0.76660031 0.085641794
2719 -224 57 -0.67007434 0.0071101175 -0.74225992 0.078612782
2726 -292 57 -0.65948892 0.5057134 -0.55617279 0.13118264
2741 -253 57 -0.61836433 0.064113006 -0.78327203 0.079463281
2724 -265 57 -0.66127443 0.19603918 -0.7240752 0.09496925
2737 -280 57 -0.68652874 0.32175827 -0.65203518 0.10927713
2729 -238 57 -0.62408215 0.054262273 -0.77947223 0.068618417
2660 -306 129 -0.8274256 -0.049055543 -0.55942869 0.12784672
2594 -268 209 -0.89345098 0.44730073 -0.040834382 0.16491665
2689 -173 126 -0.71962243 0.59841567 -0.35219616 0.11511774
2611 -264 169 -0.89941084 0.22447906 -0.37505904 0.17519844
2687 -203 126 -0.9583872 0.11464351 -0.26143971 0.11361869
2694 -166 171 -0.94632894 0.30859327 0.096082181 0.11065491
2676 -217 126 -0.93031722 0.19838662 -0.30846822 0.10572695
2711 -156 214 -0.7491675 0.4391216 0.4959034 0.13271779
2720 -141 215 -0.54250497 0.69953465 0.46512327 0.13572669
2682 -187 126 -0.94093037 0.22654375 -0.25165045 0.10432754
2637 -252 170 -0.89548081 -0.13069119 -0.4254809 0.15464975
2696 -181 172 -0.98776835 0.040175017 0.15066381 0.11921269
2687 -150 170 -0.90186191 0.42868048 0.05364836 0.1219209
2677 -177 159 -0.99403572 0.062253363 0.089539781 0.088346444
2643 -253 160 -0.89264983 -0.014176037 -0.45052797 0.16015527
2703 -163 160 -0.53498304 0.79868883 -0.27548015 0.15627301
2697 -155 205 -0.81282413 0.50050205 0.29801786 0.12235019
2621 -298 160 -0.78205258 -0.55061752 -0.29191458 0.194475
2623 -260 203 -0.94429058 0.288822 -0.15778859 0.14521432
2615 -291 204 -0.8956784 0.37631658 -0.23695163 0.18509534
2688 -186 206 -0.93649828 0.10127641 0.33572927 0.12334437
2634 -268 160 -0.90316576 -0.098371066 -0.41786942 0.16048415
2622 -275 204 -0.94728601 0.24766664 -0.20324968 0.15040241
2707 -172 207 -0.84475249 0.36434761 0.39197457 0.13113503
2634 -284 160 -0.89221531 -0.11590005 -0.43648493 0.15463851
2682 -193 160 -0.99687451 -0.0070685083 0.07868439 0.086551726
2723 -179 241 -0.6046378 0.38606474 0.69668287 0.15553279
2724 -244 110 -0.83835435 -0.25229001 -0.48323053 0.17272431
2694 -193 150 -0.99838048 -0.056823842 0.0027404563 0.10335352
2636 -282 237 -0.88534266 -0.035655867 0.46356985 0.21157123
2699 -198 196 -0.88505274 -0.29001224 0.36410791 0.11549343
2699 -185 195 -0.94153416 0.047676619 0.33352718 0.12373458
2706 -214 108 -0.85104138 0.033901852 -0.52400309 0.12065747
2691 -282 110 -0.64570898 0.18742143 -0.74022508 0.10975648
2733 -295 69 -0.6549474 0.24625061 -0.71442604 0.1309661
2642 -290 195 -0.94324869 -0.16834804 -0.28625306 0.15080203
2683 -308 110 -0.77514046 0.12927908 -0.61842078 0.14877033
2639 -262 194 -0.94073522 0.1824172 -0.28590426 0.14895681
2693 -207 150 -0.99844152 -0.054307763 -0.012854036 0.10922737
2701 -228 108 -0.81398761 0.081768751 -0.57509828 0.11250769
2682 -219 150 -0.99938405 -0.02839967 -0.020618159 0.085855335
2733 -240 67 -0.6434499 0.068921782 -0.76237923 0.10531299
2663 -273 151 -0.83655566 -0.092307195 -0.54004997 0.11440358
2724 -267 68 -0.65451205 0.13812582 -0.74332708 0.084748924
2712 -201 108 -0.69343686 0.41374362 -0.58988267 0.15871795
2662 -300 152 -0.84680027 -0.052004799 -0.52936268 0.11859468
2665 -286 151 -0.84550452 -0.052132688 -0.53141725 0.11381562
2650 -256 237 -0.50810814 0.60113221 0.61681926 0.1912702
2733 -281 69 -0.65796816 0.15809718 -0.73626298 0.096513763
2678 -267 109 -0.70170802 0.17644401 -0.69027048 0.080953971
2693 -170 194 -0.92266029 0.27307609 0.27226356 0.11085054
2745 -255 68 -0.62618411 0.073311545 -0.77622092 0.1372751
2654 -258 150 -0.84617472 0.11657453 -0.51999873 0.12640752
2689 -295 110 -0.7205075 0.099562854 -0.68626243 0.12380387
2669 -275 115 -0.74853241 0.08075954 -0.65816188 0.10565087
2682 -235 115 -0.77590537 0.26742548 -0.57136202 0.092937037
2722 -287 74 -0.62736291 0.24259973 -0.73997378 0.10455319
2710 -231 72 -0.72242922 0.034243513 -0.6905964 0.071466304
2694 -209 115 -0.90656674 0.091007307 -0.41213396 0.11945676
2670 -288 116 -0.77773577 0.051558536 -0.62647337 0.10645006
2730 -247 73 -0.69090116 0.028539058 -0.72238582 0.09169624
2727 -260 74 -0.67860091 0.079728849 -0.73016715 0.095145151
2669 -302 116 -0.79988366 0.0092343027 -0.60008395 0.12097528
2688 -222 115 -0.84944248 0.17785771 -0.4968037 0.1164006
2661 -315 116 -0.78204715 0.19803707 -0.59091753 0.13690712
2715 -300 74 -0.65284139 0.33293462 -0.68040627 0.14688149
2723 -273 74 -0.6543026 0.14095667 -0.74298006 0.083672442
2708 -301 62 -0.50189966 0.81660873 -0.2850385 0.16424803
2667 -304 104 -0.79056323 0.2483798 -0.55974752 0.16812842
2677 -291 104 -0.76931304 0.15378065 -0.6200878 0.11200854
2675 -210 102 -0.87525606 0.10109281 -0.47297695 0.11120992
2678 -278 104 -0.71809667 0.14738964 -0.68015701 0.097068742
2726 -276 62 -0.69260716 0.28715116 -0.66169447 0.11559884
2736 -249 62 -0.64552206 0.043071341 -0.76252615 0.084699638
2687 -225 103 -0.79436237 0.18509777 -0.57855612 0.094233185
2722 -262 61 -0.66173524 0.13389057 -0.73768538 0.082588114
2680 -197 102 -0.88045686 0.11573076 -0.45978481 0.10698622
2725 -235 61 -0.66111815 0.035851475 -0.74942476 0.079996198
2682 -238 103 -0.71361214 0.20719311 -0.66920006 0.081261203
2675 -264 103 -0.68155444 0.17347373 -0.71090817 0.071823694
2734 -290 62 -0.68297309 0.37589642 -0.62629831 0.12514794
2623 -294 165 -0.87499326 -0.23374616 -0.42396867 0.18330051
2611 -261 206 -0.95739591 0.28124017 -0.065552592 0.16445358
2706 -141 213 -0.67875552 0.57533473 0.45637807 0.12305227
2659 -278 126 -0.80002749 0.031688634 -0.59912592 0.10527719
2694 -300 82 -0.62387311 0.48707169 -0.61118197 0.12653325
2678 -202 168 -0.97937834 -0.12624173 0.15773711 0.090967007
2672 -173 168 -0.98588628 0.11351089 0.12305903 0.087426588
2617 -266 165 -0.90434581 0.14629906 -0.40094289 0.17362887
2682 -188 168 -0.98923379 -0.016017696 0.14546461 0.09789104
2717 -246 82 -0.72397619 0.042501613 -0.68851435 0.079072282
2665 -293 126 -0.80841976 0.018312998 -0.58832145 0.10975133
2705 -216 82 -0.76309389 0.022848343 -0.64588368 0.084982075
2710 -231 82 -0.7337299 0.050790701 -0.67754018 0.067390487
2690 -225 127 -0.93402159 0.13705741 -0.32987717 0.1374969
2697 -160 169 -0.92105114 0.38459954 0.061221268 0.12416515
2622 -281 165 -0.8974154 -0.068460569 -0.43584251 0.16705456
2700 -287 82 -0.63776088 0.3052074 -0.7071842 0.090187401
2696 -211 127 -0.95773488 0.076161049 -0.27738672 0.13936231
2687 -197 127 -0.95259613 0.178331 -0.24649258 0.11952879
2687 -271 82 -0.64666027 0.25514668 -0.71883982 0.075783946
2658 -306 126 -0.81147838 0.019598067 -0.58405375 0.11299306
2601 -288 206 -0.93489462 0.33422923 -0.11942677 0.19487482
2705 -156 213 -0.77795517 0.44010144 0.44843784 0.13416302
2656 -264 126 -0.78499085 0.117006 -0.60835755 0.10478354
2608 -275 206 -0.91026819 0.39857873 -0.11201275 0.1754557
2706 -170 213 -0.81773496 0.37106034 0.44002706 0.13430208
2625 -256 194 -0.94898742 0.20398778 -0.24044089 0.14690787
2707 -201 200 -0.6975289 -0.56079596 0.4460507 0.12628631
2641 -308 151 -0.79538 -0.49675891 -0.34727693 0.15537581
2614 -292 235 -0.79540825 -0.33137348 0.50746161 0.21277
2699 -169 199 -0.88994133 0.29530537 0.34756187 0.11312498
2687 -204 153 -0.98440152 -0.15340374 0.086145282 0.092467658
2624 -286 194 -0.92691046 0.13718113 -0.34931108 0.15417401
2688 -220 153 -0.99150097 -0.12557553 0.034007955 0.097978622
2640 -292 151 -0.86657751 -0.14798719 -0.47659546 0.12750635
2724 -177 243 -0.60459656 0.42162493 0.6757924 0.14840278
2628 -271 195 -0.9466508 0.14934099 -0.28556871 0.13878907
2635 -261 150 -0.8792783 -0.014292104 -0.47609386 0.15391661
2703 -185 199 -0.93528813 0.10861876 0.33680567 0.13162223
2622 -262 235 -0.86461878 0.24188578 0.4403699 0.20046054
2682 -188 152 -0.99893242 -0.014416439 0.043887217 0.084200032
2642 -277 151 -0.8710385 -0.1107249 -0.47857291 0.13876185
2619 -278 235 -0.90729028 -0.036285367 0.41893637 0.21802445
2683 -205 109 -0.91324455 0.083055817 -0.39885592 0.10348589
2690 -193 110 -0.88502997 0.18575804 -0.42686754 0.11594382
2735 -245 67 -0.64029795 0.036338829 -0.76726663 0.10522071
2725 -230 67 -0.68762708 0.054071501 -0.72404784 0.090251103
2685 -272 109 -0.66608447 0.1713531 -0.7259267 0.09035939
2683 -258 109 -0.63525558 0.19578125 -0.74707437 0.082466155
2717 -216 67 -0.71972269 0.048699122 -0.69255149 0.08957085
2728 -285 67 -0.67399436 0.3009418 -0.67465967 0.1161553
2724 -271 67 -0.65476853 0.17987649 -0.73411351 0.093531825
2687 -232 109 -0.78119612 0.23709279 -0.57751161 0.095958114
2674 -284 109 -0.7792263 0.084669538 -0.62099719 0.11681779
2722 -298 67 -0.66545188 0.49953398 -0.55465263 0.1647239
2734 -258 67 -0.65470296 0.077635467 -0.75188887 0.096560888
2687 -219 109 -0.85362262 0.16369623 -0.49450171 0.10946942
2664 -309 108 -0.79607958 0.28975037 -0.53132111 0.1543884
2671 -297 108 -0.79221416 0.13008903 -0.59621608 0.11650775
2696 -225 89 -0.75766009 0.098690554 -0.64514446 0.082542472
2697 -279 88 -0.63235986 0.27058858 -0.72588074 0.070206076
2750 -279 46 -0.56489843 0.40715146 -0.71771681 0.086437635
2692 -265 88 -0.64695489 0.21309823 -0.73214644 0.06466309
2696 -239 89 -0.69682938 0.12940739 -0.70546609 0.07590308
2697 -212 89 -0.80420673 0.036434788 -0.59323186 0.088408031
2702 -199 89 -0.76582032 0.17994083 -0.61736578 0.094886743
2739 -265 46 -0.63634408 0.25386223 -0.72843677 0.092698947
2759 -253 46 -0.52452064 0.24828267 -0.81439173 0.063769937
2690 -292 88 -0.65395838 0.26147643 -0.70990741 0.097275734
2680 -304 87 -0.5426659 0.66345179 -0.51511693 0.17182252
2747 -293 45 -0.57839638 0.44927651 -0.68088788 0.11632706
2678 -203 161 -0.98351067 -0.13898037 0.11572062 0.084209338
2642 -282 162 -0.90210044 -0.081637084 -0.42373362 0.14315675
2669 -306 119 -0.80037683 0.043865722 -0.59789026 0.12219355
2615 -258 202 -0.96555448 0.21372423 -0.14841318 0.14888367
2616 -286 203 -0.92149496 0.30531436 -0.24006307 0.17868577
2727 -208 75 -0.50005662 0.39790207 -0.76916665 0.12746222
2690 -226 118 -0.83562219 0.20175508 -0.51091135 0.11367549
2696 -213 117 -0.91962069 0.014708993 -0.39253205 0.127111
2673 -293 119 -0.77600271 0.029880807 -0.63002133 0.11179636
2724 -250 76 -0.72372913 0.033885311 -0.68925172 0.079818428
2612 -272 202 -0.90244305 0.39012134 -0.18276222 0.15603261
2714 -221 75 -0.74802601 0.0025502371 -0.66366452 0.076240294
2635 -267 161 -0.90592593 -0.12417103 -0.40482068 0.14556716
2687 -185 116 -0.91164136 0.21236026 -0.35187086 0.11013566
2685 -176 161 -0.99319154 0.040618312 0.10918175 0.093793824
2622 -246 202 -0.88051951 0.45889765 -0.11873618 0.14580247
2700 -302 77 -0.56279224 0.65703666 -0.50156534 0.13216861
2688 -190 161 -0.99457479 -0.028475417 0.10005024 0.098219894
2665 -265 118 -0.73774809 0.13753209 -0.66091806 0.095906228
2694 -199 117 -0.87767553 0.2659978 -0.39866126 0.13029572
2683 -183 204 -0.94033545 0.15375841 0.30352524 0.11759612
2636 -294 162 -0.88909066 -0.079815537 -0.45071855 0.1580556
2723 -236 76 -0.74634379 0.014872397 -0.66539437 0.084838167
2630 -253 160 -0.91618586 -0.068288624 -0.39489263 0.16924623
2715 -276 77 -0.6597088 0.19745213 -0.72511852 0.074437663
2698 -170 205 -0.87491417 0.32628399 0.35786033 0.12404079
2667 -279 118 -0.76933134 0.039502714 -0.63762742 0.11541084
2696 -156 205 -0.82013249 0.48967394 0.29597652 0.1199663
2720 -291 77 -0.64778686 0.23401068 -0.72499055 0.10199292
2623 -258 221 -0.90167773 0.42067027 0.10006861 0.18179086
2654 -300 136 -0.82105589 -0.028409822 -0.57014054 0.10335593
2632 -278 179 -0.91938871 -0.081665546 -0.38477945 0.14994498
2694 -283 95 -0.65278286 0.24754377 -0.7159586 0.086037301
2633 -291 179 -0.90769446 -0.073756173 -0.41309893 0.14097352
2682 -308 95 -0.6989274 0.31219167 -0.64345688 0.14247681
2694 -269 95 -0.64336503 0.22415668 -0.73200762 0.068117157
2692 -296 95 -0.68087161 0.26374954 -0.68326426 0.10301838
2624 -271 221 -0.96763647 0.21947822 0.12453499 0.20141497
2745 -296 54 -0.71563113 0.30213532 -0.62975097 0.1408969
2708 -230 95 -0.77798122 0.0073263929 -0.62824488 0.087999746
2692 -210 137 -0.99163705 0.015496996 -0.12812385 0.12385256
2682 -223 137 -0.9627921 0.18655093 -0.19552526 0.11612581
2654 -260 136 -0.80454701 0.096375793 -0.58601689 0.10899603
2701 -216 95 -0.8190769 -0.0055350214 -0.57365704 0.09520404
2742 -241 54 -0.55590451 0.12057097 -0.82245535 0.080768399
2651 -273 135 -0.80075485 0.021903612 -0.59859163 0.10382713
2629 -299 222 -0.5546332 -0.81367642 0.17410548 0.19654146
2746 -282 54 -0.6643551 0.32361025 -0.67372751 0.10062303
2658 -287 136 -0.81367028 -0.037332576 -0.58012664 0.10457435
2751 -256 54 -0.58029807 0.10437264 -0.80768847 0.081138998
2733 -267 53 -0.65518582 0.21523571 -0.72415817 0.10080737
2706 -203 95 -0.76583022 0.18715683 -0.61520439 0.11157162
2702 -243 95 -0.70646131 0.11828168 -0.69779783 0.07383199
2696 -197 137 -0.98065692 0.10207643 -0.16701005 0.12608999
2628 -264 178 -0.91090631 0.051871087 -0.40933987 0.16528428
2620 -284 221 -0.99553484 -0.019001339 0.092462279 0.21392499
2691 -189 182 -0.97475868 -0.047292698 0.21819475 0.10088723
2688 -162 182 -0.93560082 0.30426395 0.17909393 0.097253576
2695 -176 182 -0.96842045 0.050905947 0.2440706 0.11610064
2710 -171 227 -0.7179417 0.36798909 0.59088391 0.13825013
2690 -183 137 -0.9612146 0.21870828 -0.16802746 0.11216208
2663 -300 111 -0.80521441 0.069902696 -0.58884919 0.13370998
2717 -231 68 -0.73576093 0.0065257479 -0.67720985 0.07618247
2681 -208 110 -0.91312677 0.075064287 -0.40070543 0.10462243
2667 -274 110 -0.72674608 0.080492295 -0.68217379 0.10171839
2704 -216 68 -0.72457314 0.021441139 -0.68886429 0.064875953
2738 -260 69 -0.66247743 0.090176113 -0.74363428 0.10712144
2730 -246 69 -0.68026149 0.020904643 -0.73267144 0.091089308
2723 -286 69 -0.66575444 0.3250854 -0.67163277 0.12031747
2667 -287 111 -0.76858532 0.054425579 -0.63742799 0.11537849
2709 -298 69 -0.60203266 0.68807054 -0.40511176 0.16404822
2684 -222 110 -0.83529204 0.21306378 -0.50684428 0.099789239
2663 -260 110 -0.69736052 0.16144934 -0.69829971 0.084696271
2675 -181 109 -0.87705564 0.24194939 -0.41501072 0.12670365
2721 -272 69 -0.65407348 0.18044661 -0.73459303 0.088716142
2674 -194 109 -0.9043451 0.15254232 -0.39861113 0.11874933
2623 -262 206 -0.94164276 0.30817816 -0.13540724 0.15176792
2665 -283 122 -0.78415924 0.031013114 -0.6197843 0.11621375
2647 -289 167 -0.89144498 -0.006730271 -0.45307887 0.13548861
2622 -247 205 -0.83307141 0.53973085 -0.12117176 0.15159939
2667 -268 122 -0.76551187 0.13445346 -0.62921691 0.10477011
2690 -172 165 -0.990758 0.057017043 0.12307552 0.10242599
2650 -275 166 -0.89572489 -0.11558194 -0.42932242 0.13456172
2678 -179 120 -0.93793976 0.21700539 -0.27051368 0.10590781
2685 -224 121 -0.86192238 0.23231864 -0.45068592 0.11011545
2644 -259 166 -0.90680385 -0.07739836 -0.4143866 0.13800417
2694 -188 166 -0.9894129 -0.041012287 0.13921209 0.1043447
2650 -251 121 -0.7499215 0.21593839 -0.62529057 0.1052227
2688 -195 121 -0.92089128 0.21036048 -0.3281886 0.11855093
2672 -299 123 -0.80281454 0.0020087643 -0.59622544 0.11754154
2626 -277 206 -0.96613932 0.19695468 -0.16668457 0.16121086
2692 -210 121 -0.93935508 0.075508863 -0.33453032 0.12774719
2702 -163 208 -0.83958304 0.36259642 0.40450493 0.12443975
2689 -157 165 -0.94268996 0.32820696 0.060132589 0.12610139
2697 -147 207 -0.75562215 0.5815984 0.3012946 0.12433258
2719 -133 209 -0.51437134 0.8176623 0.2585547 0.12483335
2661 -309 104 -0.63653076 0.61162245 -0.46983665 0.20558156
2723 -247 105 -0.78663629 -0.042064782 -0.61598217 0.14080194
2678 -284 104 -0.74865615 0.13056885 -0.64997357 0.11105876
2676 -270 104 -0.69924134 0.13589504 -0.70185047 0.08374092
2724 -268 62 -0.66539955 0.18423143 -0.72339636 0.096830599
2732 -282 62 -0.68904203 0.29654062 -0.66127509 0.11132412
2673 -297 104 -0.78701419 0.15775615 -0.59642398 0.12437982
2729 -296 62 -0.68943715 0.45293674 -0.56526524 0.13768034
2696 -204 103 -0.84204304 0.14602025 -0.51927024 0.1176618
2741 -256 62 -0.63268435 0.070825577 -0.77116424 0.093832552
2684 -217 103 -0.83679909 0.16824444 -0.52101934 0.097310096
2736 -242 62 -0.60739791 0.068314716 -0.79145491 0.093244053
2693 -231 104 -0.75788641 0.17853397 -0.62748212 0.09733396
2673 -304 117 -0.78936636 0.015951965 -0.61371511 0.12206594
2717 -301 75 -0.64882725 0.28121659 -0.70706463 0.14326867
2673 -290 117 -0.76499599 0.063137501 -0.64093268 0.10664216
2665 -263 116 -0.72540098 0.15722379 -0.6701299 0.089344218
2720 -288 75 -0.65551442 0.26334524 -0.70777833 0.1008252
2731 -262 75 -0.68144262 0.10209155 -0.72471607 0.11175812
2718 -274 75 -0.65520281 0.1763124 -0.73459053 0.078801736
2675 -277 117 -0.75255412 0.11509837 -0.64839393 0.11336428
2705 -219 74 -0.75165915 -0.011453456 -0.65945226 0.069766216
2731 -248 75 -0.69951147 0.016182117 -0.71443808 0.11263297
2697 -185 116 -0.75863445 0.46896031 -0.452272 0.14167121
2691 -198 116 -0.90752542 0.19784828 -0.37047756 0.12605481
2682 -210 116 -0.92345011 0.092808619 -0.37232563 0.10811759
2715 -233 74 -0.73344576 0.022328591 -0.67938113 0.073462762
2687 -224 116 -0.82939398 0.21754868 -0.51456606 0.11395696
2647 -274 146 -0.83909756 -0.10932855 -0.53288138 0.12569387
2733 -297 61 -0.67875743 0.42769852 -0.59696096 0.13464722
2700 -232 104 -0.7694183 0.11552943 -0.62821048 0.10342851
2639 -260 145 -0.86347508 -0.039765842 -0.50282151 0.13916902
2685 -298 105 -0.72628403 0.1652112 -0.66724575 0.1165367
2673 -310 104 -0.76475912 0.29913214 -0.57066929 0.15431434
2734 -283 61 -0.69599921 0.306113 -0.64952296 0.11537074
2642 -287 145 -0.83729416 -0.1343063 -0.53000033 0.12289405
2685 -284 104 -0.69593358 0.16927902 -0.69786888 0.10818209
2680 -271 104 -0.68381232 0.1673557 -0.71020609 0.088440999
2732 -269 61 -0.64867449 0.17573225 -0.74049956 0.10193858
2639 -300 146 -0.85264421 -0.2012569 -0.48217565 0.13609293
2732 -242 60 -0.64941102 0.031873494 -0.75976926 0.075897083
2735 -256 60 -0.63735765 0.072558112 -0.76714444 0.08160422
2673 -210 146 -0.99812919 -0.061103825 0.0020985829 0.077676289
2702 -205 104 -0.82214761 0.16162667 -0.54584807 0.12563504
2684 -197 147 -0.99979007 -0.0046085315 -0.019963913 0.090006664
2675 -183 146 -0.99723417 0.072405837 -0.016776305 0.079151742
2699 -218 104 -0.85334653 -0.027248651 -0.52063149 0.10319337
2636 -305 149 -0.83222032 -0.37531304 -0.40810466 0.16121891
2621 -291 234 -0.82708377 -0.28845671 0.48241603 0.21695061
2615 -276 233 -0.94119358 0.099225111 0.32296899 0.21128488
2630 -285 193 -0.93835545 -0.0072040465 -0.34559667 0.14411999
2641 -276 149 -0.86502671 -0.10486924 -0.4906438 0.13371912
2617 -255 192 -0.94294602 0.20373331 -0.26333541 0.15112171
2640 -291 149 -0.85696799 -0.176247 -0.48429629 0.12302472
2630 -260 148 -0.86990577 0.025383987 -0.49256432 0.17101738
2623 -299 193 -0.89798284 0.12528835 -0.42181712 0.17606714
2629 -270 193 -0.94678682 0.093856208 -0.30787295 0.14367044
2614 -261 233 -0.8626613 0.41943446 0.28264853 0.18069239
2643 -250 235 -0.60804039 0.65300107 0.45152682 0.20450819
2695 -187 197 -0.94794548 0.00072276394 0.31843185 0.11783472
2678 -176 151 -0.99437743 0.10580593 0.0043251682 0.090499453
2681 -191 151 -0.99910295 -0.021281455 0.036610734 0.085657775
2708 -158 198 -0.81728971 0.48490334 0.31129763 0.13471818
2706 -173 198 -0.8902992 0.30168572 0.34110567 0.12899797
2678 -206 151 -0.9892087 -0.1361226 0.054191343 0.071018912
2706 -217 89 -0.78776741 -0.004913969 -0.61595321 0.086165696
2725 -246 90 -0.76898676 -0.0020415334 -0.63926142 0.10482789
2716 -232 90 -0.77480906 -0.019042952 -0.63190848 0.084105752
2690 -207 133 -0.97662896 0.09870977 -0.19092517 0.12599431
2657 -300 134 -0.81677973 -0.02578965 -0.57637292 0.10421854
2686 -221 133 -0.98212004 0.013538603 -0.18776837 0.11892785
2657 -259 133 -0.78447008 0.17506784 -0.5949437 0.096903123
2660 -273 134 -0.79633224 0.023782961 -0.60439157 0.10696708
2756 -283 48 -0.55430937 0.39845949 -0.73073328 0.08650355
2636 -277 175 -0.88907599 0.04784641 -0.4552522 0.14576052
2635 -264 175 -0.89726055 0.031263579 -0.44039315 0.1484208
2693 -298 91 -0.65648556 0.25765303 -0.70897233 0.10294256
2628 -249 174 -0.88642275 0.14341125 -0.44009992 0.17215353
2663 -287 134 -0.81887418 -0.021477267 -0.57357103 0.10623863
2697 -271 90 -0.6357106 0.23520316 -0.73522204 0.064433679
2741 -268 48 -0.63799179 0.27149335 -0.72059554 0.093678288
2702 -285 91 -0.64384025 0.2692894 -0.71620733 0.074988253
2744 -255 47 -0.59873152 0.12105901 -0.79174823 0.072683491
2710 -204 89 -0.72888583 0.21613371 -0.64962417 0.11134355
2629 -290 175 -0.89006597 -0.010630544 -0.45570782 0.1589229
2690 -194 133 -0.96985209 0.14219752 -0.1979062 0.11750693
2678 -186 175 -0.98498249 0.015350917 0.17197019 0.09073703
2672 -158 174 -0.96644652 0.22412901 0.12548839 0.10369384
2687 -180 132 -0.89462298 0.36765683 -0.25392559 0.10917164
2683 -172 175 -0.9826504 0.099258296 0.15667146 0.091801673
2740 -272 42 -0.58386284 0.41660774 -0.69680846 0.09537483
2663 -305 127 -0.81293833 -0.035563316 -0.58126295 0.12788507
2707 -277 87 -0.64664173 0.27611771 -0.71106505 0.070091672
2705 -223 87 -0.77132654 0.0058536413 -0.63641268 0.079687491
2631 -257 168 -0.89353478 0.0024445476 -0.44898736 0.16503538
2700 -162 217 -0.7967729 0.33738369 0.50132334 0.15303329
2677 -187 127 -0.97585028 0.10826739 -0.18972164 0.088365741
2693 -303 87 -0.64185154 0.32685688 -0.69367933 0.11489146
2666 -279 127 -0.79709631 0.029676331 -0.60312247 0.10831074
2706 -291 87 -0.64270157 0.26802975 -0.71770108 0.079511166
2717 -149 218 -0.62625051 0.50562447 0.59342587 0.13400218
2754 -259 42 -0.55330902 0.25387317 -0.79334581 0.057766173
2655 -265 127 -0.79540324 0.085285738 -0.60005003 0.10251654
2694 -228 128 -0.94186544 0.10607813 -0.31880549 0.14554456
2685 -195 171 -0.98634666 -0.055645049 0.15499641 0.10396881
2750 -245 42 -0.53591818 0.1529322 -0.83030325 0.063387796
2716 -211 87 -0.69321573 0.17558384 -0.69901526 0.10612091
2617 -289 211 -0.9840005 0.15282938 -0.091575719 0.20184757
2676 -168 170 -0.98362851 0.12415252 0.13061813 0.090308897
2714 -251 87 -0.71384603 0.064963393 -0.69728285 0.075170934
2719 -238 87 -0.76145208 0.0043786601 -0.64820647 0.084164381
2623 -277 212 -0.98440397 0.17109175 -0.040945791 0.19533773
2641 -285 168 -0.88553846 -0.033030294 -0.46339038 0.14143118
2632 -297 168 -0.88189971 -0.11109208 -0.45816094 0.16726963
2684 -214 128 -0.975393 0.037416268 -0.21727523 0.11484615
2688 -182 171 -0.98384607 -0.025880584 0.17713572 0.097624905
2624 -250 211 -0.8510657 0.52412546 -0.031298783 0.17262465
2684 -200 128 -0.96316719 0.13870755 -0.23036747 0.11284148
2698 -176 217 -0.83093309 0.27023381 0.48633724 0.13599575
2757 -287 42 -0.506724 0.40269044 -0.76228029 0.086181827
2639 -271 168 -0.90569204 -0.086475633 -0.41502279 0.13811618
2621 -263 211 -0.93295211 0.35624316 -0.051876407 0.17243905
2664 -292 127 -0.81421816 -0.0020919985 -0.58055532 0.10834129
2750 -271 42 -0.54115564 0.4160372 -0.73079652 0.077354133
2661 -276 128 -0.7978887 0.034189858 -0.60183442 0.10356301
2698 -299 87 -0.64689517 0.27310497 -0.71199733 0.092308842
2656 -262 128 -0.78786087 0.13835976 -0.60010993 0.097230889
2662 -289 128 -0.80367744 -0.0027750675 -0.59505874 0.1084182
2662 -303 129 -0.83273411 -0.031703666 -0.55276465 0.12197167
2701 -286 87 -0.63885438 0.28267485 -0.71551371 0.079911411
2754 -258 42 -0.54648459 0.26107478 -0.7957353 0.057832479
2706 -273 87 -0.648884 0.25326046 -0.7175017 0.068977088
2711 -233 86 -0.73718196 0.049040359 -0.67391229 0.067744941
2706 -206 86 -0.76134861 0.13346168 -0.63445747 0.091314323
2680 -224 128 -0.89001864 0.26551941 -0.37062961 0.098609306
2676 -183 128 -0.97612 0.13453439 -0.17055896 0.089406192
2677 -197 128 -0.98402125 0.03757704 -0.17404033 0.097504869
2683 -211 128 -0.97761452 0.030401949 -0.20819615 0.11271475
2703 -219 86 -0.78252596 0.0011843605 -0.62261689 0.082686335
2718 -247 87 -0.74297982 0.037247784 -0.66827655 0.084674299
2643 -299 158 -0.87712836 -0.22829603 -0.4225243 0.1452121
2664 -308 115 -0.78729552 0.057889223 -0.61385226 0.13203758
2642 -254 157 -0.89088243 0.021839257 -0.45370862 0.15675047
2693 -205 112 -0.90365565 0.11195982 -0.41336602 0.11549653
2626 -265 240 -0.8330996 0.092108525 0.54539996 0.19140153
2688 -189 112 -0.8938008 0.18993475 -0.40625715 0.11730451
2646 -284 158 -0.88499194 -0.11885912 -0.45017982 0.14360096
2619 -272 197 -0.94240284 0.22363275 -0.24872734 0.15278786
2619 -256 197 -0.96867639 0.1469005 -0.2002154 0.15630135
2691 -187 199 -0.9433704 0.017283386 0.33129069 0.11270981
2694 -183 157 -0.99832749 0.01060277 0.056831095 0.10752104
2701 -236 114 -0.77876133 0.15270641 -0.60845011 0.12177055
2702 -168 157 -0.67279178 0.71457738 -0.19165179 0.15522347
2658 -262 113 -0.72457403 0.12982401 -0.67685902 0.099585958
2701 -157 199 -0.85711133 0.39070034 0.33572835 0.10946603
2647 -269 158 -0.88156521 -0.16225548 -0.44330126 0.1387554
2701 -173 200 -0.89547569 0.24819887 0.3694869 0.11956746
2693 -198 158 -0.99030608 -0.11202039 0.082129762 0.107208
2678 -294 115 -0.77932787 0.064034484 -0.62333602 0.11432596
2623 -280 240 -0.80195558 -0.056335963 0.59472138 0.19766614
2698 -220 113 -0.89138681 -0.017807461 -0.45289335 0.11624038
2676 -279 114 -0.75097859 0.10877273 -0.65130615 0.1099133
2619 -287 198 -0.90439415 0.29476491 -0.30852041 0.16292772
2648 -304 136 -0.82661057 -0.049627166 -0.56058198 0.11860014
2655 -277 136 -0.80532438 0.020456441 -0.59248155 0.10176659
2623 -254 175 -0.91681623 0.062033731 -0.39446148 0.15711005
2627 -268 176 -0.89634246 0.10504518 -0.43073848 0.15998155
2655 -264 135 -0.7945478 0.059012547 -0.6043272 0.10515884
2687 -304 96 -0.69229299 0.27745348 -0.66614568 0.12020383
2693 -277 95 -0.65130675 0.24694517 -0.71750796 0.07673949
2743 -288 51 -0.64004612 0.39729992 -0.65764266 0.1143511
2735 -273 51 -0.6621241 0.32862848 -0.67349464 0.1043312
2621 -273 220 -0.98195422 0.15662561 0.10599193 0.1971402
2629 -296 177 -0.89675164 -0.039219029 -0.44079295 0.16941062
2676 -261 94 -0.65804482 0.17959014 -0.73124856 0.06701199
2618 -286 221 -0.9926551 0.013063586 0.12027159 0.2203124
2692 -291 96 -0.67535394 0.24064027 -0.69712931 0.099028803
2620 -259 220 -0.90335208 0.41633153 0.10306793 0.18294547
2649 -291 136 -0.82553983 -0.089485772 -0.55720407 0.10015753
2629 -282 177 -0.90797406 -0.015947595 -0.41872275 0.15064685
2709 -156 223 -0.69645345 0.44461825 0.56326479 0.13474245
2690 -178 177 -0.98112601 0.034219701 0.19031745 0.10054108
2716 -210 94 -0.67792511 0.24366674 -0.6935733 0.11486882
2682 -191 177 -0.98066813 -0.042895198 0.19091876 0.10282311
2737 -246 50 -0.61758316 0.061894026 -0.7840665 0.069570668
2722 -143 224 -0.50648147 0.67316002 0.53882468 0.12036329
2687 -198 135 -0.97842968 0.10234943 -0.17944342 0.11793922
2704 -170 223 -0.77367431 0.37297249 0.51217145 0.1373062
2705 -237 95 -0.74476749 0.073374391 -0.66327792 0.078609586
2712 -223 94 -0.79066402 -0.044919383 -0.61060017 0.084912904
2738 -260 50 -0.63329643 0.14712404 -0.75979614 0.086086549
2681 -212 135 -0.99352962 -0.044564348 -0.10446443 0.097235695
2688 -164 177 -0.94870985 0.27908385 0.14853211 0.10697301
2686 -185 134 -0.95343632 0.23270994 -0.19184737 0.10762985
2726 -282 63 -0.68204731 0.33423775 -0.65045875 0.12384776
2720 -226 62 -0.71269423 0.0029296402 -0.70146865 0.08364661
2667 -269 104 -0.71107477 0.12190311 -0.69246829 0.092015408
2682 -230 104 -0.76616478 0.24075544 -0.5958426 0.090291679
2733 -255 63 -0.64406067 0.068527646 -0.76189882 0.084060438
2692 -191 104 -0.8340348 0.24263641 -0.49549308 0.12007591
2723 -268 63 -0.6629898 0.18656169 -0.72500986 0.093684793
2729 -296 63 -0.68738133 0.44798419 -0.57167923 0.14016472
2675 -283 105 -0.75524056 0.10750309 -0.64657152 0.11339465
2681 -216 104 -0.8395865 0.18493479 -0.51077747 0.097769655
2690 -204 104 -0.8696757 0.11571994 -0.47986776 0.10536767
2693 -258 105 -0.62094492 0.19591193 -0.75897688 0.078822583
2670 -310 105 -0.77236342 0.33752015 -0.53808451 0.14598919
2726 -241 62 -0.67285764 0.031463273 -0.73910254 0.073149629
2664 -296 105 -0.80574965 0.20110305 -0.55706823 0.1571667
2695 -267 78 -0.62903631 0.20860189 -0.74886483 0.065954633
2693 -294 79 -0.57469761 0.61504066 -0.53985894 0.13059585
2717 -242 79 -0.71557099 0.048929811 -0.69682425 0.073004752
2708 -255 79 -0.6750139 0.096741162 -0.73143518 0.060797598
2752 -267 34 -0.5146144 0.45807233 -0.72480464 0.083239615
2697 -281 79 -0.62733102 0.37960914 -0.67996532 0.088903897
2705 -214 78 -0.75272059 0.021581784 -0.65798622 0.080432303
2681 -206 120 -0.9408108 0.097388573 -0.32463884 0.11101364
2682 -192 120 -0.93460071 0.16542847 -0.31488881 0.11291996
2680 -219 120 -0.89285558 0.21735981 -0.39441559 0.10814855
2709 -228 78 -0.74032056 0.022399236 -0.67188072 0.066950753
2711 -257 70 -0.65590692 0.09682256 -0.74860638 0.066886455
2642 -257 112 -0.72295743 0.035602331 -0.68997461 0.13378763
2707 -216 69 -0.72367185 0.032457802 -0.68938059 0.066571869
2687 -234 114 -0.77342445 0.24937353 -0.58277565 0.094285019
2709 -270 70 -0.65809071 0.21670005 -0.7210809 0.088854991
2680 -200 156 -0.99310821 -0.097641453 0.064824633 0.080045335
2685 -207 113 -0.9156965 0.086773239 -0.39239052 0.10715424
2697 -283 70 -0.55409271 0.64969301 -0.5204615 0.12447229
2709 -230 69 -0.71419418 0.032087773 -0.69921178 0.068125539
2690 -221 114 -0.8588981 0.15655212 -0.48763263 0.11896949
2718 -244 70 -0.71969998 0.034791384 -0.6934129 0.071841165
2671 -173 155 -0.99356878 0.097660817 0.057302047 0.0885747
2685 -194 113 -0.90691954 0.16270541 -0.38861778 0.11277844
2658 -262 120 -0.74597555 0.14061128 -0.65095997 0.10206132
2684 -211 121 -0.93904316 0.081131116 -0.33408925 0.10493766
2718 -247 80 -0.71770972 0.051231761 -0.69445527 0.075189918
2683 -171 209 -0.92751306 0.21488772 0.30584773 0.13884787
2658 -302 121 -0.80387896 -0.0066717826 -0.59475541 0.11416958
2708 -219 79 -0.74324512 0.019036822 -0.6687482 0.076055691
2684 -177 166 -0.99007207 0.046320435 0.13270891 0.091515906
2680 -184 121 -0.92134827 0.25125444 -0.29662859 0.10419501
2697 -298 79 -0.59563446 0.58976763 -0.54533827 0.12670346
2630 -266 163 -0.90388459 -0.075091042 -0.42113414 0.16616192
2664 -276 121 -0.77687991 0.039758466 -0.6283924 0.11197054
2685 -225 121 -0.86093682 0.23294057 -0.45224607 0.10668711
2625 -253 163 -0.91994023 -0.10466592 -0.3778294 0.16071332
2660 -289 121 -0.79587698 -0.00054841838 -0.6054582 0.11159053
2716 -233 80 -0.74439073 0.027734634 -0.66716808 0.073268607
2616 -246 205 -0.88956493 0.44982359 -0.079580441 0.14803015
2689 -198 121 -0.91800952 0.20533635 -0.33925745 0.12361996
2707 -272 79 -0.6468401 0.19877437 -0.73626536 0.061126411
2687 -191 166 -0.99041992 -0.044440188 0.13074209 0.096036524
2710 -205 79 -0.69206488 0.21433808 -0.68927884 0.093183808
2755 -272 38 -0.50921869 0.44636652 -0.73583502 0.070883356
2604 -284 204 -0.9539755 0.25976899 -0.14983588 0.1855683
2713 -287 80 -0.6456871 0.25806832 -0.71867156 0.084758714
2627 -279 163 -0.89788198 -0.11807495 -0.42410642 0.1700764
2617 -259 205 -0.96806377 0.22451046 -0.11156864 0.15406944
2623 -292 163 -0.88642246 -0.24417621 -0.39323428 0.18756425
2611 -272 205 -0.89531583 0.42706424 -0.12659295 0.16667841
2678 -164 165 -0.98377842 0.12481244 0.12884809 0.091643848
2694 -158 210 -0.82230347 0.42944112 0.37335956 0.12207448
2689 -144 210 -0.73085624 0.66577685 0.15030108 0.1633662
2672 -274 103 -0.72469252 0.12723042 -0.67722464 0.099469684
2714 -177 236 -0.65337563 0.36409271 0.66372949 0.15018609
2719 -229 59 -0.68723261 0.017330717 -0.72623068 0.071268536
2699 -210 104 -0.8526029 0.048070244 -0.52034366 0.11659091
2692 -183 188 -0.95614731 -0.056326851 0.2874189 0.11347235
2602 -268 183 -0.88167965 0.39288297 -0.26131213 0.17124346
2691 -196 103 -0.8522948 0.17942925 -0.49132353 0.10963956
2723 -243 59 -0.6640408 0.029421566 -0.74711728 0.06925448
2693 -236 104 -0.72709751 0.17519562 -0.66380388 0.091646411
2676 -187 144 -0.99780834 0.061702728 -0.023903161 0.078637384
2728 -284 59 -0.68124002 0.40790012 -0.60788941 0.12716715
2669 -287 103 -0.7759394 0.17602643 -0.60574973 0.13763769
2719 -270 59 -0.66898108 0.27443746 -0.6907593 0.11580252
2682 -201 145 -0.99815285 -0.055422466 -0.024885172 0.088562354
2677 -214 145 -0.99865192 -0.030110521 -0.042281426 0.081823543
2659 -260 103 -0.66587192 0.13430713 -0.73387748 0.090221882
2732 -258 59 -0.63613242 0.087497503 -0.76660264 0.076695025
2625 -275 142 -0.84427708 -0.078931436 -0.53006232 0.16471097
2703 -224 104 -0.82685745 -0.0087849936 -0.562343 0.10679051
2667 -300 103 -0.78175128 0.24144764 -0.5749504 0.16044575
2685 -169 188 -0.9505924 0.25325325 0.17954651 0.098793961
2647 -300 131 -0.80333507 -0.073667638 -0.59095335 0.11084187
2648 -285 131 -0.80817181 -0.02239793 -0.58852065 0.097934566
2626 -293 175 -0.8957895 -0.10978943 -0.43070579 0.16405091
2601 -283 214 -0.93124831 0.36248165 -0.037197366 0.20500219
2630 -279 175 -0.90416169 0.00078053662 -0.42718977 0.15298577
2682 -215 132 -0.98354018 0.03472387 -0.17732178 0.10919312
2681 -200 132 -0.98634791 0.032590639 -0.16141757 0.10122778
2645 -271 131 -0.80315554 -0.012971922 -0.59562808 0.10544372
2690 -196 178 -0.97736555 -0.076579839 0.19721061 0.11409494
2616 -255 215 -0.91573495 0.40066981 0.029886371 0.17927676
2601 -268 214 -0.88509071 0.46517166 0.015160975 0.1825494
2691 -166 178 -0.93088305 0.35157114 0.099269345 0.11697657
2699 -182 178 -0.96062493 -0.099278972 0.2595062 0.11964562
2676 -185 132 -0.98120832 0.12316161 -0.14853108 0.082143165
2718 -174 222 -0.70154494 0.31610334 0.63868088 0.13768005
2617 -263 174 -0.88406998 0.22394218 -0.41020742 0.17153259
2631 -298 168 -0.88376725 -0.1162525 -0.45325562 0.16775039
2651 -307 124 -0.79675376 -0.019867793 -0.60397738 0.1232813
2642 -284 168 -0.88474649 -0.031726371 -0.46499151 0.14066952
2658 -293 124 -0.81094933 -0.027900148 -0.58445084 0.10792629
2609 -286 207 -0.94172859 0.29533729 -0.16100654 0.1894616
2715 -158 211 -0.72374123 0.49582139 0.47995818 0.14493035
2694 -183 168 -0.99027199 -0.017805194 0.13800152 0.10865869
2696 -198 168 -0.97344595 -0.15130959 0.17178011 0.12741466
2663 -278 124 -0.79764003 0.038895667 -0.6018784 0.11093935
2680 -189 122 -0.94169247 0.18641502 -0.2801156 0.09778519
2634 -253 166 -0.90968573 -0.1357453 -0.39248583 0.14747624
2685 -205 122 -0.94029504 0.12292138 -0.31738856 0.11631147
2690 -167 167 -0.97301918 0.21717969 0.077888057 0.10695955
2689 -187 210 -0.91758043 0.13149093 0.375175 0.13837388
2706 -173 210 -0.83957297 0.37104183 0.39679372 0.13440411
2652 -262 123 -0.78066677 0.11354686 -0.6145457 0.10504783
2612 -271 207 -0.91281575 0.39667943 -0.097019508 0.1646159
2641 -269 167 -0.90937144 -0.08037743 -0.40814596 0.14063121
2616 -257 206 -0.95790333 0.27448562 -0.084136255 0.16084196
2685 -220 123 -0.9060055 0.17876223 -0.38366404 0.1160538
2660 -309 115 -0.7838819 0.098951355 -0.61297446 0.14399189
2666 -255 114 -0.7039662 0.19454373 -0.68306988 0.080053404
2712 -226 72 -0.73881948 0.010334832 -0.67382419 0.068056442
2727 -213 72 -0.57340246 0.26117951 -0.77652746 0.11752968
2662 -269 114 -0.73627818 0.078441225 -0.67211717 0.10655127
2726 -254 73 -0.6953302 0.060186513 -0.71616572 0.085463993
2728 -268 73 -0.66110641 0.13974486 -0.73716331 0.097830467
2686 -217 114 -0.88505745 0.13688968 -0.44489834 0.11178212
2668 -282 115 -0.75682169 0.032174796 -0.65282911 0.11169317
2716 -294 73 -0.66094637 0.32239842 -0.67764968 0.13463143
2720 -281 73 -0.65183997 0.24679582 -0.71707493 0.094495967
2726 -240 73 -0.72027463 0.032863837 -0.69291019 0.080340102
2680 -230 114 -0.79008144 0.27900609 -0.54582673 0.093817852
2667 -296 115 -0.7757386 0.070910588 -0.62705773 0.11363262
2685 -190 114 -0.89958912 0.19014518 -0.393172 0.10988787
2683 -203 114 -0.91823936 0.10830406 -0.38092861 0.11159073
2704 -288 81 -0.63927639 0.30680117 -0.70512319 0.087337479
2748 -260 38 -0.55392337 0.32839623 -0.76506531 0.086290948
2757 -275 38 -0.50317311 0.42846903 -0.75048727 0.068217501
2695 -207 82 -0.77852827 0.12123638 -0.6157884 0.081410885
2702 -221 82 -0.77279651 -0.0084757973 -0.6345973 0.075401202
2692 -300 80 -0.53075463 0.6910854 -0.49061227 0.13568549
2718 -249 82 -0.7296102 0.04510168 -0.68237448 0.082432427
2698 -274 81 -0.6248672 0.24042073 -0.74279124 0.066179089
2706 -234 82 -0.72279179 0.069820605 -0.68752962 0.064348243
2719 -226 59 -0.6966269 0.0047059651 -0.71741813 0.074549794
2742 -255 59 -0.62289608 0.070322558 -0.77913749 0.081255183
2733 -296 59 -0.6733498 0.45051262 -0.58620685 0.13107169
2685 -229 102 -0.75470823 0.22558567 -0.61605734 0.090730876
2681 -268 101 -0.65950602 0.18239991 -0.72923392 0.078082189
2685 -202 102 -0.87636375 0.10313059 -0.47047922 0.10020288
2672 -294 100 -0.77556682 0.23555638 -0.58566999 0.15294784
2711 -191 103 -0.59294355 0.52580792 -0.6098721 0.15207793
2677 -281 101 -0.73255533 0.14578347 -0.66491336 0.10651492
2689 -216 102 -0.85376531 0.04205421 -0.5189569 0.097212121
2733 -282 59 -0.70352691 0.31731075 -0.63589609 0.11432692
2739 -241 60 -0.5849576 0.087979451 -0.80627805 0.087996408
2729 -268 59 -0.64582264 0.17726311 -0.74262434 0.096935086
