# .PCD v0.7 - Point Cloud Data file format
VERSION 0.7
FIELDS x y z normal_x normal_y normal_z curvature
SIZE 4 4 4 4 4 4 4
TYPE F F F F F F F
COUNT 1 1 1 1 1 1 1
WIDTH 793
HEIGHT 1
VIEWPOINT 0 0 0 1 0 0 0
POINTS 793
DATA ascii
2564 -618 167 -0.56939065 0.42217726 -0.70537972 0.11251882
2581 -547 164 -0.70246226 -0.65983742 -0.26676086 0.12530689
2497 -446 238 -0.97815865 -0.17976733 -0.10435247 0.16680804
2497 -454 195 -0.85214645 -0.45333451 -0.26140821 0.18537794
2606 -592 125 -0.5833447 0.20887575 -0.78490752 0.19224314
2607 -605 125 -0.58169234 0.47297671 -0.66176051 0.1730731
2568 -619 166 -0.58184952 0.44812477 -0.67870122 0.11659659
2555 -629 165 -0.54326278 0.56972921 -0.61666369 0.13263032
2557 -512 163 -0.76795542 -0.60097975 -0.22151259 0.15547189
2625 -579 169 -0.91608882 -0.31125784 -0.25278401 0.23457985
2570 -541 165 -0.71925461 -0.66660857 -0.19571893 0.12911272
2557 -525 163 -0.74820971 -0.60302186 -0.27667099 0.14584623
2614 -563 168 -0.80051661 -0.5963459 -0.059536554 0.18699792
2487 -417 200 -0.97956663 -0.197989 0.035347689 0.12447938
2502 -458 202 -0.885557 -0.45068482 -0.11256942 0.1640339
2488 -430 200 -0.97865278 -0.19570047 0.062769249 0.12866615
2482 -404 199 -0.989586 -0.12232739 0.075865738 0.1070933
2490 -443 201 -0.96646196 -0.2462011 0.073050335 0.14676583
2571 -543 144 -0.72711015 -0.6405108 -0.24709661 0.13713782
2593 -534 145 -0.6264497 -0.65950572 -0.41546708 0.15019427
2593 -562 146 -0.73441708 -0.62541074 0.26361507 0.15912861
2631 -584 149 -0.70913577 0.2199339 -0.66989213 0.21102272
2592 -520 144 -0.54362053 -0.67332512 -0.50110877 0.22643958
2589 -631 149 -0.5093922 0.63025165 -0.58592021 0.14702633
2616 -595 149 -0.63602799 0.2850329 -0.71709454 0.18816482
2605 -606 149 -0.59880036 0.35335112 -0.71873569 0.14637737
2611 -580 179 -0.57931542 0.16276929 -0.79868627 0.27497697
2558 -624 178 -0.64520925 0.33216232 -0.68802124 0.11396752
2554 -637 179 -0.65344101 0.34826103 -0.67210793 0.12173144
2648 -594 138 -0.63570213 0.048682347 -0.77039784 0.14295168
2599 -569 135 -0.56467414 -0.56424254 0.60230672 0.18748197
2593 -562 177 -0.72616607 -0.62415248 -0.28829953 0.17446716
2563 -542 174 -0.70857775 -0.68549341 -0.1673809 0.1297233
2598 -597 136 -0.65717506 0.33410141 -0.67564583 0.17440194
2548 -607 177 -0.62722415 0.22053511 -0.74696326 0.12186557
2476 -459 217 -0.96289903 -0.26880971 -0.023806721 0.1221986
2631 -591 145 -0.67856187 0.14299256 -0.72049069 0.18421245
2526 -616 181 -0.63039166 0.0797811 -0.77216667 0.16912907
2535 -631 182 -0.60489833 0.30490923 -0.73561436 0.15962864
2561 -549 140 -0.74016619 -0.61144912 -0.27979282 0.14308026
2599 -570 142 -0.81991583 -0.56006867 0.11857959 0.19381832
2626 -573 187 -0.68068808 -0.70390517 0.20293166 0.15064548
2631 -604 145 -0.6212644 0.15882151 -0.76733714 0.15319456
2537 -614 186 -0.65069765 0.098071344 -0.75297713 0.12936012
2590 -630 145 -0.53097618 0.63821447 -0.55744654 0.16404054
2537 -629 186 -0.66154218 0.16198307 -0.73220456 0.12990363
2613 -606 146 -0.58972144 0.34403598 -0.73066258 0.15514393
2558 -605 187 -0.63150465 0.18927501 -0.7519154 0.11775226
2592 -616 145 -0.59816653 0.56913394 -0.56416613 0.14938419
2629 -595 146 -0.65647119 0.156123 -0.73801839 0.18095149
2569 -552 143 -0.75979882 -0.61053413 -0.22350375 0.13405168
2545 -530 185 -0.74491477 -0.63459009 -0.20590599 0.11602864
2610 -576 145 -0.8791213 -0.41326353 -0.23740065 0.20768963
2555 -546 186 -0.75642443 -0.40286276 -0.5152899 0.14516954
2495 -471 220 -0.90480554 -0.37852916 -0.19504488 0.1534663
2483 -455 219 -0.95777416 -0.27262712 -0.091340668 0.14173314
2485 -405 211 -0.97854209 -0.16835968 0.11878742 0.10882032
2493 -453 213 -0.96039617 -0.27813935 0.016667521 0.14462331
2630 -588 151 -0.73903668 0.1570354 -0.6551066 0.20806248
2615 -571 150 -0.84435523 -0.52942801 0.082282014 0.19611906
2579 -550 148 -0.75791234 -0.63425308 -0.15261699 0.1116242
2635 -603 152 -0.68213636 0.1546836 -0.71467686 0.16955672
2606 -623 151 -0.50827515 0.42494708 -0.74905032 0.15073501
2596 -634 150 -0.50750351 0.57382882 -0.64277571 0.14728737
2498 -455 190 -0.80859667 -0.45546263 -0.37245834 0.19029377
2531 -617 196 -0.59942937 0.073793441 -0.79701883 0.13340648
2537 -627 198 -0.69501829 0.070271306 -0.71554983 0.13465212
2561 -521 194 -0.7457546 -0.61477649 -0.25670972 0.13678022
2630 -598 159 -0.76171136 0.22484499 -0.60765165 0.19851905
2616 -566 156 -0.83594972 -0.54715925 0.042482838 0.1901204
2591 -547 154 -0.73997819 -0.62097853 -0.25849149 0.14252636
2574 -516 152 -0.70298553 -0.70915294 -0.053976644 0.1880594
2539 -614 197 -0.59863573 0.17848767 -0.78088242 0.1272431
2581 -629 158 -0.51753229 0.56608146 -0.64164793 0.12345821
2502 -456 187 -0.76527458 -0.49853265 -0.40721005 0.18211693
2598 -619 158 -0.55380988 0.47018957 -0.68717998 0.13291174
2559 -527 152 -0.73110825 -0.63017994 -0.26144597 0.15444267
2626 -583 158 -0.94594771 -0.16820081 -0.27729315 0.2302482
2493 -438 258 -0.96341956 -0.031284671 -0.26616547 0.14965363
2470 -427 295 -0.7836619 0.40737972 -0.46895176 0.17783302
2499 -424 258 -0.90141684 0.15074097 -0.40586293 0.16308276
2491 -454 258 -0.96588838 -0.088474214 -0.24337617 0.13365313
2471 -412 294 -0.79905504 0.4061462 -0.44334665 0.17909336
2493 -473 215 -0.85968322 -0.46398365 -0.2136912 0.15136418
2546 -638 182 -0.67769587 0.28919134 -0.67608923 0.11089563
2634 -582 143 -0.70974922 0.18796329 -0.6789152 0.19314247
2556 -627 182 -0.64342606 0.28834823 -0.70912492 0.1112069
2554 -614 182 -0.63786 0.22335048 -0.73705435 0.11767632
2551 -600 181 -0.61767149 0.17916946 -0.76575464 0.11462527
2635 -596 144 -0.69273669 0.07094007 -0.71769309 0.15858909
2600 -601 142 -0.63069934 0.37696713 -0.67831713 0.16148956
2549 -521 180 -0.77545291 -0.54675621 -0.31580132 0.12540133
2541 -489 222 -0.67301506 -0.041164588 -0.73848236 0.14640148
2503 -456 218 -0.92708343 -0.3554011 -0.11919014 0.16569383
2496 -442 218 -0.9612928 -0.26108351 0.088043429 0.14711963
2599 -561 141 -0.76525146 -0.61375171 0.19416283 0.16639285
2562 -537 181 -0.72509396 -0.66121507 -0.19244073 0.12503038
2573 -543 140 -0.73288387 -0.65628695 -0.17935617 0.12378782
2508 -470 219 -0.87720448 -0.40939021 -0.2508226 0.14198469
2542 -507 179 -0.78972799 -0.55632764 -0.25851363 0.1330249
2604 -589 140 -0.5888198 0.11111031 -0.80059081 0.18738353
2534 -619 221 -0.63975835 -0.16884603 -0.74980009 0.17569984
2550 -598 179 -0.61330968 0.17636772 -0.76989985 0.11715113
2600 -603 140 -0.63766831 0.41847953 -0.64672565 0.15834099
2550 -613 180 -0.64528424 0.23136538 -0.72806478 0.12777826
2547 -524 175 -0.77615649 -0.58634055 -0.2319178 0.12559801
2547 -627 181 -0.7081688 0.21523286 -0.67243725 0.13101535
2626 -579 140 -0.70715183 0.15556996 -0.689735 0.19797464
2576 -589 180 -0.52806699 0.16694959 -0.83263028 0.097881027
2589 -631 141 -0.50538164 0.66709757 -0.54733014 0.15953946
2535 -507 173 -0.79257143 -0.54422051 -0.27505392 0.10233451
2485 -422 206 -0.97312993 -0.20476374 0.10530918 0.11978066
2493 -437 207 -0.9653213 -0.23226349 0.11919973 0.13165595
2516 -469 211 -0.85261738 -0.45117685 -0.26359639 0.14705724
2485 -408 205 -0.98018354 -0.15185516 0.12720157 0.10639279
2498 -452 209 -0.92940158 -0.36872545 -0.015944257 0.15546183
2536 -624 215 -0.64659101 0.0024146729 -0.76283306 0.16814873
2582 -612 175 -0.55245578 0.42611533 -0.71639252 0.095916502
2622 -579 175 -0.83695072 -0.54582036 0.039922014 0.23221117
2572 -596 173 -0.58043754 0.27505738 -0.76644355 0.09536878
2534 -513 209 -0.8024388 -0.38085026 -0.45939636 0.12288986
2626 -594 176 -0.83298689 0.38728476 -0.39514998 0.25741643
2587 -543 171 -0.67305613 -0.70352978 -0.22812569 0.1335021
2562 -524 169 -0.73978168 -0.62271881 -0.25484186 0.14186096
2610 -597 130 -0.62328029 0.29321432 -0.72494626 0.17329845
2565 -636 175 -0.60971433 0.38299835 -0.69394571 0.12644233
2575 -625 175 -0.58859462 0.33582434 -0.73537636 0.10713775
2527 -498 207 -0.78190631 -0.5824576 -0.2221839 0.11859386
2647 -620 133 -0.54234719 -0.01211508 -0.84006703 0.12710592
2599 -560 173 -0.73477584 -0.66869682 -0.11379361 0.15638986
2538 -611 215 -0.5430823 0.08605469 -0.83525819 0.15526061
2638 -589 131 -0.6133852 0.16641249 -0.77205276 0.14131527
2566 -511 168 -0.73420972 -0.63900751 -0.22935905 0.1613922
2613 -606 148 -0.58696252 0.3676253 -0.72133666 0.15514854
2520 -473 225 -0.87122244 -0.40290016 -0.28043336 0.15196267
2561 -604 187 -0.63782525 0.19540717 -0.7449798 0.11389997
2590 -548 146 -0.72733319 -0.63942999 -0.24923021 0.14839306
2610 -565 147 -0.79131562 -0.59144711 0.1549513 0.17668414
2566 -539 186 -0.72570878 -0.66312289 -0.18334328 0.13192195
2521 -486 225 -0.8090601 -0.51234394 -0.28796774 0.12698841
2568 -513 186 -0.74069333 -0.61076629 -0.27988896 0.1559736
2562 -617 187 -0.63360292 0.29221866 -0.71634871 0.10920163
2561 -630 187 -0.64120883 0.27514932 -0.71634078 0.11365795
2644 -586 149 -0.68391663 0.28324598 -0.67233157 0.17085785
2604 -590 147 -0.57084757 0.11976233 -0.81227463 0.18686882
2573 -593 188 -0.56148481 0.25687081 -0.7866081 0.10125317
2562 -525 185 -0.71867102 -0.67120564 -0.18164517 0.13742183
2498 -465 264 -0.9558413 -0.16750893 -0.24147083 0.14249574
2522 -499 226 -0.77105314 -0.3248677 -0.54766595 0.13041338
2511 -459 224 -0.92237037 -0.35788146 -0.14544347 0.16392054
2500 -440 264 -0.89403439 0.12679505 -0.42968062 0.1431711
2503 -415 264 -0.91028535 0.18157138 -0.37203813 0.16214718
2492 -451 263 -0.95537275 -0.018288648 -0.29483616 0.13957739
2502 -427 264 -0.86952013 0.1800781 -0.45989862 0.15575267
2650 -622 138 -0.55681485 -0.051717922 -0.82902503 0.12052835
2595 -633 154 -0.51324695 0.54295576 -0.66466278 0.14810571
2599 -592 153 -0.56879747 0.16363452 -0.8060354 0.17266759
2590 -548 150 -0.75335091 -0.65029198 -0.097891785 0.13844571
2617 -610 154 -0.57626581 0.35537061 -0.7359547 0.16275142
2621 -569 153 -0.80993515 -0.56632173 0.15259324 0.18214343
2589 -534 150 -0.69161677 -0.69732046 -0.18817675 0.14097202
2631 -585 154 -0.85965204 0.065136641 -0.50671059 0.2302072
2596 -556 169 -0.72411382 -0.66299164 -0.19000329 0.13126314
2568 -642 169 -0.53552383 0.58346933 -0.61055529 0.13591622
2538 -604 211 -0.54450959 -0.0027376499 -0.83875006 0.15083413
2624 -589 172 -0.85740298 0.22890526 -0.46093664 0.22561209
2544 -619 211 -0.60929006 0.1348061 -0.7814045 0.16477248
2570 -629 169 -0.55766773 0.46133173 -0.69005775 0.12825842
2617 -601 172 -0.59329987 0.45046234 -0.66714245 0.17431217
2611 -573 171 -0.85023671 -0.51665032 -0.10084691 0.231701
2540 -631 211 -0.68997616 0.051953577 -0.72196513 0.1757769
2632 -594 129 -0.62758714 0.11600439 -0.76985544 0.14867413
2627 -606 129 -0.57275093 0.19151185 -0.79704422 0.1531475
2580 -619 170 -0.56849307 0.35481656 -0.74224049 0.098857418
2494 -449 245 -0.97952133 -0.11243714 -0.1670206 0.16193049
2564 -510 167 -0.73047775 -0.64646876 -0.22018252 0.16364862
2499 -475 246 -0.92624545 -0.36009708 -0.11135278 0.16304819
2497 -462 246 -0.9497056 -0.27730119 -0.14547609 0.16029935
2529 -511 208 -0.81612682 -0.50676662 -0.27771318 0.10081884
2497 -488 247 -0.79804993 -0.5731855 0.18594262 0.17753591
2557 -522 167 -0.75690234 -0.59205055 -0.27672175 0.13737415
2509 -439 246 -0.96065933 -0.013544034 -0.27739888 0.17782719
2573 -538 168 -0.70713717 -0.67883134 -0.197851 0.13369633
2531 -499 208 -0.79372782 -0.57636076 -0.19443358 0.11508942
2488 -458 224 -0.9442758 -0.30431333 -0.12544528 0.1503327
2492 -474 225 -0.89317155 -0.40429598 -0.19695003 0.15984331
2481 -420 266 -0.9420923 0.074740015 -0.32691902 0.16363871
2535 -618 188 -0.62105972 0.13792416 -0.77153206 0.12337119
2534 -633 188 -0.60610467 0.28370616 -0.74306655 0.15839784
2564 -595 190 -0.59436321 0.26270074 -0.76007938 0.11478996
2540 -529 187 -0.79520524 -0.51660901 -0.31743306 0.1099831
2476 -433 262 -0.95944935 -0.05182559 -0.27707589 0.16147295
2464 -411 301 -0.84946585 0.33241946 -0.40976223 0.1723499
2503 -474 226 -0.87426531 -0.40640569 -0.26550832 0.15121226
2509 -490 227 -0.81100202 -0.54884613 -0.20259254 0.14720978
2493 -457 225 -0.95591736 -0.27508587 -0.10271226 0.15463622
2474 -447 263 -0.96254861 -0.22487494 -0.15143153 0.14540218
2480 -418 262 -0.97293496 -0.029467251 -0.2291927 0.16404052
2471 -415 297 -0.79470181 0.42884839 -0.42957884 0.15614705
2456 -420 305 -0.66452795 0.49893171 -0.55630004 0.14808169
2588 -547 169 -0.70512235 -0.65806746 -0.26410186 0.1267162
2644 -594 132 -0.61381418 0.057919443 -0.78732294 0.13901941
2584 -603 172 -0.52705455 0.40613711 -0.74650264 0.094053619
2537 -628 215 -0.65846193 0.026110951 -0.75216097 0.17671905
2566 -529 167 -0.73213512 -0.63662291 -0.242259 0.13194744
2534 -516 208 -0.79643065 -0.40789887 -0.44644901 0.12196206
2596 -563 171 -0.70140135 -0.51918453 -0.48834774 0.17706348
2582 -617 173 -0.54854125 0.41787121 -0.72421414 0.097419366
2573 -629 173 -0.57685238 0.38740551 -0.71913713 0.11882859
2618 -602 131 -0.60961545 0.31113335 -0.72908509 0.16784902
2536 -614 214 -0.52695686 0.13177653 -0.83961385 0.15490192
2621 -583 173 -0.92787385 -0.17638923 -0.32853746 0.2543456
2566 -515 167 -0.72625291 -0.64586604 -0.23540159 0.15391903
2612 -595 173 -0.6072166 0.37917471 -0.69822234 0.19727433
2537 -600 214 -0.52068383 -0.0061502922 -0.8537274 0.15165824
2528 -501 207 -0.75391454 -0.63671952 -0.16186769 0.11960758
2503 -463 245 -0.96009934 -0.21742666 -0.17588349 0.16720062
2507 -478 246 -0.90542477 -0.38098037 -0.18724297 0.17816913
2503 -450 244 -0.97011936 -0.090049773 -0.22529845 0.16463332
2502 -490 246 -0.89341813 -0.33140135 -0.30327749 0.18257524
2561 -621 184 -0.63000005 0.32522365 -0.70521587 0.1070518
2554 -635 185 -0.66585577 0.30975953 -0.67873794 0.11507442
2563 -606 183 -0.61077797 0.25920951 -0.74817163 0.10507491
2607 -605 140 -0.61682439 0.39965791 -0.67808634 0.15417682
2572 -515 179 -0.74458343 -0.61568421 -0.25793111 0.16172707
2497 -446 210 -0.9521665 -0.30504659 0.018040366 0.14793265
2511 -464 212 -0.88437164 -0.41155028 -0.22025694 0.16205293
2493 -440 250 -0.9786216 -0.12939522 -0.15986452 0.16010052
2490 -424 249 -0.99373114 -0.038337089 -0.10501793 0.16257362
2516 -480 214 -0.82074654 -0.46629173 -0.33007154 0.1397332
2561 -528 179 -0.6988042 -0.68911684 -0.19180867 0.13041577
2537 -499 216 -0.80901724 -0.47832304 -0.34161115 0.12561727
2579 -547 181 -0.71271539 -0.64347559 -0.27924201 0.12426166
2630 -574 185 -0.69083345 -0.69433069 0.20162842 0.14938524
2627 -578 140 -0.64066291 0.26745021 -0.71973705 0.19899355
2546 -636 173 -0.60909367 0.50422764 -0.612176 0.15419532
2532 -627 216 -0.59942824 0.020869745 -0.80015641 0.1685884
2532 -483 208 -0.79623163 -0.5392344 -0.27430192 0.1237234
2560 -623 173 -0.61499244 0.35320738 -0.70500278 0.11582696
2513 -454 245 -0.95039696 -0.059387341 -0.30531734 0.19231428
2498 -413 282 -0.86100543 0.28494954 -0.42127582 0.15384781
2572 -609 173 -0.58912838 0.37508723 -0.71570754 0.10495304
2632 -606 176 -0.66896766 0.52068514 -0.53044254 0.2259842
2514 -470 246 -0.92810726 -0.23697609 -0.28715709 0.17393833
2565 -526 168 -0.74242449 -0.62234461 -0.247978 0.13931035
2543 -500 209 -0.7979784 -0.51739597 -0.30908236 0.12736933
2621 -587 174 -0.9457829 0.05357052 -0.32035106 0.24908222
2515 -439 244 -0.98085612 -0.085037433 -0.17518535 0.19687086
2579 -545 170 -0.69110698 -0.69541204 -0.19690953 0.11844919
2608 -568 173 -0.81870216 -0.55707181 -0.13927604 0.22128205
2558 -509 167 -0.74424618 -0.62669045 -0.23099078 0.14602739
2584 -635 164 -0.51367801 0.47540081 -0.7142331 0.11728247
2551 -634 206 -0.69488215 0.22715418 -0.68230468 0.16792271
2627 -588 163 -0.911075 0.1210021 -0.39408225 0.22911765
2543 -590 203 -0.54606909 0.03143774 -0.83714998 0.1332956
2558 -552 202 -0.66109228 -0.17853537 -0.72875386 0.15511809
2611 -599 163 -0.63585496 0.39920825 -0.66054624 0.18873109
2592 -552 160 -0.73090094 -0.63176942 -0.25816891 0.12697326
2553 -621 206 -0.63063556 0.23492503 -0.73966813 0.14921908
2596 -609 163 -0.56989378 0.42878377 -0.70097464 0.1215972
2613 -570 162 -0.85056913 -0.52573758 -0.011497745 0.21547012
2597 -624 164 -0.50944746 0.45259523 -0.73186117 0.12618238
2549 -606 204 -0.62192333 0.15825212 -0.76692086 0.13747866
2558 -538 201 -0.74113905 -0.49383187 -0.4547998 0.14595145
2577 -535 158 -0.70743001 -0.65699214 -0.26058429 0.1402121
2504 -480 236 -0.88161498 -0.4328852 -0.18805693 0.16131204
2514 -496 238 -0.69293034 -0.0020725857 -0.72100157 0.14077936
2552 -523 200 -0.74087304 -0.63253886 -0.22583587 0.1393944
2636 -613 125 -0.51002604 0.14321344 -0.84815288 0.14192316
2617 -607 128 -0.51074022 0.41874295 -0.75086534 0.16905333
2573 -604 167 -0.57866079 0.36115506 -0.73124462 0.10076409
2618 -586 169 -0.70694417 0.23085386 -0.66853303 0.23709248
2539 -620 207 -0.62305462 0.11186698 -0.77413744 0.16315933
2579 -619 167 -0.58006728 0.35182437 -0.734671 0.10756411
2624 -602 170 -0.66278416 0.45458546 -0.59503716 0.18104602
2565 -643 167 -0.51719278 0.6212256 -0.58871931 0.12997898
2576 -632 167 -0.53820324 0.48054275 -0.69239873 0.11254147
2532 -632 206 -0.7232936 -0.06185104 -0.687765 0.16458167
2651 -600 129 -0.56054431 0.00037278442 -0.8281244 0.13059162
2493 -425 284 -0.87297863 0.24447505 -0.42206657 0.15447256
2584 -551 167 -0.73454881 -0.61436725 -0.28808153 0.12139169
2531 -509 204 -0.82101792 -0.43845251 -0.36563495 0.11047965
2543 -498 205 -0.79476804 -0.49901178 -0.34544316 0.11566126
2562 -533 165 -0.73220158 -0.63319856 -0.25087935 0.1387649
2491 -411 283 -0.9162423 0.24824703 -0.31444147 0.1494785
2498 -484 244 -0.88519508 -0.4605729 -0.065591365 0.18838358
2557 -518 164 -0.7398957 -0.63133723 -0.23230959 0.14538507
2500 -471 244 -0.94052851 -0.323726 -0.10299286 0.1614105
2496 -457 243 -0.96232128 -0.13972324 -0.23327045 0.1648128
2604 -569 168 -0.71686101 -0.40842751 -0.56506401 0.2213919
2546 -526 206 -0.77476728 -0.52965522 -0.34525508 0.13549377
2497 -443 243 -0.98148674 -0.14377436 -0.12654115 0.16714744
2547 -637 196 -0.70335507 0.1806612 -0.68749768 0.14631681
2583 -633 153 -0.50314736 0.65406686 -0.56483567 0.13656516
2551 -623 196 -0.62853712 0.23591788 -0.74113685 0.14058161
2615 -579 154 -0.89420766 -0.2846792 -0.34547126 0.2327815
2548 -607 195 -0.615453 0.2033179 -0.76149809 0.1270355
2506 -472 229 -0.89749831 -0.36369237 -0.24944878 0.15555884
2588 -604 153 -0.56629562 0.32172343 -0.75881708 0.12415012
2553 -533 194 -0.73659843 -0.60468996 -0.30294022 0.12079303
2488 -449 268 -0.93824667 -0.033619396 -0.34432963 0.13039824
2627 -597 155 -0.74587047 0.20362635 -0.63420308 0.21551169
2501 -437 269 -0.83976161 0.22569788 -0.49382278 0.1475241
2554 -548 194 -0.70933342 -0.25137511 -0.65852606 0.14088498
2545 -516 193 -0.78791988 -0.52877313 -0.31556496 0.12866986
2567 -538 151 -0.73612964 -0.62470269 -0.26049876 0.13455239
2588 -558 152 -0.787386 -0.61396688 -0.055388823 0.14570996
2509 -487 230 -0.83286107 -0.51797825 -0.19504088 0.14521588
2603 -623 154 -0.55346715 0.47859478 -0.68163127 0.14102185
2511 -502 230 -0.77002454 -0.25460994 -0.58500946 0.14105128
2486 -464 268 -0.9531557 -0.083491303 -0.29072911 0.13662407
2565 -641 175 -0.58377659 0.44578427 -0.67858762 0.12792389
2605 -566 172 -0.81190282 -0.55215973 -0.18956132 0.20875075
2626 -592 130 -0.6338836 0.15252419 -0.75824004 0.16503264
2575 -601 173 -0.57297695 0.35103315 -0.7405898 0.090147667
2570 -628 174 -0.5991559 0.36583757 -0.71216226 0.12055618
2617 -603 130 -0.57612514 0.34156051 -0.7425741 0.15706687
2633 -601 176 -0.90647238 0.3642717 -0.21357405 0.23400715
2530 -628 214 -0.64993411 -0.087129004 -0.75497955 0.1632237
2577 -616 174 -0.55991995 0.37839174 -0.73709512 0.090125971
2623 -584 175 -0.91933298 -0.39073291 0.046418596 0.24977325
2529 -503 207 -0.76867801 -0.61564881 -0.17352393 0.12128066
2566 -530 168 -0.72775418 -0.64924312 -0.2210367 0.13032743
2541 -519 209 -0.78132999 -0.39456695 -0.48357043 0.13842116
2569 -516 168 -0.73652858 -0.62931681 -0.24796383 0.15348871
2526 -489 206 -0.80327904 -0.52383578 -0.28344122 0.11873209
2588 -548 171 -0.71274847 -0.65159386 -0.25964397 0.12116396
2563 -548 135 -0.75135565 -0.64084703 -0.15741602 0.14239135
2554 -528 178 -0.72111166 -0.67172563 -0.16965452 0.12739626
2619 -587 138 -0.72570336 0.083918892 -0.68287063 0.19405648
2636 -604 139 -0.65988511 0.023886973 -0.7509867 0.14149705
2561 -620 161 -0.55422181 0.54551947 -0.62868643 0.12785389
2579 -511 156 -0.68934911 -0.72436076 -0.0099634808 0.18998644
2475 -438 270 -0.94619918 -0.055364922 -0.31881317 0.14691108
2560 -523 156 -0.73777372 -0.61590129 -0.2763249 0.14993869
2521 -509 197 -0.77470344 -0.56784648 -0.27818161 0.10221504
2484 -462 231 -0.94355243 -0.30416176 -0.13112767 0.14557537
2459 -412 309 -0.75948834 0.26157582 -0.5956136 0.14108226
2485 -424 270 -0.9189232 0.15495045 -0.36272654 0.14057636
2618 -601 163 -0.64157152 0.39915651 -0.65502673 0.19126393
2515 -452 233 -0.96607333 -0.24379085 -0.085254237 0.17501946
2487 -478 233 -0.90338606 -0.41743204 -0.098204948 0.16047052
2477 -422 297 -0.92095572 0.22878395 -0.3154338 0.18088476
2494 -432 257 -0.95001179 0.025810357 -0.31114534 0.15495485
2488 -448 257 -0.9800114 -0.10840786 -0.16680948 0.14666793
2549 -640 179 -0.62988764 0.4414978 -0.63900006 0.11772645
2529 -474 209 -0.83062881 -0.44566855 -0.33381921 0.12294443
2639 -588 135 -0.6336574 0.15970168 -0.7569502 0.15508306
2578 -553 176 -0.75192016 -0.55337417 -0.35831967 0.1350242
2563 -535 174 -0.70344871 -0.68840867 -0.17678654 0.13457642
2497 -447 246 -0.97599989 -0.13882478 -0.16778526 0.16710711
2558 -611 178 -0.62357408 0.33173251 -0.70789051 0.11254793
2483 -407 285 -0.87006181 0.33941492 -0.35747719 0.18615642
2492 -461 246 -0.95776749 -0.25273663 -0.13713382 0.15431578
2494 -438 288 -0.761401 0.35137811 -0.54479539 0.14449869
2610 -613 135 -0.54712754 0.45648146 -0.70162392 0.16424771
2624 -579 180 -0.82104439 -0.5535199 0.13964868 0.23307736
2498 -477 248 -0.93120718 -0.34892538 -0.10537649 0.1727134
2562 -519 173 -0.73016018 -0.6520068 -0.20433612 0.13863681
2520 -502 210 -0.74270624 -0.63857484 -0.20151827 0.12166643
2555 -626 179 -0.64902902 0.31406444 -0.69291043 0.12119515
2512 -485 208 -0.79897648 -0.54205531 -0.26040849 0.13168307
2493 -431 245 -0.98436612 -0.14340173 -0.10227114 0.16098644
2632 -609 122 -0.5157876 0.17350172 -0.83896387 0.14079574
2619 -578 150 -0.91128284 -0.32955924 -0.24688929 0.22170499
2607 -602 150 -0.59348166 0.30761319 -0.743743 0.16086023
2629 -593 151 -0.68167442 0.19942726 -0.70395219 0.20660195
2599 -560 148 -0.72608393 -0.61744082 0.30260354 0.15418644
2591 -545 148 -0.71217716 -0.65188003 -0.26049218 0.13294011
2615 -617 151 -0.53788477 0.34735626 -0.76813 0.15016598
2596 -526 150 -0.59313226 -0.58443594 -0.55374074 0.20311292
2553 -545 192 -0.75229466 -0.34324685 -0.56234723 0.13759135
2597 -618 152 -0.58247268 0.52317697 -0.62210238 0.1431841
2587 -600 151 -0.5572139 0.29329938 -0.77684504 0.13193811
2612 -576 152 -0.88269901 -0.3453598 -0.31869906 0.21691595
2561 -534 148 -0.75063884 -0.60693884 -0.26108715 0.14573735
2547 -528 192 -0.76615149 -0.58041823 -0.27591038 0.11078756
2573 -552 149 -0.7339263 -0.65382057 -0.18404062 0.11453561
2588 -631 151 -0.52036852 0.62193042 -0.58516604 0.14350852
2538 -617 193 -0.63682806 0.11851615 -0.76184249 0.11348271
2542 -632 193 -0.68636996 0.13078046 -0.71539694 0.12979232
2497 -482 227 -0.84322542 -0.51051414 -0.16836293 0.14676447
2543 -512 191 -0.80606252 -0.44709074 -0.38777962 0.12628573
2624 -594 153 -0.7132532 0.20081401 -0.67152333 0.21591902
2628 -576 198 -0.53804636 -0.75115347 0.38245848 0.16268118
2480 -430 265 -0.92860204 0.080614805 -0.36221477 0.13397145
2496 -467 226 -0.91961366 -0.3467288 -0.18463415 0.15555024
2477 -444 265 -0.96449739 -0.10307427 -0.243147 0.13920915
2556 -621 186 -0.62119985 0.31079346 -0.71938735 0.11111545
2553 -634 187 -0.6774379 0.23678233 -0.696428 0.1188829
2570 -540 183 -0.72616029 -0.65474683 -0.20975645 0.13506685
2614 -569 144 -0.85382015 -0.51994342 0.025493206 0.19591781
2556 -524 181 -0.73119777 -0.65917754 -0.17559867 0.1221397
2602 -595 144 -0.58957899 0.23501801 -0.77276337 0.16214582
2557 -607 185 -0.633811 0.19811262 -0.74768645 0.11726195
2636 -588 145 -0.72002351 0.14321442 -0.67901081 0.18634443
2621 -579 188 -0.67408538 -0.6600678 0.33154088 0.22549689
2617 -612 146 -0.55159986 0.31808415 -0.77107722 0.15147653
2546 -591 184 -0.57344586 0.10280958 -0.81276691 0.11621707
2578 -618 170 -0.57965153 0.34654504 -0.73750293 0.10500779
2629 -593 129 -0.63171953 0.13271168 -0.76375258 0.15948631
2589 -554 169 -0.7246334 -0.63007671 -0.2791234 0.11804713
2627 -603 172 -0.63141978 0.49180168 -0.59953326 0.20602253
2579 -605 170 -0.55099189 0.40701729 -0.72852236 0.094149575
2574 -538 168 -0.6947524 -0.69456226 -0.18682194 0.13259622
2575 -630 170 -0.57073224 0.39456165 -0.72012901 0.11729039
2622 -605 129 -0.55685306 0.29665035 -0.77583069 0.15596053
2562 -640 169 -0.518628 0.58357066 -0.62487626 0.13440332
2528 -614 210 -0.55272579 -0.047388788 -0.8320148 0.13935736
2616 -573 171 -0.8644504 -0.49814358 -0.067664288 0.2339047
2626 -589 172 -0.92731535 0.19731145 -0.31804785 0.2406819
2538 -630 211 -0.71156269 -0.018162288 -0.70238775 0.17891109
2562 -522 167 -0.75130081 -0.60912716 -0.25399047 0.1438874
2501 -475 247 -0.93289697 -0.34161311 -0.11403356 0.16743696
2506 -464 247 -0.95417422 -0.15407285 -0.25654063 0.1711311
2564 -510 167 -0.73047775 -0.64646876 -0.22018252 0.16364862
2498 -449 246 -0.97058594 -0.065654919 -0.2316294 0.16615066
2533 -512 209 -0.81934792 -0.37767619 -0.43131146 0.11574104
2494 -436 245 -0.98157936 -0.1420272 -0.12779029 0.16715567
2528 -498 208 -0.7681281 -0.61195523 -0.18838821 0.12383063
2619 -605 133 -0.58232838 0.34256801 -0.73725218 0.15971529
2650 -626 135 -0.50318754 -0.021686753 -0.86390507 0.13201483
2617 -591 132 -0.69713402 0.1613006 -0.69856018 0.18067838
2588 -550 168 -0.73322654 -0.62514508 -0.26753011 0.12446374
2607 -601 172 -0.58837658 0.46571654 -0.66100013 0.15750505
2566 -638 172 -0.58674139 0.44695222 -0.67525429 0.12908846
2633 -591 172 -0.93389165 0.29713708 -0.19888674 0.25453964
2633 -612 128 -0.54277074 0.14899018 -0.82656026 0.14269908
2606 -590 126 -0.59130627 0.22963995 -0.77306038 0.19506656
2573 -624 171 -0.56187886 0.39542755 -0.7265873 0.11350493
2610 -570 170 -0.83489978 -0.50013769 -0.22979249 0.2323513
2578 -610 171 -0.55810142 0.40219048 -0.72578627 0.091131285
2531 -621 210 -0.57679933 0.010403068 -0.81681961 0.15321787
2568 -530 165 -0.73295379 -0.63130134 -0.25345069 0.13891229
2514 -474 241 -0.89649481 -0.39954147 -0.19147781 0.16622986
2504 -443 238 -0.98241663 -0.15144002 -0.10919496 0.16856223
2499 -427 237 -0.98216188 -0.18730175 0.016619228 0.15640849
2550 -518 205 -0.75295961 -0.62217188 -0.2143687 0.13750282
2541 -485 202 -0.79515624 -0.47594273 -0.37577277 0.13898873
2505 -458 239 -0.95637465 -0.2344161 -0.17434634 0.17762645
2569 -515 165 -0.73090351 -0.64695364 -0.21732697 0.15891561
2491 -402 278 -0.93925309 0.21814875 -0.26498076 0.16623247
2536 -500 203 -0.79803157 -0.52070844 -0.3033286 0.12032581
2597 -602 148 -0.61534286 0.3311244 -0.71533895 0.14751878
2634 -576 191 -0.53857023 -0.78350544 0.30993751 0.15019734
2494 -452 260 -0.95785552 -0.021305434 -0.28645918 0.13504094
2522 -490 223 -0.80260777 -0.53677726 -0.26017475 0.12029614
2549 -601 188 -0.6224401 0.16374654 -0.76534665 0.12123404
2600 -559 146 -0.74374706 -0.62598342 0.23448904 0.15566841
2489 -464 261 -0.96741253 -0.20814778 -0.14417848 0.12719497
2564 -533 185 -0.70083433 -0.69429117 -0.16367961 0.12601861
2631 -581 148 -0.7369374 0.18394384 -0.65045214 0.21225227
2595 -632 150 -0.5111264 0.59273189 -0.62242967 0.14792764
2593 -544 145 -0.69128329 -0.65040755 -0.31479758 0.14375867
2525 -504 224 -0.78986388 -0.40102372 -0.46399888 0.11784018
2546 -630 189 -0.64927262 0.21227573 -0.73033148 0.11870953
2565 -547 186 -0.76858521 -0.44955894 -0.45516321 0.16027869
2511 -474 221 -0.87244594 -0.45084476 -0.18861857 0.14785518
2615 -591 148 -0.63965154 0.2275603 -0.73420858 0.20564079
2555 -517 183 -0.73948401 -0.64248776 -0.20092969 0.137181
2552 -616 189 -0.61280584 0.23383687 -0.75484383 0.12034006
2506 -440 261 -0.83562243 0.18286136 -0.51797372 0.16122533
2498 -426 259 -0.88610405 0.17835735 -0.42779469 0.16108292
2604 -597 125 -0.55130684 0.43152997 -0.71403271 0.19274034
2573 -624 158 -0.55586112 0.52187026 -0.64704698 0.13843927
2588 -614 159 -0.56314272 0.45560801 -0.68941396 0.11896175
2593 -549 158 -0.72060931 -0.6352933 -0.27771327 0.13287792
2634 -598 161 -0.73701233 0.31159347 -0.59976864 0.20575552
2627 -583 160 -0.95081198 -0.15045288 -0.27077752 0.22871892
2572 -531 156 -0.73937148 -0.61608464 -0.27160531 0.1545874
2571 -639 166 -0.50915569 0.57768577 -0.63799655 0.12283827
2577 -627 166 -0.57033396 0.43207678 -0.69859052 0.11347973
2604 -599 123 -0.50406712 0.46910056 -0.7251628 0.18970533
2580 -614 166 -0.5490573 0.37745333 -0.74569768 0.11145027
2630 -591 124 -0.53667194 0.20924762 -0.81743419 0.13466674
2551 -643 208 -0.60066253 0.50061154 -0.62337184 0.18767141
2530 -625 206 -0.65293258 -0.11180919 -0.74911803 0.1464618
2625 -585 168 -0.92180717 0.053691175 -0.38391247 0.23815084
2504 -464 200 -0.83572561 -0.51117396 -0.2006586 0.16160303
2501 -451 199 -0.89336085 -0.44459718 -0.065112412 0.17370476
2584 -549 165 -0.72855371 -0.59694785 -0.33595064 0.12332854
2550 -499 204 -0.78260863 -0.46815568 -0.4103097 0.12448585
2615 -569 167 -0.85019398 -0.52122205 -0.074146725 0.21587659
2573 -534 164 -0.72466165 -0.6419636 -0.250496 0.136903
2493 -436 198 -0.96367168 -0.26421425 -0.039087154 0.14880504
2572 -520 164 -0.73948765 -0.62680936 -0.24549542 0.15936393
2489 -423 198 -0.97114253 -0.23423125 0.044922087 0.13107336
2491 -411 198 -0.97435808 -0.2188414 0.052294537 0.1241443
2508 -478 201 -0.78745782 -0.51568574 -0.33760685 0.14514913
2590 -625 145 -0.58523494 0.63455057 -0.50482249 0.16486706
2607 -563 145 -0.78764069 -0.60109627 0.13529764 0.17426987
2550 -508 183 -0.80933827 -0.48140332 -0.33648527 0.14259252
2627 -581 147 -0.82477462 -0.043416165 -0.56379235 0.22386232
2534 -635 184 -0.51759154 0.479038 -0.70895809 0.16126032
2531 -621 184 -0.64454561 0.13598575 -0.75237542 0.16220737
2576 -543 143 -0.71251839 -0.65686852 -0.24666034 0.12856273
2641 -597 148 -0.72037816 0.073830239 -0.68964082 0.15670657
2503 -461 179 -0.77994514 -0.55011618 -0.29842559 0.11936834
2568 -603 176 -0.59658855 0.32973099 -0.73168266 0.10728998
2626 -572 179 -0.80776519 -0.57364255 0.13582952 0.19637942
2632 -576 134 -0.66876704 0.20560449 -0.714477 0.18051627
2553 -613 175 -0.63403481 0.31804788 -0.70487255 0.11660572
2557 -528 174 -0.71974683 -0.66674042 -0.19344692 0.12689425
2543 -640 175 -0.53252792 0.61512196 -0.5814113 0.14315511
2596 -551 177 -0.70651209 -0.70507216 -0.060940776 0.12383967
2633 -591 135 -0.67663783 0.060752753 -0.73380536 0.15078537
2544 -511 173 -0.78839988 -0.54467732 -0.28592354 0.12270312
2550 -627 175 -0.68235147 0.28102797 -0.67484796 0.12226872
2496 -453 208 -0.93282276 -0.35956517 -0.023549657 0.15711564
2493 -438 208 -0.96911222 -0.2086699 0.13144718 0.1354949
2538 -475 212 -0.78771788 -0.35600504 -0.50275326 0.16432555
2487 -410 207 -0.97100627 -0.14518084 0.18991932 0.10569837
2493 -424 208 -0.967246 -0.19754428 0.15940934 0.10968895
2498 -448 207 -0.95183581 -0.30224335 0.051551681 0.15023464
2494 -418 205 -0.971789 -0.19789863 0.12830509 0.11287162
2491 -432 205 -0.97425729 -0.19195379 0.11822162 0.12245081
2524 -468 210 -0.84023249 -0.42945626 -0.33102375 0.13027635
2622 -599 120 -0.51219004 0.27109116 -0.81496686 0.1540833
2624 -586 119 -0.53400165 0.19299147 -0.8231625 0.15117204
2548 -609 195 -0.61820668 0.2182382 -0.75511092 0.1246459
2551 -636 196 -0.66273981 0.2666865 -0.69975293 0.1510011
2555 -624 196 -0.63701922 0.27802318 -0.71896422 0.1384452
2568 -600 196 -0.58603716 0.37281424 -0.71942335 0.12795179
2617 -603 155 -0.62660253 0.33686176 -0.70277548 0.1792952
2605 -614 154 -0.59925836 0.42476177 -0.67857701 0.13708217
2643 -613 128 -0.54075974 0.044507373 -0.83999878 0.13359669
2625 -582 127 -0.59680694 0.26839545 -0.75616491 0.17885715
2604 -591 126 -0.6054464 0.22399971 -0.76371384 0.19883068
2566 -621 198 -0.64681518 0.32683933 -0.68906176 0.12695295
2579 -532 151 -0.68705732 -0.67858785 -0.25975123 0.16421659
2620 -611 157 -0.56549805 0.31680271 -0.76147747 0.16261557
2625 -570 155 -0.83583111 -0.54512179 0.06502784 0.18640313
2575 -609 198 -0.56759983 0.44905037 -0.69006103 0.1282642
2612 -595 156 -0.67564917 0.30368188 -0.67177051 0.19135872
2606 -552 153 -0.75319421 -0.59665048 -0.27695945 0.1782798
2615 -582 155 -0.85232252 -0.15339734 -0.50001556 0.23817898
2565 -524 192 -0.70379329 -0.67648613 -0.21689066 0.14384456
2574 -595 197 -0.5538829 0.38803929 -0.73664045 0.11903912
2566 -516 150 -0.71807021 -0.67603076 -0.16540101 0.17316906
2598 -612 169 -0.5231005 0.46494621 -0.71427649 0.11420043
2575 -633 168 -0.53340435 0.49027812 -0.68928009 0.11373634
2584 -623 168 -0.54516548 0.409318 -0.73161006 0.10737856
2548 -622 210 -0.62488681 0.18611836 -0.75820607 0.16027033
2642 -613 128 -0.53954917 0.039232172 -0.84103954 0.13473271
2545 -609 210 -0.59020901 0.12534156 -0.79746014 0.15964848
2584 -596 168 -0.54799664 0.27006236 -0.79168552 0.1189952
2550 -636 211 -0.69646901 0.22166891 -0.68249089 0.18927047
2506 -454 245 -0.9647947 -0.11717314 -0.23546065 0.16368033
2512 -481 246 -0.89184177 -0.29663292 -0.34150743 0.16341612
2629 -593 171 -0.74208093 0.39689523 -0.54017597 0.2407348
2533 -489 206 -0.79317129 -0.49278939 -0.35782376 0.13609032
2601 -560 168 -0.72015703 -0.63324797 -0.28349769 0.15552269
2587 -544 167 -0.68713522 -0.68944269 -0.22915947 0.12656671
2566 -526 166 -0.7343505 -0.62362593 -0.26799273 0.14152455
2537 -502 207 -0.80070841 -0.50009507 -0.32980439 0.12460954
2505 -441 244 -0.9739964 -0.090222485 -0.20782427 0.16239405
2545 -517 208 -0.78560185 -0.52829921 -0.32207105 0.13291861
2617 -594 127 -0.67288858 0.13760225 -0.72683328 0.16883671
2498 -465 244 -0.94747186 -0.29487088 -0.12388805 0.15985477
2500 -427 244 -0.99297595 -0.082873173 -0.084444195 0.1685707
2620 -577 170 -0.88262421 -0.40505585 -0.23854615 0.23124544
2563 -513 165 -0.73910385 -0.63469094 -0.22559465 0.16077128
2499 -422 266 -0.90889323 0.1507742 -0.38881916 0.16190882
2507 -482 227 -0.84639502 -0.51597857 -0.13183959 0.14066894
2498 -456 268 -0.91346067 0.048307106 -0.40404952 0.13779585
2496 -439 266 -0.88177943 0.12486635 -0.45483339 0.14453536
2504 -407 265 -0.90681678 0.1658105 -0.38754386 0.15783183
2498 -446 224 -0.96769929 -0.2493411 -0.037243668 0.14449129
2501 -463 225 -0.92017645 -0.36891294 -0.13106686 0.16056892
2497 -441 253 -0.95569628 -0.005699222 -0.29429948 0.16130419
2496 -424 252 -0.98849761 0.0062567457 -0.15110698 0.1654298
2495 -457 254 -0.96242279 -0.11184173 -0.24745479 0.15042517
2476 -414 293 -0.87847137 0.33373851 -0.34191632 0.18228294
2618 -588 173 -0.71376175 0.2591677 -0.65067369 0.24128322
2565 -518 166 -0.72412807 -0.64467818 -0.24500729 0.15321772
2645 -588 132 -0.58778286 0.16826472 -0.79132688 0.13636459
2506 -436 243 -0.98485595 -0.12461855 -0.12053568 0.16903834
2486 -440 283 -0.88493931 0.1801888 -0.42943504 0.1454628
2539 -507 206 -0.81057292 -0.46126527 -0.36084056 0.11531594
2504 -415 283 -0.86740911 0.24485523 -0.43318272 0.1588532
2506 -479 245 -0.85772038 -0.51187921 -0.047911268 0.17960963
2569 -543 210 -0.66483027 -0.57027978 -0.48247442 0.18602955
2507 -450 244 -0.96272784 -0.05067521 -0.26568216 0.15450777
2497 -428 283 -0.87100482 0.22286421 -0.43781519 0.14563188
2596 -553 170 -0.73274833 -0.66920787 -0.12345354 0.11919853
2513 -466 245 -0.9212451 -0.18016633 -0.34474295 0.17752585
2555 -525 208 -0.75682157 -0.60667044 -0.24325311 0.14918444
2615 -572 172 -0.85621375 -0.51609415 0.023342377 0.22353417
2569 -533 167 -0.73334485 -0.64631796 -0.21089913 0.13236468
2606 -571 149 -0.86218387 -0.4441739 -0.24361552 0.19916153
2608 -585 150 -0.63876635 0.035680134 -0.76857305 0.20660006
2528 -473 226 -0.84642696 -0.28063235 -0.45255587 0.14724068
2612 -558 149 -0.78930575 -0.61299717 -0.035084262 0.16642009
2621 -602 152 -0.61949754 0.30929944 -0.72149616 0.17856434
2585 -538 147 -0.68723178 -0.69946015 -0.19613247 0.14538465
2566 -513 188 -0.74358243 -0.61444974 -0.26369819 0.14945388
2627 -584 123 -0.50058955 0.2740359 -0.82116652 0.15642962
2596 -559 167 -0.69753623 -0.59250206 -0.40296966 0.15734613
2546 -614 205 -0.60610408 0.19411068 -0.77133584 0.1366761
2585 -629 167 -0.55082518 0.41655445 -0.72323859 0.10151905
2620 -594 169 -0.72650254 0.34278011 -0.59556335 0.22017771
2634 -600 124 -0.591847 0.095541708 -0.80036795 0.13821408
2587 -601 167 -0.55686355 0.35826972 -0.74936354 0.11834919
2540 -598 205 -0.52278024 0.069974758 -0.84959066 0.14360116
2543 -628 205 -0.69943082 0.12603633 -0.70349938 0.15044844
2612 -577 168 -0.67298186 -0.14934394 -0.7244252 0.25165036
2496 -429 239 -0.98447073 -0.15753552 -0.077459581 0.16086379
2502 -459 240 -0.96529049 -0.22044502 -0.14006531 0.17261872
2492 -409 281 -0.90594941 0.27138859 -0.3249675 0.14338849
2499 -472 240 -0.92807573 -0.31986955 -0.19068025 0.16020277
2566 -524 164 -0.73959094 -0.61368316 -0.27640226 0.15188903
2567 -510 164 -0.72095418 -0.66828102 -0.18337278 0.16164346
2501 -444 239 -0.9818266 -0.16444717 -0.094729327 0.17310591
2497 -438 282 -0.83358264 0.28622645 -0.47245574 0.14445166
2575 -540 165 -0.69193649 -0.6912964 -0.20816599 0.12877683
2568 -532 205 -0.71531188 -0.67755759 -0.17101048 0.15040667
2528 -496 202 -0.78133529 -0.57202488 -0.24960519 0.12931079
2540 -512 203 -0.8025077 -0.43421534 -0.40919238 0.10985789
2556 -593 181 -0.60269558 0.17502244 -0.77854043 0.10078046
2553 -638 181 -0.66213924 0.32417986 -0.6756323 0.12053289
2564 -610 182 -0.62311846 0.29643273 -0.72377551 0.1034811
2545 -515 179 -0.78150928 -0.54771388 -0.29875216 0.12327606
2559 -533 180 -0.71322697 -0.68542427 -0.14663155 0.11990885
2495 -466 257 -0.95719403 -0.18376975 -0.22362517 0.15350407
2567 -550 181 -0.79451352 -0.42794031 -0.43083099 0.14998335
2520 -492 220 -0.78256875 -0.588094 -0.20428269 0.13704067
2531 -615 224 -0.63831419 -0.19069503 -0.74578166 0.1790929
2518 -477 220 -0.85192031 -0.42235109 -0.30959883 0.1418585
2556 -623 181 -0.64775741 0.32251701 -0.69021231 0.12383289
2613 -575 184 -0.75805598 -0.64233911 0.1129237 0.2181921
2487 -450 256 -0.98213089 -0.16353638 -0.093138598 0.1390021
2509 -460 218 -0.90431929 -0.39472514 -0.16247639 0.15979354
2470 -413 294 -0.7907145 0.42975518 -0.43598282 0.17448035
2490 -435 256 -0.974231 -0.02966591 -0.22359322 0.14737247
2492 -421 256 -0.95178974 0.06039742 -0.30074632 0.16224766
2476 -436 260 -0.9740544 -0.12713288 -0.18723027 0.16764496
2495 -422 261 -0.89833528 0.1749918 -0.40295351 0.16019465
2499 -406 261 -0.93550515 0.14776342 -0.32093009 0.15384793
2590 -605 175 -0.51085144 0.4431766 -0.7366311 0.10201803
2538 -616 216 -0.56472528 0.12084501 -0.81638336 0.15996365
2609 -567 174 -0.81317991 -0.5758512 -0.084462129 0.20891501
2553 -634 218 -0.69623125 0.28286123 -0.65973604 0.21359101
2575 -630 176 -0.58779448 0.36191863 -0.72354174 0.11252949
2617 -598 177 -0.5648886 0.53862202 -0.62512976 0.20404656
2540 -603 215 -0.57658261 -0.008294058 -0.81699669 0.14954007
2629 -607 132 -0.57451487 0.18232101 -0.79792964 0.14661862
2579 -617 176 -0.53957826 0.41965744 -0.72989237 0.089156479
2613 -589 131 -0.72299773 0.10805591 -0.68234754 0.18986496
2625 -585 176 -0.9809196 -0.19403073 0.01220076 0.26020619
2530 -504 209 -0.80045652 -0.5529812 -0.23125988 0.11273159
2562 -515 169 -0.74681044 -0.62513316 -0.22689773 0.14013878
2532 -490 208 -0.78363305 -0.57393783 -0.23772779 0.13701358
2591 -549 173 -0.71684581 -0.66287303 -0.21617422 0.12222891
2552 -522 211 -0.75925916 -0.57367551 -0.30728149 0.15386091
2571 -531 170 -0.7323063 -0.64300394 -0.22421733 0.13467731
2602 -592 145 -0.58430594 0.16564809 -0.79444778 0.17401192
2540 -622 229 -0.74202913 -0.19529493 -0.64128983 0.18998842
2569 -633 189 -0.63832551 0.27303037 -0.71971869 0.13443944
2571 -594 188 -0.5667088 0.26308298 -0.78078705 0.1039205
2638 -587 147 -0.74695319 0.11472578 -0.65490377 0.18512183
2614 -555 145 -0.7736339 -0.49563557 -0.39476067 0.19683288
2616 -569 146 -0.82294649 -0.54937965 0.14471033 0.19182359
2564 -527 186 -0.70949417 -0.68077362 -0.18211336 0.1377494
2527 -502 225 -0.77467269 -0.36872482 -0.51373559 0.12471226
2515 -487 224 -0.82530826 -0.52964604 -0.19580935 0.13792017
2620 -610 147 -0.56257594 0.30789888 -0.76727223 0.16110359
2573 -621 189 -0.60078883 0.31853858 -0.73320246 0.11270268
2574 -542 187 -0.73956317 -0.62565941 -0.24818656 0.1396936
2622 -579 191 -0.60026038 -0.68741316 0.40884063 0.1981263
2575 -608 189 -0.55471081 0.41818944 -0.71931463 0.11878893
2600 -608 160 -0.5973143 0.42566514 -0.67972398 0.14150625
2549 -605 198 -0.61013955 0.20326568 -0.76577586 0.12527405
2588 -591 159 -0.54907322 0.13214025 -0.82526201 0.14405541
2547 -590 197 -0.58694792 0.033357214 -0.80893725 0.12139849
2588 -635 160 -0.50115615 0.51696819 -0.69396424 0.11983357
2552 -620 198 -0.61730713 0.25907761 -0.74283963 0.13882768
2553 -635 199 -0.68175417 0.23427559 -0.69305575 0.1485309
2597 -622 160 -0.53691328 0.47653392 -0.69616055 0.13377663
2581 -517 157 -0.65061873 -0.75413579 -0.089300327 0.18993147
2616 -568 160 -0.83057332 -0.55371982 0.059516966 0.19557488
2499 -448 232 -0.96992767 -0.22533764 -0.091996193 0.15921602
2542 -503 195 -0.79636836 -0.50404984 -0.33426213 0.11577625
2573 -530 157 -0.73649967 -0.62076914 -0.26872635 0.15269177
2511 -479 234 -0.87041563 -0.40387383 -0.28153625 0.15124629
2625 -585 161 -0.9085772 -0.0042024972 -0.41769573 0.22617422
2493 -427 274 -0.89193368 0.19005159 -0.41028613 0.14895219
2549 -518 196 -0.78330404 -0.54428321 -0.30031741 0.13290516
2584 -546 158 -0.694489 -0.66104132 -0.28409404 0.12947464
2554 -534 197 -0.75646251 -0.50772125 -0.41229063 0.13543071
2500 -414 274 -0.8548556 0.25739458 -0.4505218 0.14264181
2507 -464 233 -0.92695993 -0.32270887 -0.19132243 0.15542741
2578 -634 164 -0.52301198 0.53507221 -0.66344273 0.11951454
2551 -623 204 -0.63688713 0.22787657 -0.73651004 0.14811361
2574 -530 158 -0.73852211 -0.62142664 -0.26156059 0.14975542
2506 -460 235 -0.94605762 -0.2811203 -0.16107887 0.17601025
2587 -621 164 -0.53384376 0.42471382 -0.73118329 0.11031391
2551 -608 204 -0.62761855 0.17327283 -0.75899369 0.13319057
2603 -610 164 -0.58446628 0.43871966 -0.68258631 0.13869216
2565 -513 157 -0.70523208 -0.68851405 -0.16910404 0.16359292
2509 -489 237 -0.84819603 -0.36465132 -0.38417825 0.1410404
2589 -592 162 -0.5325312 0.15521315 -0.83205736 0.1513124
2613 -567 162 -0.84892648 -0.5285092 -0.0013557622 0.20992285
2510 -475 236 -0.89621979 -0.32204193 -0.30508873 0.16649184
2509 -447 234 -0.98149848 -0.15559676 -0.11158102 0.16686213
2560 -536 200 -0.73957002 -0.59220165 -0.3198958 0.15340585
2591 -548 160 -0.73112571 -0.64734471 -0.21540704 0.13182212
2544 -518 198 -0.78687495 -0.54850751 -0.28278491 0.12629652
2629 -586 164 -0.95846981 -0.0093210731 -0.28504166 0.22872759
2499 -439 275 -0.83674872 0.24644481 -0.4889954 0.14147434
2538 -503 196 -0.80508208 -0.48212087 -0.34554636 0.11367615
2507 -426 275 -0.86800891 0.21838637 -0.44594613 0.15932107
2545 -592 202 -0.56318778 0.050297316 -0.8247968 0.13783652
2505 -411 274 -0.90850425 0.18231353 -0.37600785 0.15700006
2488 -451 274 -0.92317277 -0.038649458 -0.38243723 0.12832838
2632 -608 133 -0.58820599 0.14487432 -0.79562879 0.14539875
2615 -590 132 -0.69038153 0.12603217 -0.71238279 0.18261158
2559 -609 190 -0.63237512 0.21134333 -0.74527562 0.11603245
2611 -613 152 -0.56517428 0.35258242 -0.74583083 0.14244461
2557 -623 190 -0.63485312 0.28861868 -0.71670127 0.11992154
2553 -637 190 -0.69583505 0.21988493 -0.6837135 0.12965381
2500 -445 267 -0.85792017 0.16039339 -0.48810536 0.1388818
2502 -417 266 -0.90800506 0.15453722 -0.38941628 0.16534472
2625 -587 152 -0.81403798 0.12349164 -0.56753147 0.23023674
2486 -456 266 -0.9520328 -0.10678397 -0.28675896 0.13287455
2560 -537 189 -0.73896611 -0.60552359 -0.2954154 0.12799001
2506 -466 225 -0.90174478 -0.39673737 -0.17162694 0.14980686
2557 -594 190 -0.60753852 0.19019651 -0.77118236 0.11440076
2623 -572 152 -0.82780623 -0.53312695 0.17467852 0.20045786
2580 -548 149 -0.728266 -0.6394915 -0.2463316 0.12291195
2496 -430 266 -0.84349823 0.20609811 -0.4960185 0.16201352
2553 -521 188 -0.76871747 -0.56918997 -0.29171261 0.13741258
2587 -535 150 -0.68816185 -0.69790471 -0.19839956 0.14387676
2590 -594 151 -0.56979501 0.148379 -0.80828053 0.15113905
2518 -496 226 -0.80049992 -0.50308424 -0.32573947 0.13961916
2512 -481 226 -0.83992112 -0.52512246 -0.13703626 0.13931155
2557 -528 174 -0.71974683 -0.66674042 -0.19344692 0.12689425
2557 -634 176 -0.63845736 0.36525264 -0.67746788 0.11239457
2535 -491 215 -0.77841967 -0.57987416 -0.24043448 0.12376766
2592 -566 177 -0.67536467 -0.431591 -0.59800649 0.19575888
2536 -611 218 -0.54576635 0.043779474 -0.83679295 0.15989706
2530 -505 215 -0.8048408 -0.50628465 -0.30968869 0.10941774
2583 -595 177 -0.52036655 0.26672769 -0.8112182 0.11315419
2532 -520 216 -0.80709696 -0.38431785 -0.44821227 0.10393892
2572 -623 176 -0.59879875 0.3286334 -0.73036993 0.10772109
2613 -586 178 -0.52018166 0.26672903 -0.8113364 0.25925922
2540 -628 219 -0.69599301 0.11006028 -0.70956355 0.20364819
2499 -477 252 -0.89189237 -0.44777188 0.063468128 0.16642362
2579 -609 177 -0.55866492 0.41821626 -0.7162323 0.094309755
2575 -547 175 -0.72757775 -0.63706535 -0.25451612 0.12470114
2558 -513 173 -0.76054662 -0.59493333 -0.26004443 0.13683675
2499 -462 252 -0.95700461 -0.16364002 -0.23950826 0.15866698
2501 -414 292 -0.88088709 0.25830662 -0.39663026 0.16150053
2495 -447 251 -0.97060305 -0.080411896 -0.22685587 0.14892542
2490 -427 291 -0.90774751 0.21123254 -0.36245722 0.16863427
2483 -440 290 -0.84238791 0.27217054 -0.46508694 0.15785722
2484 -439 296 -0.63426012 0.43625224 -0.63827753 0.15610518
2496 -467 259 -0.94319046 -0.14070174 -0.30098954 0.14269678
2521 -494 219 -0.77598906 -0.58521122 -0.23530577 0.13017766
2506 -436 258 -0.8762551 0.14890355 -0.45826268 0.16021375
2483 -423 295 -0.88224083 0.276519 -0.38103577 0.17471838
2530 -513 221 -0.80120391 -0.34317043 -0.4902105 0.10621569
2505 -475 217 -0.87237662 -0.44548303 -0.20125599 0.14860924
2582 -539 162 -0.67320049 -0.69025207 -0.26524156 0.13883311
2600 -596 164 -0.55823928 0.25980076 -0.78795469 0.16354832
2560 -609 204 -0.6061663 0.23457851 -0.75995755 0.14947732
2558 -635 205 -0.6687336 0.29976657 -0.68039352 0.15192141
2558 -622 205 -0.64397836 0.28835392 -0.70862114 0.14007214
2569 -523 161 -0.74764055 -0.62041861 -0.23688483 0.15321656
2576 -512 161 -0.71994245 -0.67784023 -0.14904881 0.17804155
2592 -634 164 -0.50432855 0.4568812 -0.73274297 0.12805571
2553 -595 204 -0.57135683 0.14360781 -0.80803967 0.13861407
2606 -558 164 -0.73722839 -0.65368295 -0.17085917 0.15025996
2625 -575 165 -0.87427086 -0.4847171 -0.026451016 0.21754399
2600 -623 164 -0.50653762 0.48658681 -0.71179557 0.12617108
2561 -531 203 -0.69178742 -0.70438677 -0.15896353 0.14089951
2550 -515 202 -0.79665869 -0.51042759 -0.32372612 0.135616
2627 -589 165 -0.91126847 0.11136702 -0.39646828 0.23174453
2558 -504 202 -0.77822912 -0.54554707 -0.3110272 0.14695975
2562 -544 203 -0.70480931 -0.44767508 -0.55030078 0.1780213
2615 -569 184 -0.77024871 -0.63046867 0.096053213 0.17025924
2626 -585 185 -0.60928714 -0.70693237 0.35918784 0.23235595
2571 -599 182 -0.55587655 0.29700652 -0.77639455 0.090433784
2577 -614 182 -0.55235505 0.45136678 -0.70083654 0.10888401
2579 -548 181 -0.72414815 -0.62990767 -0.28075927 0.12645854
2542 -628 223 -0.63637662 0.1877881 -0.74817145 0.20492323
2606 -586 139 -0.64949685 0.013988066 -0.76023561 0.20349486
2631 -578 140 -0.63968325 0.31553119 -0.70088893 0.18651494
2563 -637 182 -0.61243701 0.3572951 -0.70516735 0.11754017
2610 -600 139 -0.60639548 0.29975718 -0.73649859 0.16455874
2569 -625 182 -0.61502451 0.31636804 -0.72225773 0.10265455
2533 -613 222 -0.60949767 -0.085909702 -0.78811932 0.1654419
2565 -519 180 -0.71152323 -0.68484515 -0.1572316 0.14560588
2525 -494 218 -0.77396762 -0.56488287 -0.2861495 0.12517865
