# .PCD v0.7 - Point Cloud Data file format
VERSION 0.7
FIELDS x y z normal_x normal_y normal_z curvature
SIZE 4 4 4 4 4 4 4
TYPE F F F F F F F
COUNT 1 1 1 1 1 1 1
WIDTH 528
HEIGHT 1
VIEWPOINT 0 0 0 1 0 0 0
POINTS 528
DATA ascii
2524 -1808 45 -0.55499136 0.77990651 -0.2893621 0.11241305
2524 -1817 50 -0.62637794 0.72988677 -0.27370778 0.10855825
2519 -1823 55 -0.68335074 0.70027131 -0.206523 0.11011594
2496 -1844 82 -0.94092745 0.33698738 0.033091445 0.081483901
2504 -1871 105 -0.97564936 -0.049143486 0.21375981 0.075686552
2514 -1888 123 -0.90381032 -0.12175366 0.4102475 0.072501674
2498 -1877 101 -0.98152387 -0.11534522 0.15266445 0.068393394
2513 -1885 78 -0.96993345 -0.2185588 -0.10705654 0.093618274
2519 -1889 117 -0.91614467 -0.12469485 0.3809596 0.079385243
2506 -1876 111 -0.96637505 -0.11960162 0.22762853 0.062235605
2531 -1896 158 -0.81734627 -0.28697306 0.49959126 0.10543998
2497 -1875 83 -0.99630022 -0.077387318 0.037377484 0.082186967
2520 -1897 141 -0.79033393 -0.19382723 0.58120853 0.068720028
2531 -1892 152 -0.78948951 -0.28635615 0.54286873 0.085440576
2498 -1877 89 -0.99179876 -0.10297699 0.075702481 0.084326446
2515 -1892 135 -0.84678578 -0.14019081 0.51312804 0.067762263
2529 -1903 148 -0.75754851 -0.25078458 0.60268342 0.075777307
2501 -1842 77 -0.90755504 0.41826165 -0.037430763 0.077145927
2514 -1890 129 -0.8820712 -0.13836315 0.45033991 0.068890616
2497 -1851 88 -0.97490311 0.21362741 0.062667169 0.079355262
2513 -1827 60 -0.74322033 0.65385318 -0.14177307 0.096878655
2498 -1877 95 -0.98650491 -0.088305496 0.13787727 0.075324304
2509 -1840 71 -0.88564861 0.45336482 -0.10043373 0.10193931
2504 -1862 94 -0.98501486 0.1111091 0.13191091 0.091464587
2511 -1834 66 -0.7978074 0.59938931 -0.065082058 0.09464065
2529 -1886 146 -0.77101231 -0.2525034 0.58462125 0.071281247
2504 -1866 99 -0.98673415 0.017321594 0.16141739 0.073593862
2501 -1878 107 -0.96442908 -0.12832484 0.23110458 0.065787204
2493 -1844 92 -0.95883083 0.26604569 0.099313118 0.081086047
2490 -1851 81 -0.97478062 0.22280195 0.012731796 0.080000579
2504 -1870 130 -0.9225598 -0.090435125 0.3751066 0.064145647
2485 -1852 75 -0.97971243 0.18457119 -0.07808347 0.082735248
2507 -1879 119 -0.93919122 -0.084026933 0.33295563 0.058955472
2493 -1837 97 -0.92795211 0.34243318 0.14711989 0.087796435
2488 -1845 87 -0.96253926 0.26936343 0.031008808 0.083703846
2509 -1870 136 -0.8950727 -0.012190139 0.44575369 0.053123366
2501 -1871 124 -0.93477416 -0.10098919 0.34058541 0.069386147
2504 -1869 70 -0.97574973 -0.060776636 -0.21028249 0.092836089
2493 -1832 103 -0.8991487 0.39305648 0.19245335 0.093448743
2503 -1878 113 -0.95502186 -0.10087652 0.27884993 0.057897449
2518 -1818 46 -0.66353953 0.68567765 -0.29926834 0.11199484
2521 -1812 63 -0.65616697 0.74308902 -0.13139094 0.1065039
2518 -1816 52 -0.66639173 0.70993847 -0.22783625 0.10592321
2528 -1827 41 -0.60965174 0.688685 -0.39247641 0.13118228
2518 -1813 57 -0.66252249 0.72498322 -0.18831655 0.10455441
2529 -1808 65 -0.55507034 0.82637906 -0.094839305 0.12219368
2528 -1808 59 -0.57562464 0.79694557 -0.18312305 0.11379559
2528 -1807 54 -0.54282141 0.80265725 -0.24715638 0.11183359
2521 -1837 8 -0.53973395 0.47389117 -0.69578332 0.16193771
2508 -1915 103 -0.91490167 -0.28868353 0.28216437 0.060684081
2500 -1840 56 -0.87667882 0.43615505 -0.20298545 0.10103178
2511 -1892 105 -0.95292926 -0.1741676 0.24817628 0.063671343
2515 -1838 15 -0.67008156 0.44428962 -0.59464055 0.17816932
2508 -1823 38 -0.72435552 0.62020093 -0.30109793 0.10303388
2511 -1828 32 -0.71950287 0.58008105 -0.38186598 0.12023488
2544 -1841 49 -0.55045831 0.65796006 -0.51389122 0.19342145
2508 -1819 43 -0.71243596 0.65473467 -0.25250262 0.092786938
2516 -1837 21 -0.6764769 0.49851084 -0.54209399 0.15305291
2511 -1831 26 -0.70870596 0.56147784 -0.42717505 0.13389499
2512 -1838 55 -0.81979489 0.5173763 -0.24547537 0.11590606
2519 -1892 103 -0.95772308 -0.15138254 0.24464227 0.081013493
2532 -1929 101 -0.86999553 -0.49261448 -0.020947125 0.085198849
2510 -1858 104 -0.95611608 0.15746357 0.24707749 0.094650544
2526 -1822 57 -0.63753545 0.74481034 -0.19699249 0.11792517
2501 -1854 72 -0.96485174 0.1582009 -0.20984182 0.087357208
2503 -1880 75 -0.96076816 -0.21243308 -0.17831659 0.092699572
2530 -1934 132 -0.78850281 -0.40428773 0.4634811 0.066405192
2507 -1834 69 -0.84247357 0.53365493 -0.0738286 0.095189527
2527 -1836 16 -0.55064225 0.52504218 -0.64894044 0.15028548
2519 -1900 128 -0.85652566 -0.1986355 0.47634831 0.075424992
2505 -1867 90 -0.99777299 0.022971908 0.062621452 0.09360043
2529 -1825 31 -0.54540515 0.69101542 -0.4743742 0.11156268
2516 -1839 34 -0.74341309 0.47812384 -0.46769065 0.13501541
2503 -1842 87 -0.90081054 0.42230064 0.10100767 0.08196649
2513 -1881 142 -0.85124254 -0.10723402 0.51369935 0.051726673
2507 -1893 94 -0.9725973 -0.18610626 0.13935196 0.072790727
2511 -1842 74 -0.88443148 0.45837778 -0.087582909 0.10671711
2525 -1830 77 -0.70135134 0.71078956 0.053707987 0.12010844
2520 -1833 27 -0.65160799 0.58467299 -0.48328507 0.12870704
2508 -1881 67 -0.90508038 -0.28033718 -0.31975085 0.099391185
2506 -1859 71 -0.96474719 0.10954513 -0.23929632 0.092639573
2512 -1849 40 -0.86674505 0.22663845 -0.44428369 0.1377641
2512 -1833 44 -0.74709892 0.59588778 -0.29455221 0.10135375
2516 -1819 48 -0.6823042 0.68262261 -0.26170084 0.1049419
2534 -1944 122 -0.80341166 -0.54425436 0.24148887 0.046449043
2518 -1822 29 -0.61892229 0.66698468 -0.41480908 0.11475175
2503 -1877 74 -0.96987122 -0.16853498 -0.17591362 0.091861136
2520 -1884 127 -0.85791111 -0.063556753 0.50985205 0.087897994
2507 -1855 77 -0.97056806 0.18347426 -0.15599607 0.098104805
2521 -1909 124 -0.84857053 -0.26529828 0.45776072 0.066121429
2505 -1830 79 -0.82612401 0.5634827 0.002507553 0.086555086
2521 -1830 41 -0.68027186 0.63453919 -0.36686537 0.11173375
2530 -1825 46 -0.59508866 0.72941065 -0.3373864 0.12643567
2522 -1843 36 -0.7545476 0.43412676 -0.49213001 0.14295137
2515 -1849 31 -0.82750738 0.16382602 -0.53702199 0.17162888
2513 -1822 29 -0.65111196 0.64572674 -0.39886114 0.11915886
2507 -1824 77 -0.78720158 0.61638653 -0.019526651 0.085563809
2511 -1825 24 -0.66827923 0.60797 -0.42869034 0.12670901
2520 -1809 51 -0.61776119 0.75251174 -0.22824802 0.10632079
2519 -1819 40 -0.64438117 0.68332154 -0.34328499 0.10829674
2517 -1822 35 -0.65471047 0.66318488 -0.36268443 0.10877355
2521 -1815 46 -0.62837106 0.72446549 -0.28337184 0.10874204
2540 -1944 133 -0.75010556 -0.47023758 0.46499276 0.048585474
2523 -1810 39 -0.56960046 0.74574786 -0.34556541 0.10770819
2513 -1830 37 -0.70885324 0.60560209 -0.36162567 0.11657403
2511 -1844 85 -0.89788944 0.43747237 0.049116712 0.097385846
2527 -1906 134 -0.77259141 -0.23477855 0.5898996 0.074026287
2506 -1868 84 -0.99951363 -0.0043375418 -0.030882435 0.10117836
2526 -1837 38 -0.6978848 0.54326063 -0.46671689 0.13746983
2522 -1823 49 -0.66058797 0.69610816 -0.28117079 0.11210931
2525 -1813 60 -0.61851323 0.76504141 -0.17931253 0.11155655
2526 -1832 44 -0.69328654 0.62794316 -0.35361165 0.13101095
2525 -1820 55 -0.64215511 0.73536897 -0.21649328 0.11788107
2527 -1807 65 -0.57444984 0.81405509 -0.085567072 0.11358359
2538 -1814 66 -0.50475001 0.85510087 -0.11844782 0.1436858
2527 -1806 60 -0.54192305 0.82584423 -0.15588674 0.11496146
2501 -1864 97 -0.98532242 0.055841092 0.16131184 0.075955153
2510 -1844 43 -0.86148906 0.3266471 -0.38876501 0.12759523
2519 -1830 39 -0.68783957 0.61984205 -0.3777203 0.10942663
2502 -1844 93 -0.94523209 0.30751684 0.10940581 0.086969741
2507 -1888 102 -0.96459901 -0.12555665 0.23191446 0.0683982
2522 -1892 152 -0.77984595 -0.23655254 0.57955432 0.062704295
2512 -1912 106 -0.91621429 -0.26235083 0.30285886 0.056693997
2527 -1816 35 -0.54670739 0.730452 -0.40932983 0.11046579
2546 -1946 133 -0.71209472 -0.46983945 0.5217011 0.070072711
2521 -1896 132 -0.82265377 -0.17986813 0.53934062 0.077020571
2523 -1827 21 -0.56778586 0.63730741 -0.5210169 0.12504686
2529 -1831 16 -0.5007689 0.59570289 -0.62798774 0.1361617
2522 -1825 33 -0.63744342 0.66150439 -0.39506662 0.10821813
2518 -1821 38 -0.64851159 0.6720202 -0.35752141 0.1086216
2522 -1820 49 -0.65891933 0.6961506 -0.28495556 0.11222916
2522 -1826 27 -0.60183161 0.65404129 -0.45828885 0.1196198
2519 -1820 43 -0.6565851 0.67649871 -0.3335349 0.11011533
2542 -1950 118 -0.7643708 -0.62787306 0.14667264 0.037327453
2540 -1825 73 -0.57633358 0.81562972 -0.050870772 0.15136014
2522 -1882 121 -0.88665456 -0.038237367 0.46084869 0.083569467
2512 -1855 69 -0.94927341 0.15510748 -0.27353552 0.10808391
2518 -1834 71 -0.78340667 0.62130851 -0.015802627 0.11264215
2527 -1911 119 -0.84121817 -0.28388166 0.46017742 0.077185184
2521 -1835 48 -0.75413525 0.57278734 -0.32123926 0.12211195
2510 -1867 94 -0.99250382 0.049101144 0.11191612 0.094049253
2512 -1891 91 -0.97483271 -0.21852998 0.04411177 0.086819716
2530 -1819 52 -0.58255082 0.77230436 -0.25333869 0.12088541
2513 -1846 97 -0.89301819 0.39023376 0.2241341 0.096521772
2512 -1851 111 -0.88595295 0.26283899 0.38210359 0.095828295
2519 -1812 64 -0.66668719 0.73781192 -0.10564919 0.10459018
2512 -1878 110 -0.95288467 -0.091357142 0.28924853 0.077711977
2512 -1834 63 -0.79374015 0.59930253 -0.10398587 0.095293775
2517 -1911 109 -0.91550583 -0.29337329 0.27528375 0.060895078
2516 -1836 63 -0.80414921 0.57001859 -0.16859056 0.10915523
2536 -1810 70 -0.51656532 0.85388976 -0.063501716 0.13489814
2522 -1820 66 -0.67046058 0.73333049 -0.11273415 0.10404423
2513 -1836 58 -0.798774 0.57129681 -0.18862678 0.11402047
2536 -1929 104 -0.86985534 -0.49285841 -0.021031084 0.086881898
2519 -1889 105 -0.95517474 -0.14330484 0.25904635 0.078298688
2525 -1817 59 -0.63065153 0.75792754 -0.16680671 0.1167114
2512 -1856 107 -0.94016635 0.1740015 0.29293448 0.097274661
2509 -1814 83 -0.7105968 0.69939911 0.076766066 0.08259552
2524 -1879 146 -0.81445974 -0.22286181 0.53571254 0.061767962
2509 -1835 87 -0.83674234 0.53456146 0.11877055 0.094059743
2507 -1854 91 -0.97289503 0.20405558 0.10879576 0.094352528
2534 -1907 151 -0.75887871 -0.28701779 0.5845716 0.086466156
2503 -1871 96 -0.98960257 -0.014917821 0.14305311 0.079927824
2510 -1897 100 -0.95439917 -0.19031008 0.23000909 0.069769517
2543 -1949 125 -0.78404552 -0.57912731 0.22334784 0.040227395
2521 -1836 87 -0.7820164 0.60904229 0.13235496 0.10716821
2521 -1905 131 -0.81282789 -0.2426728 0.52954763 0.066108465
2523 -1882 134 -0.84030914 -0.094321914 0.53383869 0.071659885
2538 -1942 130 -0.77036792 -0.4746989 0.42566913 0.050355889
2513 -1855 84 -0.97473663 0.19584323 -0.1073962 0.10422365
2523 -1910 113 -0.89848369 -0.3129417 0.30788711 0.067790367
2517 -1861 62 -0.93426663 0.10663217 -0.34025794 0.11672117
2523 -1884 114 -0.92702425 -0.09234374 0.36345378 0.088263012
2527 -1817 67 -0.63373798 0.76640046 -0.1049117 0.1192742
2515 -1834 64 -0.79419637 0.59343934 -0.13069803 0.10612833
2544 -1846 42 -0.52656668 0.60657978 -0.59564131 0.18894811
2527 -1829 47 -0.67550951 0.66251272 -0.32367235 0.13725001
2526 -1817 58 -0.6224671 0.75884962 -0.19152543 0.12110468
2529 -1812 63 -0.5860464 0.79589731 -0.151977 0.12475552
2527 -1823 53 -0.62933993 0.74032646 -0.23632176 0.11881387
2528 -1804 69 -0.54907238 0.83424115 -0.050608188 0.11091545
2529 -1807 69 -0.55477065 0.82996976 -0.058135279 0.11762226
2531 -1808 64 -0.53396803 0.83845407 -0.10896327 0.12029988
2536 -1811 58 -0.50048184 0.83452892 -0.23038988 0.1343136
2517 -1869 126 -0.89715296 0.012939056 0.4415305 0.067964241
2503 -1842 77 -0.90497231 0.42226538 -0.052124392 0.078517303
2512 -1821 78 -0.73196852 0.68133175 -0.00302603 0.09721598
2531 -1938 124 -0.84360081 -0.46003133 0.27696347 0.052433036
2502 -1869 75 -0.98719805 -0.060613539 -0.14753307 0.097682454
2516 -1897 125 -0.88841808 -0.17940634 0.42252412 0.068537489
2533 -1832 44 -0.62107188 0.65203226 -0.43488353 0.14709519
2534 -1821 49 -0.54235262 0.77584106 -0.32237285 0.13256206
2530 -1819 66 -0.62512851 0.77215278 -0.11399315 0.12518056
2533 -1821 50 -0.55859244 0.77506346 -0.29538292 0.12676047
2531 -1820 55 -0.59718746 0.76845253 -0.22988681 0.12093177
2531 -1820 61 -0.61195248 0.76961261 -0.18223777 0.12716758
2533 -1819 44 -0.50717175 0.78893483 -0.34692729 0.12363116
2527 -1816 72 -0.64200848 0.76465732 -0.055894468 0.11515418
2507 -1861 84 -0.99650496 0.075657837 -0.035409495 0.099395961
2511 -1838 68 -0.84615266 0.52951401 -0.060337305 0.10436759
2505 -1843 73 -0.90496522 0.41465059 -0.095408715 0.085405104
2507 -1869 90 -0.99925733 -0.017991973 0.03407542 0.093272097
2523 -1886 142 -0.79972237 -0.19396974 0.56817245 0.065259889
2523 -1827 57 -0.7040199 0.6764695 -0.21620594 0.1157493
2508 -1854 79 -0.97000515 0.19925098 -0.13924399 0.09895201
2526 -1881 137 -0.81991917 -0.15162553 0.55203468 0.07827656
2518 -1833 63 -0.77102751 0.61329329 -0.17142916 0.11347047
2526 -1819 52 -0.62264031 0.74358463 -0.24372314 0.11720984
2519 -1898 108 -0.92972767 -0.21141918 0.3015103 0.059332374
2520 -1904 114 -0.90621221 -0.23972692 0.34829667 0.066888109
2539 -1936 129 -0.74485248 -0.38594308 0.54428178 0.081868365
2526 -1928 117 -0.87747997 -0.41094103 0.24729791 0.055163801
2525 -1918 126 -0.81978244 -0.31738007 0.47668299 0.064140193
2529 -1898 148 -0.75231868 -0.26259235 0.60420346 0.077338375
2528 -1929 105 -0.88153315 -0.46390414 0.087705612 0.073539652
2544 -1938 135 -0.69236356 -0.3733381 0.61745566 0.078631811
2535 -1929 133 -0.76079357 -0.36357248 0.53759485 0.0836832
2523 -1912 120 -0.86455244 -0.32195351 0.38586912 0.059232764
2505 -1875 96 -0.98902202 -0.10124973 0.10762849 0.071372442
2551 -1942 142 -0.64024276 -0.38078836 0.66715014 0.090368092
2528 -1929 123 -0.85492259 -0.37291065 0.36061761 0.071394064
2549 -1943 140 -0.67914778 -0.39942765 0.61580503 0.074970357
2526 -1928 111 -0.87901843 -0.41909254 0.22735003 0.056454148
2511 -1886 102 -0.97043067 -0.14762217 0.19097625 0.069201306
2502 -1884 108 -0.95672953 -0.10779601 0.27027506 0.059734393
2506 -1881 114 -0.94560593 -0.10125043 0.30915675 0.063831009
2522 -1873 131 -0.86497891 -0.059143577 0.49831069 0.069924265
2503 -1889 102 -0.96317631 -0.14667994 0.22533613 0.059369948
2498 -1890 96 -0.96674675 -0.1431545 0.21191372 0.066419765
2511 -1873 125 -0.91835463 -0.045853242 0.39309305 0.063843787
2509 -1902 91 -0.96081054 -0.2267039 0.15952583 0.085354142
2506 -1875 119 -0.93887126 -0.10066542 0.32922232 0.061980713
2501 -1850 85 -0.96459121 0.25560978 0.06501884 0.087814368
2521 -1896 141 -0.77592635 -0.19745891 0.59912294 0.075307176
2528 -1833 29 -0.5949201 0.6012767 -0.53341967 0.12782413
2510 -1832 82 -0.83633393 0.54803377 0.014302606 0.091888256
2506 -1877 89 -0.99010056 -0.14035952 0.00036941437 0.085417122
2512 -1907 93 -0.93791521 -0.32470292 0.12199674 0.086591281
2504 -1853 65 -0.94466811 0.20104936 -0.25919351 0.095419079
2506 -1827 67 -0.79338425 0.60148901 -0.093554445 0.090661235
2520 -1808 68 -0.63699126 0.76856309 -0.059606515 0.10058241
2518 -1888 119 -0.90966707 -0.12372648 0.39648142 0.07812205
2525 -1923 118 -0.86037076 -0.35392335 0.36674306 0.060273241
2506 -1861 82 -0.99528182 0.087706342 -0.041493796 0.099734835
2512 -1822 88 -0.73629439 0.66209012 0.13966866 0.08857099
2508 -1841 85 -0.87782431 0.47303683 0.075237378 0.097817853
2528 -1824 53 -0.63391566 0.73542118 -0.23938799 0.12239072
2524 -1828 48 -0.66399932 0.68564117 -0.29833052 0.1218564
2543 -1849 43 -0.55583346 0.58053941 -0.59499848 0.20090915
2532 -1811 63 -0.54522783 0.8217572 -0.16565533 0.12788181
2530 -1817 58 -0.5964455 0.77313322 -0.21567976 0.12388884
2509 -1831 52 -0.76618272 0.61170763 -0.19692096 0.09117876
2523 -1816 49 -0.63275003 0.72521693 -0.27145496 0.11012069
2513 -1866 106 -0.95919192 0.060509078 0.27620551 0.092402399
2516 -1894 110 -0.93542099 -0.18088627 0.30375591 0.061804153
2498 -1848 54 -0.922198 0.29661742 -0.24813071 0.10330185
2518 -1921 113 -0.88880157 -0.37112534 0.26888236 0.059442699
2532 -1849 38 -0.68953979 0.39742994 -0.6054619 0.16486013
2533 -1828 48 -0.61351013 0.70866007 -0.34843394 0.14136161
2525 -1834 43 -0.70355624 0.5976066 -0.38454509 0.13615333
2535 -1817 53 -0.52296013 0.80612105 -0.27691439 0.1313998
2528 -1818 52 -0.60297495 0.7561664 -0.25423121 0.12025377
2530 -1808 47 -0.51065373 0.80469656 -0.30281392 0.11946054
2519 -1823 57 -0.68876511 0.69992161 -0.18897751 0.10775675
2509 -1863 102 -0.97573042 0.084262274 0.20211397 0.086785324
2520 -1834 63 -0.77325487 0.60829371 -0.17904079 0.1197802
2521 -1828 57 -0.69866526 0.68326193 -0.21217902 0.11360046
2502 -1841 79 -0.90709674 0.41942343 -0.035487577 0.079488076
2504 -1851 91 -0.96357435 0.23850803 0.12098899 0.095712192
2504 -1847 85 -0.94337004 0.32975098 0.036293887 0.085599385
2528 -1817 47 -0.58505428 0.75706744 -0.29079255 0.11592996
2507 -1858 96 -0.98036468 0.13798508 0.14087301 0.090530552
2508 -1839 74 -0.88151103 0.46179536 -0.098403662 0.098017469
2512 -1865 57 -0.89296728 -0.040112868 -0.44833052 0.10284298
2513 -1837 68 -0.82975852 0.55586994 -0.050094187 0.10493573
2524 -1822 52 -0.65624762 0.71183485 -0.25026026 0.11445164
2506 -1880 104 -0.96777064 -0.12265024 0.21994752 0.062370256
2509 -1854 105 -0.96440136 0.16528864 0.20642102 0.087183431
2528 -1816 54 -0.59132457 0.77385086 -0.22691423 0.11838885
2521 -1839 53 -0.78016919 0.54321039 -0.31025553 0.12946689
2535 -1815 66 -0.55669177 0.81461775 -0.16276434 0.13583943
2524 -1831 64 -0.7206797 0.67620146 -0.15287976 0.13021784
2520 -1893 107 -0.94228423 -0.14203998 0.30319148 0.082264714
2511 -1845 61 -0.89828634 0.37643534 -0.22666742 0.11396182
2523 -1872 110 -0.93640983 0.050832976 0.34720686 0.094391018
2520 -1916 104 -0.90455055 -0.38157997 0.19022347 0.070114344
2513 -1835 68 -0.8165974 0.57434726 -0.057392467 0.1007506
2528 -1825 72 -0.65014476 0.75816852 -0.049923409 0.12882531
2510 -1853 65 -0.93795723 0.21562865 -0.271552 0.11202811
2531 -1833 47 -0.66651875 0.63761312 -0.38626692 0.14531134
2536 -1813 65 -0.52683115 0.83843857 -0.13953395 0.13568272
2506 -1849 72 -0.94092846 0.29572633 -0.16492295 0.09625943
2505 -1873 76 -0.99072093 -0.090431482 -0.10146032 0.097650103
2530 -1818 67 -0.62843549 0.77146387 -0.099560887 0.12213991
2531 -1925 132 -0.7928232 -0.31425065 0.52218568 0.07962992
2521 -1893 128 -0.8535651 -0.15285115 0.49805942 0.075186081
2514 -1830 69 -0.77660221 0.62727505 -0.058438379 0.097536698
2511 -1859 109 -0.95429826 0.12037748 0.27353993 0.097047769
2522 -1823 63 -0.67684269 0.72283244 -0.13927381 0.10905244
2507 -1840 61 -0.87637746 0.45329818 -0.16273703 0.1039448
2516 -1919 107 -0.90311474 -0.36909452 0.21943811 0.057948649
2514 -1890 108 -0.95300347 -0.15914138 0.25779495 0.063750081
2532 -1829 45 -0.60235411 0.69512028 -0.39239955 0.13711661
2528 -1827 40 -0.60265613 0.69285554 -0.39592516 0.13177851
2528 -1829 34 -0.60076618 0.64256185 -0.4755989 0.12523963
2532 -1817 67 -0.60150415 0.789729 -0.12050274 0.12802657
2532 -1827 51 -0.6262247 0.70950967 -0.32316983 0.1386573
2530 -1822 56 -0.6261369 0.74508101 -0.22979753 0.12050451
2529 -1819 62 -0.62376153 0.76047331 -0.18055989 0.12068771
2537 -1842 51 -0.66942132 0.61680925 -0.4140307 0.17807597
2519 -1865 103 -0.96595627 0.068877846 0.24936792 0.10443436
2533 -1827 56 -0.64334923 0.71184665 -0.28173769 0.14464788
2537 -1898 156 -0.81022704 -0.26010767 0.52523911 0.1000941
2513 -1887 101 -0.97061181 -0.1486031 0.18928745 0.070261165
2522 -1839 63 -0.80360919 0.55492896 -0.21509574 0.13267881
2535 -1828 67 -0.65021265 0.74142402 -0.16587313 0.15264809
2532 -1831 44 -0.61514664 0.66948557 -0.4163937 0.1435326
2534 -1820 49 -0.53568822 0.7863335 -0.30776244 0.13035946
2533 -1809 59 -0.51516062 0.83317673 -0.20106234 0.12991317
2530 -1808 70 -0.55687511 0.82936883 -0.045138817 0.12230731
2533 -1809 64 -0.53867233 0.82945216 -0.14778782 0.12319282
2542 -1838 44 -0.54971319 0.6457153 -0.52996904 0.17628308
2503 -1844 88 -0.92112726 0.37551424 0.10253617 0.084876888
2513 -1881 88 -0.98289984 -0.1840405 -0.006078477 0.096782126
2530 -1890 143 -0.76288325 -0.24091263 0.59997529 0.070311837
2535 -1922 143 -0.71189106 -0.28994378 0.63964331 0.078536905
2525 -1831 90 -0.63191009 0.71393496 0.30163971 0.11655351
2515 -1849 38 -0.84634894 0.26481777 -0.46213102 0.14536574
2524 -1840 42 -0.74429286 0.51375675 -0.42671093 0.13643126
2530 -1829 47 -0.63694757 0.68600357 -0.35170561 0.13794616
2527 -1848 37 -0.74005425 0.41288468 -0.53089166 0.15836853
2523 -1835 42 -0.72119772 0.57315993 -0.38905221 0.13060965
2534 -1832 48 -0.63867259 0.66417837 -0.38854146 0.15476932
2535 -1821 53 -0.53937703 0.79602039 -0.2746343 0.13637157
2532 -1821 61 -0.61228698 0.76848084 -0.18585441 0.12812002
2531 -1838 39 -0.64902198 0.55076963 -0.52480793 0.15448539
2534 -1837 45 -0.65777457 0.60582978 -0.44755206 0.15599205
2527 -1838 33 -0.66359085 0.52277213 -0.53512287 0.13699499
2534 -1832 50 -0.6390512 0.68019098 -0.3591013 0.15419744
2535 -1829 56 -0.63339067 0.71753353 -0.28976205 0.15482545
2524 -1836 39 -0.71220559 0.54008245 -0.4484129 0.13508497
2521 -1820 43 -0.64344901 0.69699657 -0.31649494 0.1110369
2507 -1858 70 -0.96136677 0.14370042 -0.23478511 0.10342288
2507 -1832 68 -0.82472312 0.56007165 -0.078430951 0.094197623
2507 -1885 73 -0.94861031 -0.25373417 -0.18909648 0.094643436
2517 -1814 65 -0.67715347 0.72819132 -0.10583305 0.10082705
2519 -1831 71 -0.74420977 0.66794282 0.002035137 0.11070579
2523 -1828 60 -0.69551826 0.69132537 -0.19576421 0.11809881
2517 -1831 76 -0.77337253 0.63394678 0.0025382072 0.10712647
2530 -1822 43 -0.56438959 0.74622494 -0.35300523 0.12496393
2528 -1828 54 -0.67004907 0.69147539 -0.26999265 0.13941708
2519 -1832 32 -0.68002188 0.59795791 -0.42428356 0.12002072
2521 -1830 65 -0.72947991 0.66882592 -0.14328666 0.12107414
2530 -1826 49 -0.61721092 0.72189659 -0.3129153 0.13092768
2527 -1827 76 -0.67760378 0.73499036 0.02534564 0.13005121
2523 -1836 43 -0.73489881 0.54444098 -0.40436101 0.1343468
2515 -1822 70 -0.72832215 0.68142188 -0.07218758 0.10085462
2515 -1825 65 -0.73629987 0.66550833 -0.12231656 0.097516768
2517 -1828 59 -0.73010784 0.65328556 -0.20040111 0.1063678
2530 -1818 34 -0.51369333 0.74383771 -0.42758003 0.10986044
2523 -1818 28 -0.56982261 0.696284 -0.43645257 0.1117178
2524 -1836 37 -0.69568944 0.55162716 -0.46013442 0.1312992
2528 -1812 39 -0.52000952 0.77326465 -0.3628386 0.1154549
2520 -1833 48 -0.73771966 0.60061151 -0.30827829 0.11990095
2521 -1833 54 -0.74407476 0.61553103 -0.25975829 0.12616457
2516 -1832 82 -0.80798435 0.58911335 0.010334012 0.10191681
2528 -1818 54 -0.6031 0.76671129 -0.220055 0.12068992
2504 -1876 62 -0.90337646 -0.23275185 -0.36019108 0.082191728
2517 -1835 57 -0.77911431 0.5672785 -0.26678848 0.1191081
2524 -1873 111 -0.92932832 0.057280153 0.36478478 0.09294837
2522 -1922 118 -0.86005872 -0.35373813 0.36765239 0.060395591
2519 -1895 115 -0.91312075 -0.17324933 0.36904627 0.065821469
2509 -1855 59 -0.92451113 0.1611796 -0.34539887 0.11009556
2533 -1818 61 -0.58485013 0.79064977 -0.18117206 0.12805076
2531 -1817 55 -0.57443506 0.78945708 -0.21629122 0.1198323
2536 -1821 50 -0.52117336 0.79615259 -0.30743995 0.13515629
2506 -1835 47 -0.81681854 0.5159179 -0.25814003 0.10287926
2526 -1933 112 -0.87349343 -0.43604544 0.21650299 0.061518166
2516 -1902 108 -0.92810309 -0.23790881 0.28639832 0.057422981
2520 -1821 44 -0.65728706 0.68776852 -0.30813673 0.11190891
2510 -1874 104 -0.97120047 -0.053304434 0.23222446 0.08350417
2532 -1834 43 -0.64126885 0.61626476 -0.45715648 0.14936684
2510 -1842 34 -0.81311661 0.42127499 -0.40170732 0.14378962
2517 -1842 76 -0.85921419 0.51060736 -0.032108981 0.11180557
2522 -1853 42 -0.82654577 0.23075023 -0.51339692 0.14950356
2518 -1833 64 -0.77614868 0.61268348 -0.14903755 0.11505681
2519 -1847 81 -0.91251558 0.39906281 -0.089801393 0.11303368
2515 -1836 70 -0.82110882 0.56939203 -0.039661217 0.10444874
2525 -1845 25 -0.67332596 0.3474966 -0.65259343 0.16436023
2521 -1846 31 -0.75204492 0.32170534 -0.57526875 0.16076019
2513 -1850 76 -0.93200225 0.35320789 -0.081339158 0.10425437
2530 -1824 48 -0.59561706 0.74459374 -0.30136445 0.12246689
2519 -1851 87 -0.90625995 0.4155663 0.077443786 0.11355356
2518 -1854 59 -0.91048443 0.28194159 -0.30253419 0.12517488
2525 -1827 54 -0.66947252 0.70180291 -0.24347331 0.12396911
2514 -1852 71 -0.9405573 0.28370759 -0.18671373 0.11505641
2523 -1856 93 -0.9236955 0.32697317 0.19968757 0.12076087
2513 -1846 87 -0.91097659 0.40992451 0.045646388 0.09452875
2524 -1832 59 -0.7311095 0.6392442 -0.23842351 0.13263319
2515 -1853 65 -0.92823613 0.30166769 -0.21765636 0.1225783
2515 -1850 48 -0.86485767 0.28298569 -0.41465682 0.12960105
2509 -1843 28 -0.79520762 0.4296096 -0.42787901 0.15948541
2520 -1849 36 -0.78901482 0.2904664 -0.54137313 0.16367877
2518 -1854 53 -0.87281972 0.15929948 -0.46131277 0.13597549
2510 -1847 82 -0.92916191 0.36697593 -0.044575118 0.096787818
2525 -1821 32 -0.57934535 0.6985352 -0.42000905 0.1081532
2514 -1838 35 -0.75304985 0.51018018 -0.41549024 0.12744151
2511 -1895 92 -0.97017175 -0.18213901 0.15997565 0.079274438
2517 -1926 96 -0.88874453 -0.45691028 0.03696074 0.074527286
2513 -1871 89 -0.99888182 -0.010581326 0.046078485 0.10724606
2517 -1822 84 -0.68974662 0.71646309 0.10454813 0.098033652
2540 -1944 131 -0.75842118 -0.47553933 0.44571254 0.047269985
2518 -1873 133 -0.87463737 -0.054942049 0.48165432 0.057878096
2526 -1906 132 -0.77651453 -0.23469229 0.58476043 0.078240909
2507 -1842 83 -0.89230698 0.44920719 0.044732578 0.094968535
2504 -1867 81 -0.99955344 0.013516951 -0.026648935 0.091642655
2522 -1840 59 -0.79612571 0.53584266 -0.28116968 0.12830926
2532 -1828 63 -0.65761179 0.73240876 -0.17642035 0.14716934
2535 -1810 67 -0.52862996 0.83848166 -0.13228336 0.12667038
2510 -1850 89 -0.9446851 0.31779087 0.08111053 0.098932028
2531 -1912 138 -0.74762154 -0.23243193 0.6221233 0.080700256
2514 -1826 90 -0.7255944 0.66390765 0.18094027 0.092672408
2521 -1877 138 -0.84249175 -0.12479613 0.52405494 0.062855251
2508 -1878 87 -0.99053717 -0.13587362 -0.019348983 0.096067876
2524 -1824 71 -0.66496712 0.74486083 -0.054781254 0.11643247
2519 -1841 68 -0.85357672 0.49537408 -0.16127987 0.12337495
2533 -1831 49 -0.63472795 0.69453943 -0.33872607 0.14743011
2533 -1840 41 -0.65466267 0.57302541 -0.49300978 0.15514688
2535 -1827 45 -0.55744594 0.72720408 -0.40053499 0.13952455
2528 -1818 30 -0.52307677 0.72193342 -0.45299309 0.10841117
2504 -1869 92 -0.99308139 0.018994663 0.11588144 0.07935372
2507 -1892 96 -0.97136921 -0.18359409 0.1507813 0.071826346
2518 -1921 101 -0.89418197 -0.43497694 0.10598951 0.065870337
2510 -1833 84 -0.82764912 0.55633646 0.074072324 0.093450308
2504 -1848 88 -0.94519663 0.30930799 0.10455611 0.091516674
2527 -1899 147 -0.74693936 -0.26142815 0.61134028 0.075932771
2522 -1834 34 -0.68000841 0.57650357 -0.45302564 0.1250236
2523 -1916 113 -0.88187879 -0.34046984 0.32614422 0.060586341
2527 -1828 72 -0.66974008 0.74227834 -0.021704383 0.12689835
2524 -1868 118 -0.89225429 0.10372049 0.43945917 0.08963035
2520 -1847 69 -0.89043629 0.41882965 -0.17805876 0.13041842
2526 -1874 111 -0.92067945 0.070890158 0.38382807 0.091902547
2531 -1805 65 -0.51734483 0.85012966 -0.098153107 0.11698219
2521 -1899 110 -0.91671664 -0.2112276 0.33913633 0.067123041
2508 -1844 62 -0.89893657 0.40090793 -0.17659535 0.10237531
2519 -1825 64 -0.70760095 0.69043297 -0.15034367 0.10622269
2534 -1824 55 -0.59131962 0.76094055 -0.26704052 0.13519935
2534 -1812 77 -0.53685272 0.84194118 0.054075718 0.13487445
2532 -1824 49 -0.58647341 0.75287038 -0.29872257 0.12389703
2536 -1823 61 -0.58063972 0.79527104 -0.17436001 0.14309208
2535 -1820 66 -0.5630849 0.82173753 -0.08765085 0.13951461
2536 -1817 72 -0.54053783 0.84114128 0.017327586 0.14844808
2517 -1824 75 -0.7313844 0.68144464 -0.026645815 0.10394873
2517 -1844 72 -0.88416404 0.45777851 -0.093235165 0.11475138
2532 -1813 78 -0.5686534 0.82082707 0.053630855 0.12971409
2542 -1899 158 -0.80108857 -0.28029358 0.52885979 0.12621352
2509 -1843 101 -0.89316899 0.3783749 0.24306689 0.096867934
2515 -1894 109 -0.94701529 -0.19483145 0.25534853 0.063152947
2528 -1821 45 -0.58023912 0.74926519 -0.31925583 0.11859132
2509 -1867 105 -0.97585142 0.00028440368 0.21843486 0.084527522
2511 -1840 109 -0.83472234 0.41606385 0.36073452 0.10476132
2516 -1873 108 -0.95663786 -0.018229282 0.29070887 0.093421482
2521 -1906 107 -0.91702098 -0.27793944 0.28604594 0.066743486
2540 -1840 53 -0.63099325 0.66464329 -0.40012112 0.1843521
2542 -1823 57 -0.50504947 0.81865299 -0.27337217 0.15800944
2535 -1826 53 -0.60778588 0.72514164 -0.32367575 0.14741966
2543 -1849 49 -0.58565193 0.61026394 -0.53346956 0.20956148
2518 -1819 68 -0.68906438 0.71735102 -0.10294591 0.099009052
2530 -1821 46 -0.57071543 0.75715345 -0.31780908 0.11989412
2521 -1821 85 -0.65053201 0.74591774 0.14288019 0.10700511
2525 -1822 57 -0.64004409 0.74608308 -0.18358546 0.11598648
2526 -1821 45 -0.60955405 0.73250937 -0.30310687 0.11205423
2520 -1820 74 -0.6887961 0.72374845 -0.041811127 0.1046794
2530 -1823 51 -0.61097312 0.74408019 -0.27028969 0.12232161
2532 -1819 40 -0.501858 0.77804202 -0.37787461 0.12299584
2524 -1822 62 -0.6628778 0.73622125 -0.13627625 0.11468268
2518 -1819 79 -0.68230903 0.73023301 0.034843091 0.10242493
2532 -1812 67 -0.56833982 0.81221312 -0.13152832 0.12962836
2530 -1818 56 -0.59362268 0.7729975 -0.22380105 0.12193823
2530 -1814 62 -0.58215761 0.79412037 -0.17454296 0.12417874
2532 -1807 73 -0.54100698 0.84045887 -0.030663829 0.12361694
2530 -1821 51 -0.59298259 0.76045936 -0.26471356 0.11981856
2521 -1891 119 -0.89082921 -0.12917174 0.43558931 0.081858389
2521 -1831 54 -0.73116356 0.6350075 -0.24932973 0.12324581
2513 -1843 58 -0.86386538 0.41941667 -0.27897361 0.12517811
2513 -1867 113 -0.94312811 0.019816991 0.33183834 0.094706625
2508 -1846 109 -0.88692546 0.30962741 0.3427743 0.088209696
2529 -1818 50 -0.58517116 0.76676357 -0.26390964 0.11936875
2527 -1913 124 -0.80903089 -0.28522083 0.51392424 0.067604043
2534 -1935 130 -0.77014637 -0.3810966 0.51150757 0.07703089
2534 -1821 62 -0.59660751 0.7821579 -0.17969036 0.12763216
2528 -1828 51 -0.6696139 0.67927247 -0.30034345 0.1378416
2532 -1839 40 -0.64933288 0.56813699 -0.50555623 0.15751371
2532 -1825 56 -0.61673027 0.74596238 -0.25136402 0.13091484
2528 -1810 67 -0.58932066 0.80359662 -0.083268352 0.1216394
2528 -1832 45 -0.67102903 0.63800186 -0.37772182 0.14008684
2536 -1812 74 -0.52494341 0.8511371 -0.00036208201 0.14105225
2528 -1833 73 -0.7143752 0.6994676 -0.020326927 0.14499465
2529 -1908 120 -0.81430268 -0.25824252 0.51982892 0.086799242
2515 -1852 72 -0.93916625 0.29187495 -0.18104069 0.11634863
2519 -1872 121 -0.90954077 0.0081664342 0.41553438 0.088842645
2545 -1837 45 -0.50765389 0.66384202 -0.54918236 0.18289395
2534 -1827 51 -0.60526049 0.72360998 -0.33173528 0.14594503
2533 -1813 73 -0.56649697 0.82405853 -0.0029500285 0.13248767
2537 -1827 56 -0.59819573 0.74303031 -0.30011299 0.15858349
2533 -1821 62 -0.60172343 0.77935475 -0.17474294 0.13132006
2537 -1820 67 -0.56758088 0.81703705 -0.1015011 0.14023462
2519 -1827 94 -0.66204226 0.68772608 0.29788071 0.096322037
2540 -1827 46 -0.50225049 0.76527214 -0.40262023 0.14985918
2530 -1914 142 -0.73485142 -0.2382886 0.63498974 0.085435122
2508 -1847 92 -0.93657154 0.32467583 0.13198224 0.091776833
2525 -1882 142 -0.80455661 -0.21133193 0.55500227 0.072240524
2513 -1879 91 -0.98666859 -0.15314186 0.055069983 0.094865352
2506 -1836 82 -0.8696323 0.4936603 0.0062621818 0.088759415
2504 -1856 85 -0.98576134 0.16479151 0.033441719 0.097132623
2507 -1900 94 -0.96026182 -0.2144471 0.17863303 0.08512219
2518 -1824 78 -0.72596651 0.68748367 0.018408546 0.10306482
2516 -1877 140 -0.85313261 -0.11394975 0.50909746 0.047856472
2501 -1874 90 -0.99444294 -0.067159802 0.081072636 0.078020729
2531 -1910 145 -0.71254832 -0.26689929 0.64887565 0.08323653
2536 -1813 69 -0.53788912 0.83599323 -0.10858501 0.13537923
2509 -1874 107 -0.97146899 -0.10064808 0.21475077 0.075493686
2520 -1920 117 -0.8740285 -0.35800382 0.32849285 0.062041689
2509 -1855 103 -0.96890926 0.15659583 0.19155324 0.085143238
2517 -1899 113 -0.91753554 -0.20037806 0.34347811 0.065779313
2536 -1849 48 -0.70440692 0.53009152 -0.47203159 0.18122573
2539 -1832 45 -0.53913772 0.71754313 -0.440979 0.16251804
2512 -1838 99 -0.74833804 0.55936241 0.3565163 0.090027943
