# .PCD v0.7 - Point Cloud Data file format
VERSION 0.7
FIELDS x y z normal_x normal_y normal_z curvature
SIZE 4 4 4 4 4 4 4
TYPE F F F F F F F
COUNT 1 1 1 1 1 1 1
WIDTH 818
HEIGHT 1
VIEWPOINT 0 0 0 1 0 0 0
POINTS 818
DATA ascii
2782 36 42 -0.60438621 0.57609469 -0.55030185 0.077014811
2799 64 43 -0.51696193 0.75291419 -0.4072721 0.084801458
2806 50 43 -0.503241 0.73758817 -0.45023564 0.10496235
2729 17 87 -0.89344501 0.37733462 -0.24366896 0.10304354
2711 44 129 -0.69957983 0.41647863 -0.58063215 0.14161748
2720 81 176 -0.861772 0.50336087 0.063062452 0.085961118
2742 0 130 -0.95127708 -0.12605146 -0.28139463 0.1966653
2706 29 128 -0.92065746 -0.093987055 -0.37888807 0.11204428
2723 66 176 -0.93141627 0.3490274 0.10316753 0.099720329
2703 14 128 -0.92284751 -0.23389973 -0.30601206 0.095527627
2736 -126 104 -0.90259111 -0.16547635 0.39742532 0.094752774
2755 29 60 -0.68199456 0.59792888 -0.42114666 0.083535932
2731 -71 103 -0.86386412 -0.49894503 0.06922888 0.11886548
2735 -112 104 -0.89160645 -0.1790141 0.41592297 0.11702674
2717 -3 103 -0.98389423 0.018915268 -0.17774805 0.12061424
2715 -30 103 -0.97903472 -0.081339926 0.18674809 0.11575202
2769 -86 105 -0.9435752 -0.31334621 -0.10714491 0.18791842
2729 2 59 -0.8651101 0.27898213 -0.41683763 0.09531942
2723 -11 59 -0.89853442 0.17095804 -0.404239 0.10797103
2717 -57 103 -0.90520853 -0.40114096 0.14029768 0.10880972
2711 -44 102 -0.95260519 -0.18186001 0.24386507 0.12474985
2723 -17 103 -0.99936742 -0.033313494 -0.012446166 0.12060771
2715 9 102 -0.9536404 0.069657959 -0.2927759 0.12530856
2773 43 60 -0.59814042 0.72289371 -0.34590849 0.083583176
2734 15 59 -0.80543005 0.45915589 -0.37477756 0.086390227
2763 -151 116 -0.87780958 -0.048391387 0.47655907 0.14354457
2753 -123 115 -0.91113538 -0.17712131 0.37210271 0.10567806
2760 -137 116 -0.91989976 -0.19749899 0.33879 0.11873969
2725 -40 114 -0.89710903 -0.20771681 0.38993481 0.10898713
2729 -54 114 -0.85980773 -0.36963314 0.35228112 0.11649217
2721 -27 114 -0.96569383 -0.1339606 0.22246322 0.12193242
2752 33 71 -0.70950681 0.67872995 -0.18954074 0.078459628
2728 0 114 -0.95232105 0.019926652 -0.30444631 0.15654846
2744 19 71 -0.78960359 0.56437212 -0.24085331 0.088042781
2745 -109 115 -0.9107706 -0.18083912 0.37120634 0.11658395
2714 13 113 -0.89097703 0.015217404 -0.45379341 0.12007365
2753 -82 115 -0.90953207 -0.38612208 0.15382205 0.13086234
2718 -13 113 -0.99279922 -0.074224882 -0.09402322 0.13148145
2736 -68 114 -0.86034417 -0.45833716 0.22301327 0.10917486
2742 -95 115 -0.9208625 -0.29493016 0.25500676 0.12891667
2791 -151 108 -0.61037016 -0.20892872 0.76406616 0.20743661
2738 -66 105 -0.86850893 -0.48717698 0.091382049 0.12058917
2754 -107 106 -0.95044762 -0.15419696 0.26994956 0.13754874
2779 -95 107 -0.98056203 -0.19545028 0.017240122 0.20544307
2741 -80 106 -0.88644654 -0.44517249 0.12662554 0.13848415
2722 -38 105 -0.95234835 -0.19930382 0.23089097 0.12561622
2755 -121 106 -0.92785913 -0.17248441 0.33064571 0.12347219
2728 -52 105 -0.90796584 -0.4055354 0.10554161 0.12874998
2728 -25 105 -0.98873615 -0.10548855 0.10617478 0.12546045
2747 20 60 -0.74738574 0.54126513 -0.38528788 0.086499743
2728 -11 105 -0.99856836 0.011870304 -0.052156046 0.13526636
2765 34 61 -0.64794415 0.63232821 -0.4246521 0.088654518
2771 48 61 -0.59396452 0.7105276 -0.37730187 0.068130359
2737 6 60 -0.85227197 0.34640932 -0.39196056 0.097447157
2717 15 105 -0.90715754 0.02662616 -0.41994789 0.1209929
2700 22 148 -0.9584251 -0.2151839 -0.18739553 0.17300731
2723 -20 60 -0.86729372 -0.058487955 -0.49434876 0.10966988
2709 63 148 -0.86908209 0.44412485 -0.21782906 0.12509628
2727 -6 60 -0.88894141 0.19955215 -0.41226467 0.10095778
2726 1 105 -0.97333151 0.10081609 -0.20606297 0.13569914
2702 49 148 -0.96815276 0.21293372 -0.13167921 0.13626538
2742 103 206 -0.65139043 0.73163778 -0.20098948 0.1371972
2760 121 208 -0.53812748 0.82536775 -0.17084144 0.084699951
2733 86 205 -0.81960827 0.56157202 0.11348599 0.15817578
2745 69 206 -0.58364612 -0.049709123 0.81048518 0.17476995
2759 -3 56 -0.56615025 0.0078003905 -0.82426518 0.14158155
2753 -106 101 -0.95219845 -0.16483076 0.25719428 0.14616717
2730 -37 99 -0.96255273 -0.27018827 -0.022147682 0.14111058
2757 -92 101 -0.95765775 -0.28432143 -0.045309823 0.16556811
2761 -120 102 -0.92633253 -0.16480757 0.33874252 0.13473681
2753 -78 101 -0.87207669 -0.45242345 -0.18653491 0.15627113
2737 -64 100 -0.85541546 -0.51138818 -0.082137793 0.12511098
2773 -148 103 -0.8087694 -0.19042043 0.55644584 0.15986866
2727 -23 99 -0.997491 -0.070729285 0.0029953311 0.12698606
2727 -50 99 -0.90738636 -0.41949487 -0.025960542 0.13292269
2732 3 99 -0.95723748 0.19564043 -0.21312265 0.1265799
2758 -134 102 -0.88466191 -0.23806794 0.40087032 0.13343288
2706 40 142 -0.98993593 -0.037453771 -0.13646971 0.15532413
2702 13 142 -0.93124604 -0.33233026 -0.14945702 0.11517321
2706 26 143 -0.9558723 -0.24348143 -0.16439255 0.13532677
2707 62 186 -0.93104661 0.33264548 0.14999755 0.094685689
2713 48 187 -0.94671071 0.1234754 0.2974771 0.11462408
2782 51 56 -0.55336797 0.75968993 -0.34154812 0.078277662
2720 89 187 -0.79475158 0.60319382 -0.067284271 0.13115478
2752 17 99 -0.82779771 0.55116773 -0.10471427 0.13202783
2744 104 188 -0.58669323 0.74854225 -0.30899122 0.11176552
2768 37 56 -0.61278749 0.59440112 -0.52074844 0.077349782
2755 23 56 -0.67264837 0.51996875 -0.52647567 0.085416511
2714 75 186 -0.90821123 0.39918524 0.12571213 0.10016961
2752 10 56 -0.71829611 0.3703607 -0.58896822 0.11407261
2743 -125 107 -0.90537059 -0.16434377 0.39152944 0.10249612
2732 -70 106 -0.86101747 -0.49499393 0.11674712 0.11711157
2744 -97 107 -0.93071914 -0.25023195 0.26673183 0.13623282
2747 -84 107 -0.91192228 -0.40206864 0.082089171 0.14340566
2717 -56 105 -0.90207958 -0.38653275 0.19195028 0.10824321
2770 -154 108 -0.87225598 -0.12870714 0.47180924 0.15703307
2739 -111 107 -0.90271783 -0.16515437 0.39727131 0.11861907
2723 -9 62 -0.90642554 0.19931903 -0.37237695 0.10027777
2718 -2 105 -0.98044956 0.018138871 -0.19593266 0.12420105
2718 -29 105 -0.97752339 -0.095997639 0.18770342 0.11786532
2724 11 106 -0.93841386 0.05944182 -0.34036162 0.13939545
2743 17 63 -0.79123467 0.51998675 -0.32180977 0.087806024
2736 3 62 -0.87299544 0.32282785 -0.36559707 0.093475424
2719 -15 105 -0.99858254 -0.045840461 -0.027048945 0.1194943
2723 -42 106 -0.93861639 -0.2510266 0.23661144 0.12546331
2755 31 63 -0.68969023 0.62667298 -0.36277866 0.079204068
2770 45 63 -0.5955497 0.74831712 -0.29213384 0.081665345
2720 13 144 -0.92357951 -0.31385338 -0.22022019 0.11742849
2785 -148 103 -0.57998359 -0.20748235 0.78776276 0.20181759
2765 -78 103 -0.89441431 -0.39340577 -0.21273214 0.18251468
2733 -49 102 -0.90634608 -0.42206642 0.019920247 0.13569769
2767 -91 103 -0.96878093 -0.24707454 0.020438168 0.18810658
2765 -133 103 -0.89681518 -0.21578914 0.38620937 0.14454639
2714 40 144 -0.9266333 0.1684283 -0.33612874 0.16777834
2739 12 56 -0.78517133 0.4377355 -0.43805668 0.094216049
2741 4 102 -0.96398884 0.18559557 -0.19047244 0.13159722
2745 26 57 -0.71287471 0.55766672 -0.42522648 0.072340466
2741 -36 102 -0.93537652 -0.34022358 -0.096533626 0.14687704
2736 -8 102 -0.9900617 0.11819145 -0.076214157 0.14173871
2761 -105 103 -0.95076346 -0.15652795 0.26748416 0.15163897
2714 60 187 -0.93608779 0.28383783 0.20778784 0.10527429
2708 26 143 -0.95138544 -0.26801777 -0.15176378 0.13224742
2744 0 56 -0.77911103 0.21117586 -0.59024638 0.11923157
2781 54 58 -0.55531031 0.77938902 -0.29014352 0.073309399
2741 -22 102 -0.99069905 -0.11335144 -0.075278297 0.15730897
2766 40 57 -0.61913699 0.61455363 -0.48886937 0.071259953
2743 -63 102 -0.8575846 -0.50159317 -0.11381184 0.13184421
2759 -119 102 -0.9316439 -0.16845964 0.32196441 0.13058892
2707 54 144 -0.90926385 0.3424561 -0.23656526 0.1425485
2735 103 190 -0.70421839 0.69296026 -0.15453932 0.10589077
2727 74 189 -0.88306046 0.43321183 0.18036543 0.12214273
2730 89 189 -0.79990554 0.59994066 0.014908244 0.1302816
2748 28 70 -0.7302891 0.6444279 -0.22669496 0.081215046
2732 8 113 -0.92598057 0.046766028 -0.37466377 0.1515087
2739 1 70 -0.904239 0.272383 -0.32887593 0.10081892
2727 22 113 -0.87187171 0.10225796 -0.47893935 0.13451976
2739 -4 113 -0.98304898 0.022946404 -0.18190157 0.16548201
2733 -58 113 -0.86435145 -0.45920369 0.20500873 0.12029829
2731 -39 69 -0.76616955 -0.37288991 -0.52339029 0.10875002
2761 -99 114 -0.94282657 -0.20606168 0.26194799 0.13622229
2759 -86 114 -0.9363023 -0.32965347 0.12110561 0.14862481
2762 -113 114 -0.93844229 -0.15064023 0.31085941 0.12643386
2730 -45 113 -0.87716758 -0.28723449 0.38480315 0.1227343
2715 -25 69 -0.95395792 -0.016036162 -0.2995114 0.090193741
2744 -31 114 -0.92864317 -0.26039404 0.26422873 0.15319718
2738 -72 113 -0.85469574 -0.48002571 0.19766255 0.11913516
2751 -53 70 -0.50788766 -0.51785457 -0.68838698 0.12258231
2754 -73 80 -0.52363932 -0.47716025 -0.7057761 0.14577305
2746 -87 80 -0.64714831 -0.31383795 -0.69476962 0.19564998
2760 -66 127 -0.87426764 -0.40496111 0.26769879 0.13837643
2765 -110 128 -0.91137463 -0.17530812 0.37237546 0.11082166
2762 -95 127 -0.91780961 -0.24639736 0.31130993 0.11912142
2749 -80 126 -0.88720077 -0.375148 0.26858667 0.12020206
2722 -29 79 -0.95908409 -0.12307339 -0.25497177 0.11575113
2741 -15 79 -0.93428099 0.014270942 -0.35625175 0.12296567
2741 -1 79 -0.93130046 0.25562695 -0.25948855 0.11832336
2756 13 79 -0.80518073 0.55582732 -0.20673668 0.11630807
2754 -58 80 -0.54934961 -0.50575811 -0.66514933 0.12336312
2716 60 165 -0.89019495 0.44063461 -0.11573271 0.11052389
2712 20 123 -0.90425837 -0.13427275 -0.40532404 0.10233939
2740 27 78 -0.75482196 0.63264662 -0.17321111 0.074735664
2712 34 123 -0.83116388 0.079826504 -0.5502674 0.10877895
2719 -43 79 -0.88240635 -0.34218109 -0.32291046 0.1222226
2722 74 165 -0.85102886 0.51813269 -0.085372768 0.091684699
2782 43 52 -0.57207781 0.70042104 -0.4267756 0.079326071
2727 -43 95 -0.93045324 -0.34895056 -0.11175989 0.13504633
2737 -57 95 -0.83858317 -0.50275344 -0.20980284 0.13543352
2795 57 52 -0.52383631 0.76095259 -0.38281408 0.094573319
2727 -30 95 -0.98754567 -0.15106785 -0.04395552 0.13324216
2737 -3 95 -0.9663074 0.21866938 -0.13577074 0.11999157
2735 9 95 -0.9439435 0.25225756 -0.21292457 0.12105663
2723 -16 95 -0.99534291 0.024325598 -0.093278192 0.1139953
2753 -84 96 -0.85227287 -0.41534099 -0.3179982 0.16665606
2735 23 95 -0.88785374 0.36156291 -0.28458387 0.11229111
2754 -71 96 -0.78058225 -0.50598598 -0.3669734 0.15483016
2758 15 51 -0.63607657 0.42445898 -0.64439207 0.093261786
2772 29 52 -0.5957737 0.51795459 -0.61382151 0.083962411
2747 2 51 -0.70372361 0.19830301 -0.68223828 0.11853775
2731 -62 109 -0.86250907 -0.47786811 0.16649355 0.11544356
2760 -104 111 -0.95382077 -0.18189846 0.23903742 0.13103057
2727 -48 109 -0.90294516 -0.35346574 0.24444216 0.12198876
2724 -21 109 -0.99040532 -0.098426998 0.097002201 0.1226152
2722 -7 108 -0.98962557 -0.021302182 -0.14208245 0.1349725
2769 -118 111 -0.92638004 -0.16399096 0.3390089 0.14626138
2718 -15 65 -0.93892515 0.14692196 -0.31118071 0.093225539
2729 -1 65 -0.89991462 0.24567537 -0.36027396 0.096203744
2730 5 109 -0.95030797 0.067927353 -0.30381024 0.14690165
2755 -90 110 -0.94615805 -0.29218617 0.1393276 0.14191006
2716 -34 108 -0.94732952 -0.11559268 0.29867223 0.11738235
2751 -76 110 -0.89964563 -0.42345041 0.10643105 0.13473612
2789 53 66 -0.50299805 0.85952121 -0.090642996 0.10114112
2726 19 108 -0.9088043 0.074001729 -0.41060752 0.13358527
2779 39 66 -0.59116906 0.76060712 -0.26832077 0.12026487
2756 25 66 -0.71209919 0.64910644 -0.26753598 0.095549345
2732 11 65 -0.84866375 0.40462857 -0.34065464 0.088008232
2758 -61 93 -0.71051496 -0.49229318 -0.50280815 0.15506437
2737 6 92 -0.93736774 0.29985225 -0.17728575 0.11362131
2736 19 92 -0.89370263 0.37251225 -0.25006032 0.11024339
2735 -20 92 -0.98016745 -0.044340122 -0.19314715 0.13060087
2728 -7 92 -0.97463274 0.16637397 -0.14970249 0.11468213
2753 12 49 -0.64234197 0.38598153 -0.66212916 0.10099764
2783 40 50 -0.58675671 0.63353336 -0.50433332 0.08120358
2768 26 49 -0.58748043 0.49113658 -0.6431576 0.082847752
2723 -33 92 -0.98130578 -0.16214694 -0.10366978 0.12833722
2759 -74 93 -0.70252407 -0.47399318 -0.53083926 0.16453168
2733 -47 92 -0.87770075 -0.42649934 -0.21849424 0.14023024
2790 53 50 -0.54911679 0.71473384 -0.43315837 0.08020284
2763 -88 118 -0.93539631 -0.31132022 0.16767083 0.1458876
2754 -74 117 -0.89147723 -0.41543636 0.18077889 0.14182305
2764 -115 119 -0.92380524 -0.16557837 0.34520659 0.12087431
2764 -102 118 -0.94065291 -0.18957642 0.28148338 0.13836691
2756 123 206 -0.54443443 0.82182539 -0.16791132 0.069518216
2740 109 205 -0.61230803 0.75612104 -0.23099755 0.12326808
2722 22 115 -0.87018037 0.050641537 -0.49012414 0.12723413
2750 0 73 -0.89140093 0.32453665 -0.31635451 0.13036561
2724 95 204 -0.61588722 0.69801623 -0.36531666 0.15361178
2770 42 73 -0.59689099 0.8003093 -0.056799594 0.093959577
2809 32 30 -0.54542941 0.62549627 -0.55790776 0.13325357
2749 14 72 -0.80029213 0.55160981 -0.23507257 0.10479391
2737 -5 116 -0.96826833 -0.00069402839 -0.24991184 0.16643497
2697 44 158 -0.98205596 0.18378122 -0.042314395 0.14205097
2736 -32 116 -0.91610962 -0.21143477 0.34064412 0.12518346
2734 -18 116 -0.9898622 -0.1085969 0.091539398 0.14591092
2718 81 203 -0.68002725 0.66342449 -0.31213933 0.16619739
2730 8 115 -0.91077793 0.035139948 -0.41139859 0.14257003
2740 -46 116 -0.85655743 -0.36527067 0.36453623 0.12178394
2734 -59 116 -0.85892761 -0.45464739 0.23566765 0.11503404
2750 28 72 -0.72261691 0.65757942 -0.21310611 0.079625681
2703 58 159 -0.95160013 0.30311966 -0.050750997 0.11205396
2709 72 159 -0.91303283 0.40476742 -0.050342824 0.092712827
2739 -58 104 -0.86083269 -0.50557506 -0.057973344 0.12857276
2754 -72 104 -0.86969543 -0.4840351 -0.096642785 0.14615853
2751 -86 104 -0.91560882 -0.39908251 -0.04892505 0.15271056
2740 10 64 -0.84068549 0.42301771 -0.33808878 0.095969543
2761 37 65 -0.66573393 0.66351873 -0.34138134 0.077417582
2762 24 65 -0.68916065 0.64406353 -0.33202365 0.10696278
2727 17 107 -0.91151649 0.10342684 -0.3980459 0.13162388
2730 4 107 -0.96119779 0.097689725 -0.25798351 0.14322679
2728 -16 64 -0.90307593 0.047272451 -0.42687139 0.11077896
2757 -76 108 -0.90529573 -0.42336115 0.034714378 0.14859737
2749 -90 108 -0.92695004 -0.33917055 0.16039595 0.13801423
2781 -118 109 -0.74062937 -0.12499283 0.66018552 0.21390836
2772 -104 109 -0.95541924 -0.13009869 0.26504394 0.17091404
2729 -22 107 -0.99048018 -0.094820179 0.09979023 0.13178076
2725 -35 107 -0.95336837 -0.1736536 0.24684674 0.1310087
2733 -3 64 -0.89819682 0.2121658 -0.38500398 0.097831205
2727 -49 107 -0.90990037 -0.37376001 0.17995758 0.12612008
2722 -8 107 -0.99160683 -0.016910702 -0.12817907 0.13689685
2739 -62 108 -0.87023824 -0.4760755 0.12663896 0.11689176
2789 -155 152 -0.80531096 -0.59258533 -0.017802587 0.27512082
2765 -84 151 -0.86176372 -0.24273041 0.44547191 0.1285212
2779 -140 151 -0.90216398 -0.15507963 0.40255487 0.16444381
2767 -93 108 -0.95793182 -0.24277781 0.15305384 0.17516668
2768 -65 108 -0.88333505 -0.44548136 -0.14582695 0.174472
2771 -79 108 -0.92274135 -0.3742505 -0.092114083 0.18754639
2781 -98 151 -0.76066422 -0.20171334 0.6170103 0.14290932
2765 -70 151 -0.81449544 -0.26127964 0.51800591 0.14697313
2721 73 193 -0.89448112 0.38352844 0.22980304 0.10347395
2712 66 149 -0.85012597 0.48278677 -0.21024472 0.11354864
2754 25 62 -0.70616251 0.59352034 -0.38609332 0.091956124
2708 53 149 -0.94038719 0.2934562 -0.17191657 0.14092001
2744 -37 107 -0.93729228 -0.34467131 0.051815584 0.14861463
2747 17 108 -0.92521584 0.24054193 -0.29345378 0.17055611
2729 88 194 -0.7918238 0.60961068 -0.037280742 0.14116009
2747 -23 107 -0.98500335 -0.15302226 -0.079703234 0.17921294
2704 25 148 -0.97426587 -0.18580447 -0.12760381 0.1498372
2781 53 63 -0.54416853 0.81519675 -0.19832993 0.078330368
2742 3 107 -0.96960163 0.13084832 -0.20676389 0.14594428
2745 -51 107 -0.88171071 -0.47044855 0.035558179 0.141443
2741 -10 107 -0.99432248 0.055970211 -0.090499088 0.1568439
2732 101 194 -0.72972876 0.67560881 -0.10511266 0.10630105
2709 39 148 -0.99500358 -0.033220042 -0.094150908 0.1556468
2769 39 62 -0.61940658 0.69863826 -0.35810617 0.098195545
2760 -1 62 -0.67470139 0.11102337 -0.72969288 0.16382188
2741 11 61 -0.81352532 0.44740438 -0.37149131 0.092269242
2741 -52 139 -0.80979806 -0.31803015 0.49303547 0.097359203
2755 -98 139 -0.91011828 -0.24648817 0.33305898 0.1070163
2701 59 183 -0.943802 0.31067613 0.11277446 0.088794485
2771 -129 140 -0.89135885 -0.16829754 0.42089844 0.10907547
2719 74 185 -0.91102511 0.3738943 0.17388602 0.092551365
2701 22 137 -0.94964963 -0.24295726 -0.19783162 0.11617904
2742 106 187 -0.61417609 0.7449457 -0.26046801 0.10823298
2697 52 137 -0.92397922 0.26701733 -0.27379605 0.16961847
2758 -68 139 -0.85403323 -0.36875141 0.36694637 0.13451599
2755 -83 139 -0.88159144 -0.32668453 0.34069583 0.12130547
2704 37 137 -0.97076577 -0.078263201 -0.22691122 0.14123718
2753 -37 139 -0.73184341 -0.20324343 0.65045935 0.11420667
2768 -114 140 -0.87183577 -0.18011001 0.45548084 0.10536084
2712 89 184 -0.85137856 0.52378297 -0.028389983 0.11506937
2759 24 46 -0.60004461 0.45779216 -0.65602797 0.082054764
2757 10 45 -0.59382808 0.34170067 -0.72842902 0.10053243
2772 38 46 -0.61759198 0.58378011 -0.5270493 0.065741219
2783 65 46 -0.56021667 0.74747723 -0.35698044 0.066641584
2739 -58 143 -0.80915546 -0.33032393 0.48595631 0.094323501
2789 -158 147 -0.78790635 -0.36867768 0.4932346 0.25733531
2781 -81 101 -0.67803574 -0.37301347 -0.63334703 0.21245396
2724 -39 98 -0.96987677 -0.24311778 0.015259307 0.1391203
2750 -72 144 -0.8518486 -0.34247485 0.39631432 0.11287007
2759 -87 144 -0.87325019 -0.28272751 0.3968617 0.12208693
2745 -53 99 -0.85625553 -0.48913682 -0.16604726 0.13911299
2747 -45 143 -0.76685435 -0.24701664 0.59238273 0.10960163
2763 -67 100 -0.77807307 -0.49079958 -0.39206901 0.16492513
2768 -129 145 -0.90702516 -0.12683842 0.40151888 0.11440092
2761 -114 145 -0.8893944 -0.20482324 0.40868697 0.088878468
2760 -101 145 -0.8973667 -0.24058074 0.36993772 0.10458411
2781 -143 146 -0.90749341 -0.26306278 0.32749611 0.18510382
2733 -25 98 -0.99311841 -0.10939762 -0.041809384 0.13717189
2776 33 53 -0.6078195 0.58967364 -0.53182757 0.090401009
2735 1 98 -0.96005434 0.20942061 -0.18557641 0.12610583
2757 6 53 -0.63850105 0.23612127 -0.73250473 0.12097679
2751 19 53 -0.68247402 0.50383705 -0.52950668 0.084761746
2706 63 140 -0.85985595 0.44020912 -0.2585803 0.1494536
2733 15 98 -0.93409473 0.22090994 -0.28047454 0.12191971
2787 47 54 -0.55263668 0.75141293 -0.36051551 0.09040527
2731 -12 98 -0.99164629 0.072632924 -0.10659292 0.12580185
2736 4 74 -0.9057762 0.31787011 -0.28022847 0.094878256
2736 17 74 -0.82851273 0.50658149 -0.23862486 0.083060041
2794 24 31 -0.6108982 0.45115986 -0.65058291 0.12453813
2736 -9 74 -0.93291879 0.11600872 -0.34088781 0.10662053
2729 31 74 -0.77144587 0.59067768 -0.23658247 0.067423776
2771 -152 131 -0.89217943 -0.10098518 0.44024745 0.14137936
2711 40 130 -0.80145329 0.26009595 -0.5385375 0.13558058
2754 -41 131 -0.75133878 -0.26062948 0.60626912 0.12862942
2757 -110 131 -0.91720986 -0.18352762 0.35361516 0.10094951
2784 40 43 -0.57493031 0.63769817 -0.51263648 0.076590419
2756 -82 131 -0.8891651 -0.33447403 0.31227022 0.1291132
2760 26 43 -0.6002093 0.4729766 -0.64501321 0.079365648
2715 61 173 -0.94401228 0.31174868 0.10795194 0.098399833
2763 -138 131 -0.90868407 -0.14904009 0.38997492 0.1139701
2725 -36 87 -0.94171721 -0.25163102 -0.22327217 0.12890789
2717 13 130 -0.92063427 -0.14772509 -0.36139983 0.11432398
2741 18 88 -0.85608494 0.48090652 -0.18933421 0.10296621
2798 54 44 -0.5238651 0.71913213 -0.45652428 0.092280164
2711 27 129 -0.91920477 -0.12953606 -0.37186414 0.11310334
2762 -124 131 -0.90622091 -0.18798831 0.37871361 0.099058993
2748 -55 130 -0.8213172 -0.38909435 0.41718531 0.11885972
2763 -63 88 -0.61071247 -0.4952952 -0.61782926 0.15879507
2731 -8 88 -0.96550626 0.17247525 -0.1950639 0.11708766
2765 12 43 -0.55404365 0.34417635 -0.75800937 0.091382846
2737 -49 88 -0.82316214 -0.46261451 -0.32922927 0.13870324
2734 4 88 -0.93299854 0.30823886 -0.18574859 0.11232787
2733 -22 88 -0.96520573 -0.084327176 -0.24752119 0.12499996
2704 47 172 -0.98564512 0.11243282 0.12594673 0.10494145
2754 -96 131 -0.91821885 -0.26758569 0.29201365 0.11695808
2715 74 173 -0.91523206 0.38870502 0.10610713 0.082244866
2755 -68 131 -0.85504943 -0.3844021 0.34803092 0.12343023
2754 112 223 -0.51733357 0.79257619 -0.32278329 0.11492331
2735 97 221 -0.6883623 0.68167776 -0.24793701 0.15867493
2745 84 222 -0.53619272 0.085964285 0.83970672 0.18662702
2733 10 100 -0.95309108 0.1801184 -0.24325845 0.12457371
2720 -29 100 -0.99206299 -0.087068439 0.090719625 0.11915722
2761 16 57 -0.6477021 0.45897263 -0.60813332 0.10890134
2732 24 100 -0.91170573 0.25865522 -0.31920254 0.12498973
2748 2 57 -0.75844955 0.23437211 -0.60813147 0.12444698
2769 30 57 -0.61864328 0.53636307 -0.57410377 0.087293155
2728 -56 101 -0.89060885 -0.45294499 0.040703196 0.13094106
2733 -16 100 -0.99878794 0.0090255607 -0.048387248 0.1371967
2755 -10 57 -0.54400867 -0.14003243 -0.82731217 0.13387893
2736 -2 101 -0.97453082 0.16635805 -0.15038212 0.13459785
2726 -42 100 -0.94680166 -0.32160261 0.011761449 0.13665725
2756 -70 102 -0.85203195 -0.48441064 -0.19846356 0.15512805
2781 44 57 -0.5792644 0.73943841 -0.34305039 0.085566625
2770 -97 102 -0.97313333 -0.22281934 0.057991508 0.19034742
2750 -83 101 -0.90741771 -0.41692129 -0.052629035 0.15805121
2762 119 199 -0.53583413 0.82384127 -0.18484402 0.072533548
2722 69 195 -0.9003948 0.29447609 0.32027015 0.11962966
2738 102 197 -0.69342703 0.70994627 -0.12302539 0.14285225
2728 85 196 -0.81849784 0.57326323 0.037822407 0.14844577
2761 34 52 -0.61978978 0.56701726 -0.54254216 0.06921877
2740 -6 52 -0.75228441 0.089816757 -0.65268761 0.11483606
2778 48 52 -0.5811038 0.68466568 -0.43994465 0.06336081
2788 62 52 -0.55287659 0.74464589 -0.37393838 0.071117178
2756 20 52 -0.64754975 0.48037127 -0.59154278 0.088706352
2744 7 52 -0.74503952 0.32828352 -0.58064282 0.10751499
2769 -117 118 -0.91927475 -0.16263331 0.35844713 0.13179821
2763 -103 118 -0.93818015 -0.19090299 0.28874579 0.13756762
2748 -61 116 -0.85853821 -0.46819344 0.20906208 0.12451054
2744 108 204 -0.59319842 0.77008563 -0.23469917 0.12554531
2771 -89 118 -0.9412418 -0.27482647 0.19630139 0.16658206
2762 38 73 -0.65372163 0.74161083 -0.15053697 0.088773787
2731 93 203 -0.78512347 0.61789131 0.042324297 0.1369518
2770 -76 118 -0.92547876 -0.35656935 0.12785688 0.16327134
2731 20 114 -0.88431615 0.068037666 -0.46190459 0.13187735
2799 31 27 -0.53618217 0.69510823 -0.47888753 0.13423388
2735 7 115 -0.92840821 0.03055718 -0.37030327 0.15402779
2724 79 203 -0.87211144 0.3370432 0.354716 0.14005207
2703 41 156 -0.99384153 0.10278974 -0.041392066 0.13595669
2741 -47 116 -0.85545015 -0.36924887 0.36312583 0.12097635
2705 55 156 -0.95094615 0.29990518 -0.075883724 0.117658
2748 24 73 -0.75137776 0.62224448 -0.2196435 0.08294186
2706 69 156 -0.89642274 0.43034226 -0.10598021 0.1094853
2734 -20 115 -0.9833532 -0.1139276 0.14155182 0.13999538
2761 122 205 -0.51855177 0.83335024 -0.19139373 0.073425338
2739 -33 116 -0.89592129 -0.22740853 0.38158929 0.12832572
2732 -6 115 -0.97498864 0.002987951 -0.22223474 0.16101959
2725 -47 105 -0.91878682 -0.35885292 0.16448496 0.12995543
2755 -89 106 -0.94509763 -0.32043642 0.064116873 0.1518354
2775 40 62 -0.61017537 0.70139784 -0.36841166 0.1024268
2731 6 105 -0.95784688 0.12331947 -0.2594642 0.13116027
2785 54 62 -0.52628744 0.82760769 -0.19515938 0.087484196
2747 12 61 -0.79513991 0.4605265 -0.3945477 0.10885759
2735 -1 61 -0.88456118 0.23939534 -0.40030158 0.099819154
2761 26 62 -0.67559659 0.60116357 -0.42681557 0.1037817
2748 -75 106 -0.88386399 -0.46334034 0.064032488 0.13840322
2717 -7 104 -0.99103546 0.0051492616 -0.13349958 0.11868403
2728 -34 105 -0.96368426 -0.18457003 0.19299382 0.13587064
2750 -61 106 -0.86002469 -0.50856793 -0.041426752 0.13423522
2724 -20 105 -0.99756652 -0.066889636 0.019666726 0.12332677
2719 20 104 -0.9062162 0.04953609 -0.41990277 0.11246899
2704 63 142 -0.79257011 0.52508897 -0.31002289 0.14495772
2788 47 56 -0.54740882 0.77665597 -0.31168735 0.099624887
2772 33 56 -0.59845883 0.5689007 -0.56409127 0.084219299
2708 71 186 -0.9127484 0.38773701 0.1286481 0.10807285
2701 35 142 -0.97585756 -0.10199155 -0.19313166 0.15157333
2725 99 187 -0.7711786 0.63590312 -0.030179676 0.11183744
2705 49 142 -0.9736287 0.15650856 -0.16598855 0.15832411
2715 85 186 -0.85829753 0.51109332 0.04592352 0.11872593
2776 43 56 -0.59930348 0.6984635 -0.3911317 0.079536065
2781 57 56 -0.56470954 0.73908347 -0.36723131 0.062743977
2738 2 56 -0.83798653 0.3090983 -0.44970754 0.10783839
2751 16 56 -0.705679 0.46727452 -0.53260845 0.098274939
2763 30 56 -0.63907194 0.56109315 -0.5260812 0.088513061
2740 -10 56 -0.78113174 0.029848078 -0.6236524 0.12155674
2771 -132 128 -0.88577795 -0.19505215 0.42113188 0.13819465
2768 -147 129 -0.90881801 -0.15847346 0.38592237 0.13958155
2760 -116 128 -0.9160772 -0.16394769 0.36595577 0.10283586
2750 -100 127 -0.91958451 -0.25173247 0.30165419 0.10756877
2716 36 123 -0.77077329 0.22684397 -0.59535736 0.11194406
2728 6 124 -0.89793313 -0.00089549087 -0.4401311 0.13772197
2721 21 123 -0.88145047 -0.033206806 -0.4711076 0.12134033
2751 -23 125 -0.78994399 -0.079951301 0.60794419 0.14304365
2755 -85 127 -0.90495861 -0.33960783 0.25635204 0.12676997
2737 86 212 -0.80163497 0.59365147 0.070422806 0.16757256
2714 74 168 -0.90706432 0.42004719 0.028190605 0.084264025
2717 59 169 -0.92744118 0.37387389 -0.0084398566 0.10659938
2736 101 212 -0.64691478 0.71007782 -0.27801222 0.14940003
2741 -39 125 -0.82001859 -0.24449782 0.51748455 0.10938873
2701 44 168 -0.98823178 0.089555435 0.12400702 0.12443016
2747 -54 126 -0.83295727 -0.4075914 0.37423438 0.12377945
2757 -69 126 -0.87525266 -0.39873749 0.27375379 0.13189875
2765 118 214 -0.55544215 0.81868625 -0.14572904 0.099488519
2783 23 29 -0.62457138 0.61937618 -0.47569281 0.10044375
2756 115 205 -0.58572084 0.7963174 -0.15102875 0.1011247
2722 26 158 -0.96218532 -0.27087685 0.028724896 0.16712461
2738 66 205 -0.69327813 -0.0018663013 0.72066766 0.16590661
2740 98 204 -0.69314378 0.70375609 -0.15581754 0.14581877
2734 82 204 -0.83074272 0.50046575 0.24372236 0.15055837
2708 57 157 -0.94700879 0.30892017 -0.087992854 0.11822599
2709 41 157 -0.99893242 -0.022100786 0.040566489 0.13992257
2777 -142 153 -0.89723158 -0.13161972 0.42148754 0.17708434
2773 -86 152 -0.77314132 -0.25639677 0.58009744 0.14421862
2774 48 63 -0.57936764 0.76926088 -0.26938957 0.078114055
2738 -10 105 -0.99534923 0.081929281 -0.050669536 0.14656496
2749 20 63 -0.75565481 0.56265074 -0.33527574 0.089734897
2759 34 63 -0.67019969 0.64822263 -0.36144128 0.077910595
2768 -80 107 -0.92802328 -0.36112851 -0.091427378 0.18125927
2707 51 146 -0.958776 0.24045233 -0.15143095 0.13704264
2763 -72 151 -0.83466029 -0.29854664 0.46283051 0.1339903
2781 -94 108 -0.96988016 -0.2314674 -0.075863704 0.20972902
2737 -24 105 -0.99297112 -0.11667927 0.019856019 0.14790274
2735 -37 105 -0.95364338 -0.29927751 0.031580221 0.14604305
2740 16 105 -0.93750513 0.19059616 -0.29113087 0.1486405
2705 37 146 -0.9868592 -0.044177607 -0.1554262 0.14889543
2737 3 105 -0.96630639 0.14033794 -0.215771 0.14055586
2774 -66 107 -0.81213856 -0.49246177 -0.31290951 0.19409285
2729 89 193 -0.78352672 0.61903286 -0.05370497 0.13770248
2735 -51 106 -0.90058351 -0.42506409 0.090939447 0.13059036
2720 75 192 -0.89241892 0.42396846 0.15439945 0.10256287
2744 6 63 -0.83819574 0.38336214 -0.38789347 0.10955786
2715 61 192 -0.92792642 0.31235808 0.20343325 0.10498806
2707 24 146 -0.95672637 -0.24338949 -0.15948723 0.13611169
2772 -100 152 -0.80889243 -0.21597913 0.54685104 0.12124033
2739 -7 63 -0.89508748 0.14107966 -0.42298335 0.10942918
2736 103 193 -0.64923918 0.7224049 -0.23794903 0.12382128
2732 -20 114 -0.98754185 -0.11026215 0.11226456 0.13806754
2730 -61 114 -0.85287642 -0.44378138 0.27506337 0.11387812
2729 -7 114 -0.98506165 -0.025865257 -0.1702483 0.15277693
2730 -34 114 -0.92454433 -0.19736859 0.32598057 0.12364737
2781 40 71 -0.53339225 0.84523326 0.032762412 0.11798547
2728 -48 114 -0.86750555 -0.3153227 0.38471508 0.11498581
2762 -104 116 -0.94417709 -0.19037622 0.26886168 0.13190614
2768 -118 116 -0.92337781 -0.15711914 0.35026708 0.13700442
2755 -76 115 -0.90049094 -0.41306093 0.13600262 0.14108463
2811 31 25 -0.54145432 0.59263444 -0.59633183 0.16425228
2754 25 70 -0.72542053 0.64219218 -0.24769768 0.094193593
2750 -89 115 -0.91224349 -0.35692221 0.2010431 0.12756529
2734 6 114 -0.93422544 0.050450649 -0.35309699 0.15082705
2741 -78 103 -0.87540919 -0.48102576 0.047675479 0.13996293
2749 -65 104 -0.85534203 -0.50795364 -0.10184881 0.13731399
2716 -51 102 -0.92460728 -0.34663269 0.15794697 0.11993633
2757 22 59 -0.68328202 0.56407815 -0.46361783 0.094218537
2724 -10 102 -0.99474174 0.021770535 -0.10007417 0.12975606
2784 36 60 -0.58650428 0.67194492 -0.45221981 0.11864666
2790 50 60 -0.53438151 0.80344909 -0.2624996 0.10128119
2742 9 59 -0.81230974 0.39998749 -0.424456 0.099648736
2723 3 102 -0.96832925 0.097836562 -0.22970945 0.12302504
2719 -37 102 -0.96039677 -0.15366778 0.23243134 0.1248567
2746 -4 59 -0.80275089 0.11605877 -0.58491141 0.12640293
2728 16 102 -0.93238354 0.15355571 -0.32723311 0.12900771
2724 -23 102 -0.99635684 -0.072511539 0.044890396 0.12060127
2733 102 194 -0.72557211 0.67991757 -0.10610045 0.11074375
2766 37 63 -0.64845556 0.64746791 -0.40036327 0.0893391
2715 74 193 -0.90928805 0.37941134 0.17100357 0.11940664
2712 38 146 -0.98047477 0.019364683 -0.19568914 0.1558257
2731 -49 103 -0.90625972 -0.41781253 0.064235091 0.13256241
2702 24 146 -0.96871465 -0.14895299 -0.19850656 0.14105676
2727 88 194 -0.81745988 0.57560855 0.02083772 0.13560647
2741 9 62 -0.8322866 0.39911407 -0.38471684 0.09533681
2728 -4 61 -0.89070958 0.22180177 -0.39678773 0.097392514
2735 -22 104 -0.99538654 -0.0949146 0.01402807 0.14371969
2784 51 63 -0.54138952 0.81885237 -0.19073065 0.086266547
2729 -9 103 -0.99303436 0.033396073 -0.11299358 0.13633579
2760 18 105 -0.70789671 0.70429581 0.053382084 0.15407127
2753 23 62 -0.7172429 0.58887112 -0.37255004 0.091204427
2738 4 104 -0.96586472 0.16701658 -0.19801721 0.13624021
2706 51 146 -0.97325653 0.19826694 -0.11602588 0.13429405
2728 -36 103 -0.96765208 -0.23184846 0.099477418 0.13848047
2709 60 192 -0.92344677 0.33982685 0.17822364 0.10348852
2781 -145 131 -0.85029799 -0.18947242 0.49101287 0.18257633
2717 53 172 -0.96937376 0.18020943 0.16685034 0.12521164
2745 -42 130 -0.78046715 -0.26174149 0.56776965 0.11707643
2759 24 85 -0.71231455 0.69083649 -0.12390742 0.09910617
2763 -86 130 -0.9014858 -0.28548318 0.32530391 0.13289693
2752 -28 130 -0.7675752 -0.13857037 0.62580079 0.12681904
2728 14 130 -0.90336877 -0.073467396 -0.42252493 0.13474354
2730 89 217 -0.73265117 0.65594333 -0.18155067 0.1651295
2715 67 172 -0.93211418 0.35494578 0.071948349 0.084410734
2710 38 171 -0.9650206 -0.099275135 0.24265139 0.13984536
2734 29 130 -0.77651459 0.23597716 -0.584243 0.14965479
2751 -71 130 -0.86992115 -0.38824177 0.30414715 0.1168699
2749 9 84 -0.86135513 0.47411558 -0.18243302 0.11547643
2759 -57 130 -0.82278907 -0.37697595 0.42533201 0.13773791
2731 -19 83 -0.95428163 -0.026508419 -0.29773116 0.11647729
2744 -33 84 -0.83587432 -0.33699006 -0.43330348 0.13833484
2778 -130 131 -0.85260487 -0.18577571 0.48841822 0.15269841
2730 0 129 -0.94059217 -0.12995626 -0.31368425 0.14570735
2775 -116 131 -0.86128968 -0.1745021 0.47720978 0.14462066
2769 -101 131 -0.9096207 -0.18965873 0.36962101 0.12805356
2731 -4 84 -0.94834316 0.20123269 -0.24525639 0.11146346
2744 104 218 -0.56553465 0.76612997 -0.30531195 0.13701046
2769 120 221 -0.52731574 0.84531289 -0.085931629 0.11634094
2770 -98 157 -0.78473836 -0.20763159 0.58401608 0.10947122
2705 60 154 -0.91417485 0.3876614 -0.11833406 0.11285835
2746 100 204 -0.62827069 0.73523158 -0.2543827 0.14122221
2707 28 154 -0.98010188 -0.19806127 -0.013114573 0.15451941
2727 67 202 -0.83908534 0.1761298 0.51469815 0.13983458
2776 -147 157 -0.92075074 -0.12866499 0.36832514 0.21196242
2766 -82 157 -0.76563072 -0.27297473 0.58248979 0.12160885
2711 44 155 -0.99947131 0.032512929 5.108456e-05 0.14687616
2736 83 203 -0.79099768 0.60852218 0.063431144 0.1591011
2768 117 206 -0.55513841 0.81947243 -0.1424299 0.094546765
2774 38 68 -0.61119109 0.76360351 -0.2082191 0.119047
2817 34 23 -0.5184738 0.6441381 -0.56237978 0.18225752
2758 24 68 -0.71171045 0.66096222 -0.23790175 0.097116485
2737 5 111 -0.94845355 0.077769734 -0.30722594 0.15542717
2736 18 111 -0.91139793 0.031094795 -0.41034976 0.1446714
2758 -102 112 -0.95566082 -0.18335214 0.23042218 0.13427036
2731 -48 111 -0.89000976 -0.38205189 0.24883518 0.12902203
2770 -130 113 -0.89701021 -0.24207184 0.3698296 0.15532228
2756 -89 112 -0.94041288 -0.30946395 0.14091042 0.14482041
2763 -116 113 -0.93091887 -0.16316941 0.32675031 0.1273427
2740 -61 112 -0.86223739 -0.47158474 0.18480957 0.11049552
2721 -34 111 -0.93947625 -0.14393693 0.31091246 0.12250665
2723 -8 111 -0.99085587 -0.04265333 -0.12800479 0.14032638
2752 -75 112 -0.89294308 -0.43850061 0.10183213 0.13293254
2730 -2 67 -0.90703708 0.24021718 -0.34580261 0.093682379
2727 -21 111 -0.98644316 -0.10056806 0.12967691 0.13226901
2730 -40 92 -0.9218365 -0.33660263 -0.19213557 0.13171403
2756 6 49 -0.60736173 0.26328728 -0.74952757 0.11338132
2738 0 92 -0.95041025 0.24633405 -0.18984175 0.11665714
2742 -13 92 -0.97564757 0.079513602 -0.2044248 0.14071935
2780 33 49 -0.60645133 0.53995937 -0.58366144 0.088296577
2733 -26 92 -0.97162443 -0.13430718 -0.19469862 0.13225266
2742 13 92 -0.90241206 0.38122299 -0.20080252 0.11831437
2762 19 49 -0.61231667 0.44680294 -0.6522541 0.089709647
2787 47 49 -0.5510186 0.69154203 -0.46706328 0.082166336
2801 61 49 -0.50877899 0.75114185 -0.42063025 0.090176776
2754 -53 92 -0.72225261 -0.50479943 -0.47278827 0.14800456
2768 -67 93 -0.66938078 -0.47252303 -0.57328123 0.17042619
2773 -135 119 -0.88113058 -0.2656368 0.39121082 0.15807118
2772 -149 119 -0.90139186 -0.18929256 0.3894369 0.16544338
2719 76 203 -0.87517172 0.47494268 0.092216492 0.1473209
2726 90 203 -0.83138019 0.53823614 0.13823457 0.14089786
2706 26 158 -0.98103875 -0.19342746 0.0122008 0.15347563
2760 37 72 -0.66897678 0.72150862 -0.17859241 0.084938362
2764 -3 72 -0.81045699 0.030763395 -0.58498985 0.20053881
2755 -92 117 -0.93259776 -0.28571013 0.22052474 0.12716946
2744 -23 115 -0.95195872 -0.13421667 0.27524614 0.16215117
2709 53 158 -0.95176655 0.29455534 -0.085892513 0.11979115
2764 9 72 -0.77970111 0.57248938 -0.25361818 0.16652094
2766 -121 118 -0.9281466 -0.18183067 0.32477906 0.12563261
2709 40 158 -0.99863607 -0.023930864 0.046403933 0.14028078
2734 3 115 -0.93381721 0.035135694 -0.35602102 0.16121781
2755 -79 117 -0.90608919 -0.39614567 0.14856294 0.13830303
2810 27 30 -0.58119047 0.44032738 -0.68434596 0.14851989
2737 -37 115 -0.89919925 -0.26508439 0.34809625 0.1253182
2727 17 114 -0.89407361 0.034811553 -0.4465653 0.13435982
2742 -64 116 -0.8563326 -0.44930515 0.25459662 0.11102384
2762 -107 118 -0.94579601 -0.17028323 0.2765384 0.13055658
2735 62 204 -0.71207899 -0.014988368 0.7019394 0.14511743
2737 -9 115 -0.98590243 -0.0005909524 -0.16732042 0.16699962
2748 23 71 -0.75066847 0.61915684 -0.23052496 0.083519995
2738 -51 115 -0.85842878 -0.38724479 0.3363649 0.1202983
2764 119 206 -0.53607976 0.82481349 -0.17972538 0.095918909
2743 104 204 -0.59016991 0.75069171 -0.29692003 0.13638696
2748 3 54 -0.72489136 0.22607541 -0.65070921 0.12418928
2718 18 139 -0.92445213 -0.2936942 -0.24317054 0.11781292
2773 -84 97 -0.69996625 -0.36039692 -0.61657232 0.1978987
2749 17 54 -0.70835477 0.47146162 -0.52531648 0.09184707
2765 -77 140 -0.84930766 -0.28319603 0.44550711 0.13902365
2736 -28 96 -0.97203553 -0.19189428 -0.13536417 0.14578715
2747 12 97 -0.89979267 0.40938315 -0.15092595 0.12832525
2743 -15 96 -0.98554534 0.03667257 -0.16539538 0.14916295
2743 -56 96 -0.82568878 -0.50588024 -0.24964584 0.13553189
2777 -98 97 -0.70956016 -0.28788871 -0.64315206 0.20714858
2776 -92 141 -0.83592272 -0.2124466 0.50606292 0.15375285
2735 -1 96 -0.96179843 0.21583952 -0.1683955 0.12076215
2774 -70 97 -0.67401022 -0.44291526 -0.59121603 0.19405599
2735 -42 96 -0.90550435 -0.38779116 -0.17227837 0.14254318
2762 -64 140 -0.8330484 -0.34035456 0.4361068 0.14214964
2715 68 185 -0.91200715 0.37933922 0.15602766 0.096146442
2709 45 139 -0.91406202 0.19646819 -0.35481104 0.16467218
2765 30 55 -0.61482817 0.53452873 -0.57988393 0.08737018
2726 82 185 -0.84010088 0.53451169 0.092346437 0.10466645
2790 45 55 -0.54430121 0.7529276 -0.3699137 0.10228746
2716 32 139 -0.93163192 -0.065048538 -0.35753426 0.14565854
2736 96 186 -0.71235824 0.68296438 -0.16157182 0.10245883
2706 54 184 -0.95031285 0.2492664 0.1864721 0.096930571
2726 5 110 -0.93751842 0.054916926 -0.3435742 0.14637771
2768 19 112 -0.55037636 0.80329311 0.22760929 0.17485388
2756 -76 112 -0.90121424 -0.41884655 0.11126754 0.14306644
2726 -1 67 -0.90490139 0.25360498 -0.34181565 0.090768956
2754 25 67 -0.72047287 0.64984173 -0.24212527 0.097890742
2751 -90 111 -0.93110943 -0.33174664 0.15158953 0.13553765
2728 -48 110 -0.89801794 -0.35337871 0.26208264 0.12528157
2747 11 67 -0.81942654 0.46466023 -0.33560541 0.10516036
2743 -62 111 -0.86432093 -0.48406595 0.13649005 0.11745305
2730 -21 110 -0.99171317 -0.10088732 0.07954032 0.13637647
2727 -7 110 -0.9843843 -0.01581301 -0.17532095 0.14484011
2722 -35 110 -0.93501461 -0.1550321 0.31892443 0.12149051
2718 52 163 -0.9671542 0.25412664 -0.0056970348 0.12147754
2747 -61 120 -0.85127443 -0.44063705 0.28490493 0.11624531
2772 -92 122 -0.92525744 -0.23534797 0.2975063 0.16280572
2707 37 162 -0.99725467 0.07152804 -0.019154752 0.15047926
2773 -123 122 -0.90150332 -0.21755522 0.37411425 0.14309737
2743 -46 120 -0.84565896 -0.35563591 0.39797479 0.1201992
2768 -77 121 -0.92664111 -0.34885821 0.14012237 0.15777723
2763 -107 122 -0.93724948 -0.15954256 0.31001559 0.12297269
2736 -30 119 -0.90371078 -0.17275584 0.39174265 0.1234855
2740 -15 119 -0.99049062 -0.068013705 0.11959309 0.16194935
2738 0 119 -0.94751823 0.020991744 -0.31901187 0.17925642
2733 14 118 -0.90298086 -0.019554475 -0.42923558 0.14628203
2706 67 162 -0.93296516 0.35966408 -0.014757107 0.095717631
2736 94 206 -0.73987871 0.6705488 -0.054256242 0.14435792
2747 110 207 -0.58120602 0.77773577 -0.23942977 0.11346196
2731 79 206 -0.84354299 0.38683027 0.37255543 0.1521178
2761 30 60 -0.67303073 0.61278123 -0.4141604 0.092197992
2748 16 60 -0.76101309 0.52688396 -0.37848684 0.096390821
2759 24 104 -0.69968957 0.71444559 0.0014045201 0.14255127
2740 2 60 -0.85766912 0.28630698 -0.42712048 0.10475733
2783 44 60 -0.56812358 0.76524144 -0.3027229 0.090217754
2759 -57 104 -0.84037524 -0.5170545 -0.16255477 0.15157206
2722 10 103 -0.95314139 0.082441695 -0.29107526 0.12801306
2728 -2 103 -0.97980541 0.10719094 -0.1687941 0.13344292
2726 -16 103 -0.99987191 -0.015127364 -0.0052198945 0.12549828
2723 -43 103 -0.94239372 -0.28635663 0.17289865 0.12829293
2716 -29 102 -0.98438078 -0.076228149 0.15869395 0.11450794
2730 -51 117 -0.84905934 -0.33983105 0.40449104 0.11132046
2751 -92 118 -0.92928857 -0.30593601 0.20694418 0.12355657
2775 -120 119 -0.88134241 -0.20592202 0.42524308 0.17995866
2720 -37 116 -0.91512418 -0.16143551 0.36944056 0.11721251
2759 -79 118 -0.91785151 -0.36723319 0.15062702 0.14214386
2749 -65 118 -0.86676067 -0.45182109 0.21114853 0.12875403
2764 -106 119 -0.94501263 -0.17973532 0.27321473 0.14010385
2775 37 74 -0.57737422 0.81633353 -0.01544531 0.11541085
2725 -23 117 -0.97935557 -0.16250746 0.12022471 0.12555073
2722 -10 116 -0.98530203 -0.08851438 -0.14609991 0.13870567
2728 3 117 -0.91767061 0.010917744 -0.39719188 0.14840701
2814 28 29 -0.56481451 0.40860653 -0.71695566 0.16004746
2814 42 29 -0.50492978 0.75574887 -0.41700059 0.14876619
2749 23 74 -0.75315088 0.62547201 -0.20383447 0.084238745
2728 -30 105 -0.97467184 -0.1378798 0.17607939 0.13006763
2763 -107 151 -0.88056546 -0.21573621 0.42197436 0.096161552
2785 -149 152 -0.85743594 -0.25262365 0.4483133 0.23962174
2765 -72 106 -0.88745242 -0.43441159 -0.15399651 0.16318585
2753 -58 106 -0.85395318 -0.51666981 -0.061775792 0.13978598
2754 -65 150 -0.84217018 -0.33875042 0.41952062 0.12868381
2763 -79 150 -0.83736098 -0.29574519 0.45974049 0.13346204
2721 -44 105 -0.92235422 -0.25423798 0.29090527 0.12171234
2730 -17 105 -0.99938029 -0.033496261 0.010821919 0.13769123
2757 -86 106 -0.93471915 -0.35286579 0.042259473 0.15382992
2764 -93 151 -0.85763723 -0.26205227 0.44247836 0.11266718
2767 -134 151 -0.93419027 -0.1304266 0.33208039 0.12289795
2694 17 147 -0.92541975 -0.2469541 -0.28742316 0.19193204
2777 42 61 -0.5848847 0.73238993 -0.34858975 0.096680447
2737 9 105 -0.95909429 0.11803132 -0.25730678 0.13229321
2765 28 61 -0.66273791 0.57853478 -0.47547457 0.10316435
2757 15 60 -0.72138035 0.54326588 -0.42950273 0.1053307
2731 -3 105 -0.98499632 0.096846022 -0.14283928 0.14445472
2742 1 60 -0.85635388 0.2704466 -0.43990529 0.10956478
2765 -90 155 -0.80908275 -0.27128136 0.52133632 0.10964502
2774 -106 156 -0.79286146 -0.21652587 0.56963789 0.10555112
2710 49 153 -0.97743511 0.1975282 -0.074854426 0.129692
2703 33 153 -0.99669391 -0.073659524 -0.034287676 0.14780696
2733 88 201 -0.72278035 0.66993576 -0.16963074 0.15020484
2727 71 201 -0.8597312 0.25116307 0.44472408 0.13650052
2706 17 153 -0.94056213 -0.33684346 -0.04335301 0.15095575
2737 104 202 -0.70962632 0.70092452 -0.071661085 0.13077687
2777 -144 136 -0.86502099 -0.19585474 0.46193027 0.15551779
2757 -18 133 -0.68982637 0.023292147 0.72360009 0.14728396
2723 -32 131 -0.9092055 -0.22783846 0.34847531 0.12421456
2736 -45 132 -0.81450415 -0.25920933 0.51903135 0.097131543
2767 -129 135 -0.89803994 -0.16793998 0.40659612 0.106699
2767 -116 135 -0.88582009 -0.15999845 0.43557239 0.1070777
2759 -87 134 -0.8965466 -0.31047803 0.31592351 0.12505464
2760 -101 134 -0.91366786 -0.21863319 0.34265223 0.11160045
2748 -41 87 -0.79214108 -0.42585379 -0.43721965 0.14152226
2730 -27 86 -0.9538216 -0.14690837 -0.26199698 0.12256365
2739 0 86 -0.94205195 0.26664877 -0.20355999 0.11852325
2751 -73 133 -0.87452304 -0.38193819 0.29888573 0.11799992
2739 -4 132 -0.96511376 -0.13210179 -0.22606312 0.18162709
2721 8 130 -0.91287518 -0.07359153 -0.40155104 0.12513912
2735 13 86 -0.89354771 0.40118486 -0.20155202 0.1058432
2743 -59 132 -0.81599885 -0.39392728 0.42304504 0.10627598
2736 -14 86 -0.96457887 0.057447843 -0.25746343 0.12337093
2772 -55 88 -0.50418061 -0.47168884 -0.72340274 0.16148382
2702 57 173 -0.96825856 0.22385335 0.1111981 0.096279152
2712 22 130 -0.91625673 -0.164892 -0.36508113 0.11198354
2696 43 172 -0.97433609 0.20135859 0.10061764 0.14069976
2792 33 43 -0.57304054 0.55446255 -0.60348636 0.097891636
2741 26 86 -0.78693652 0.58304888 -0.20195267 0.08937183
2730 71 174 -0.82201809 0.5653646 -0.068184942 0.11312084
2808 47 43 -0.50377506 0.71613431 -0.48307604 0.10854337
2768 19 43 -0.56754178 0.3748098 -0.73308527 0.088970095
2728 36 131 -0.69732445 0.34572205 -0.62786537 0.1430153
2780 -152 132 -0.87030131 -0.13498092 0.47366223 0.19586499
2770 -138 132 -0.89356172 -0.19892409 0.4024632 0.13173656
2718 47 174 -0.97322726 0.076137938 0.21686792 0.11929101
2762 -49 89 -0.5966686 -0.48021388 -0.6429472 0.15846035
2736 84 221 -0.84029269 0.50244641 0.20360716 0.1921124
2762 -68 131 -0.86591804 -0.38514718 0.31913584 0.13360383
2769 -124 132 -0.87955153 -0.18197262 0.43963051 0.11043492
2764 -27 132 -0.63878888 -0.060364012 0.76701045 0.14892913
2741 18 89 -0.86122626 0.46193758 -0.21190362 0.10385059
2757 32 89 -0.69171423 0.71488553 -0.10232309 0.078678742
2758 -82 131 -0.88945544 -0.32801992 0.31823263 0.12911864
2731 34 174 -0.7837894 -0.37412313 0.49568748 0.16481175
2804 55 44 -0.51987523 0.71921813 -0.46092841 0.094681911
2757 -96 131 -0.91945833 -0.24864139 0.30458799 0.11936472
2734 -35 88 -0.91759062 -0.28716245 -0.27489135 0.14071727
2785 41 44 -0.56871384 0.66255492 -0.48742738 0.074151225
2741 -40 131 -0.80125916 -0.23815134 0.54887867 0.10466841
2764 27 43 -0.59728795 0.47410575 -0.64689332 0.073215023
2720 27 130 -0.89759594 -0.070766285 -0.43510178 0.13017419
2739 5 88 -0.9325133 0.30383667 -0.19519824 0.11466015
2722 61 174 -0.95196784 0.27016169 0.14411749 0.11115065
2731 -8 88 -0.96550626 0.17247525 -0.1950639 0.11708766
2724 14 130 -0.91150308 -0.10844909 -0.39673784 0.12774338
2730 -22 88 -0.97379386 -0.06573993 -0.21772422 0.12460372
2768 -110 132 -0.88609868 -0.16145848 0.43446547 0.11775928
2733 0 131 -0.93796015 -0.11992905 -0.32534248 0.16151775
2754 -54 131 -0.80704671 -0.37254396 0.45813382 0.12678283
2736 98 221 -0.68468034 0.69238436 -0.22763257 0.14857538
2763 113 224 -0.51987058 0.83471125 -0.18163615 0.13047422
2795 35 33 -0.54748553 0.69661683 -0.46366435 0.10430448
2819 21 33 -0.5175736 -0.14799353 -0.84274292 0.13917285
2771 -107 132 -0.88479668 -0.17554776 0.43164542 0.13087432
2768 -121 132 -0.88010043 -0.20069903 0.43028247 0.11072934
2766 -45 87 -0.55061495 -0.45588681 -0.69927841 0.15681723
2741 -65 130 -0.82908344 -0.43457767 0.35179958 0.10530298
2763 -93 131 -0.90732986 -0.25403678 0.3349894 0.12378878
2724 -37 130 -0.87466967 -0.23721097 0.42271027 0.11271047
2748 -79 131 -0.87394756 -0.36773002 0.3177897 0.11741788
2768 -134 132 -0.90734845 -0.17544711 0.38201723 0.11192627
2737 -51 130 -0.80365664 -0.32279351 0.49994034 0.10190638
2729 -4 86 -0.9534573 0.21601787 -0.21037 0.10521112
2726 30 130 -0.81882656 0.14370632 -0.55576217 0.137045
2726 -23 130 -0.96589065 -0.22486332 0.1284197 0.12592854
2791 28 42 -0.59382772 0.41920984 -0.68675452 0.10300952
2732 -31 86 -0.92853105 -0.22689974 -0.29384789 0.13140506
2740 23 87 -0.80580002 0.55646527 -0.20256551 0.094370291
2744 9 87 -0.89482051 0.40808317 -0.1810092 0.11645846
2750 -10 131 -0.90674436 -0.08644411 0.41272518 0.19349314
2730 -17 86 -0.9697997 0.011180872 -0.24364646 0.1193121
2730 3 130 -0.93201113 -0.10941336 -0.34551987 0.14841393
2700 16 129 -0.92215836 -0.23785107 -0.30504239 0.10589355
2781 -118 114 -0.83284467 -0.14531597 0.53409088 0.21157855
2770 -87 112 -0.9477933 -0.30374005 0.097107179 0.16955566
2771 -102 113 -0.95464146 -0.16330269 0.24898182 0.16467007
2771 -72 112 -0.91385943 -0.40594143 0.0085108941 0.1674374
2713 27 154 -0.97193009 -0.2352597 -0.0021996298 0.1523529
2734 100 197 -0.73211318 0.6777668 -0.068135247 0.12386449
2707 57 153 -0.9367587 0.3302573 -0.11581589 0.12334862
2735 4 110 -0.95789403 0.074388281 -0.27731815 0.15368746
2737 84 197 -0.80688882 0.57270026 0.14472319 0.14473878
2741 -26 110 -0.97753549 -0.18694131 0.097351819 0.16025433
2742 -10 110 -0.9949227 0.037843965 -0.093256235 0.16185065
2721 42 154 -0.98843712 0.10387751 -0.11046103 0.17492168
2739 -56 111 -0.8761946 -0.43742073 0.20235179 0.12442672
2723 69 196 -0.89180082 0.30248597 0.33644241 0.12254036
2740 -41 110 -0.92255312 -0.36805239 0.11590137 0.1410123
2754 -50 135 -0.78686124 -0.34181619 0.51382017 0.12036036
2773 -134 137 -0.87998426 -0.18755575 0.43640631 0.1378696
2769 -120 137 -0.87214828 -0.19534953 0.44854867 0.10500862
2758 -78 135 -0.87532824 -0.3322801 0.35126954 0.13169527
2748 -46 92 -0.80636328 -0.46950284 -0.35964605 0.14848694
2766 -106 136 -0.90330899 -0.19144116 0.38390523 0.11089386
2756 -64 135 -0.85190123 -0.37810847 0.36235106 0.12236144
2783 -149 138 -0.82382405 -0.20488635 0.52852201 0.21694387
2773 -61 93 -0.58638835 -0.49354234 -0.64231193 0.1726092
2757 -92 135 -0.90592855 -0.27859125 0.31887367 0.122339
2763 14 45 -0.57391375 0.37575758 -0.72761887 0.09155903
2731 91 221 -0.6721319 0.69081312 -0.26648837 0.17116553
2732 8 90 -0.93068922 0.30113766 -0.20768633 0.11231285
2728 4 132 -0.92713213 -0.088813588 -0.36405799 0.14216699
2718 67 175 -0.93851382 0.28914046 0.18865211 0.087267086
2751 106 223 -0.52398115 0.77527815 -0.3526862 0.14070493
2728 -5 90 -0.96412933 0.20966965 -0.16276747 0.11121174
