# .PCD v0.7 - Point Cloud Data file format
VERSION 0.7
FIELDS x y z normal_x normal_y normal_z curvature
SIZE 4 4 4 4 4 4 4
TYPE F F F F F F F
COUNT 1 1 1 1 1 1 1
WIDTH 773
HEIGHT 1
VIEWPOINT 0 0 0 1 0 0 0
POINTS 773
DATA ascii
2619 -301 -398 -0.77238965 0.089381978 0.62882841 0.084214039
2686 -320 -362 -0.50484568 -0.086517006 0.858863 0.10964905
2625 -265 -397 -0.83919656 -0.10975269 0.53263825 0.056575935
2604 -273 -437 -0.97896439 0.13082272 0.15656993 0.13727686
2641 -145 -501 -0.8518905 0.48873746 -0.18819746 0.10639799
2616 -235 -409 -0.94647741 -0.17952147 0.26823977 0.067614399
2648 -299 -372 -0.64906144 -0.14475559 0.74683672 0.049636327
2612 -198 -408 -0.9979977 -0.029333469 0.056038175 0.090169385
2618 -253 -410 -0.92201817 -0.11646038 0.36921465 0.064354546
2609 -271 -409 -0.90031296 -0.019415859 0.43480977 0.069916196
2611 -188 -453 -0.96217889 0.046775781 -0.26837236 0.072941907
2612 -216 -408 -0.97457582 -0.1741244 0.14100586 0.08156646
2610 -169 -452 -0.9454608 0.22040631 -0.23984353 0.07250087
2660 -319 -374 -0.57263488 -0.080371156 0.81586134 0.087358311
2610 -261 -454 -0.98141742 0.18021597 -0.065893836 0.12269083
2605 -205 -452 -0.97902709 -0.065759659 -0.19282527 0.062582597
2603 -278 -454 -0.92049897 0.38634869 0.058448195 0.15417612
2641 -280 -370 -0.671884 -0.047626443 0.73912352 0.049536411
2608 -289 -409 -0.82324755 0.13124013 0.55230385 0.095394418
2640 -262 -369 -0.66918272 -0.046547495 0.7416386 0.049442254
2651 -257 -369 -0.63281977 -0.036455929 0.77344042 0.053140804
2647 -306 -371 -0.65220028 -0.025864001 0.75760531 0.077522121
2687 -318 -330 -0.52828765 0.070929632 0.84609759 0.1087075
2650 -290 -371 -0.63198072 -0.085252978 0.77028072 0.045203734
2649 -274 -370 -0.64383805 -0.026401775 0.76470613 0.043886527
2681 -359 -378 -0.69351774 0.60677773 -0.38839915 0.16437244
2613 -259 -419 -0.94724262 -0.033268686 0.31878623 0.076380111
2646 -272 -378 -0.68635267 -0.031230289 0.72659796 0.048084214
2611 -223 -417 -0.9818145 -0.16293673 0.097426325 0.063087679
2655 -136 -511 -0.6384002 0.71493906 -0.28514427 0.14623813
2648 -254 -378 -0.68847358 -0.0830869 0.72048652 0.053086501
2619 -162 -461 -0.90938866 0.29643854 -0.29178172 0.065062337
2610 -198 -460 -0.94101626 -0.068675861 -0.33131865 0.10730312
2612 -241 -418 -0.96654391 -0.13161546 0.22015938 0.065746613
2616 -277 -420 -0.93198246 0.027144844 0.3614856 0.09110868
2610 -180 -460 -0.94390446 0.16031761 -0.28869131 0.080612868
2615 -253 -462 -0.89788902 0.3431493 -0.27576044 0.13554859
2609 -205 -417 -0.99558431 -0.093865953 -0.0010229468 0.057287883
2607 -270 -461 -0.92825621 0.36876497 -0.04850572 0.1344178
2648 -290 -379 -0.68412548 -0.10514086 0.72174639 0.047183134
2715 -322 -344 -0.50677902 -0.058300417 0.86010242 0.1112316
2628 -297 -422 -0.8958593 -0.11553394 0.42905468 0.11766659
2643 -308 -379 -0.66545182 -0.15768945 0.72959423 0.06676437
2605 -197 -454 -0.98172301 0.0069310181 -0.1901892 0.073201373
2611 -209 -410 -0.9908601 -0.120568 0.060495462 0.072826728
2612 -227 -411 -0.97120386 -0.17058133 0.16632843 0.067788057
2637 -310 -374 -0.68415236 0.095389418 0.72307426 0.10878064
2617 -246 -412 -0.94219363 -0.14314222 0.30295464 0.066205047
2608 -161 -454 -0.92721784 0.27941656 -0.2493861 0.070922352
2611 -282 -413 -0.88485605 0.075777546 0.45966026 0.088111304
2611 -271 -458 -0.9616518 0.27063763 -0.044510581 0.143721
2614 -264 -413 -0.92851299 -0.04963015 0.36796796 0.073598988
2642 -255 -372 -0.68743813 -0.088262893 0.72085959 0.052147444
2648 -137 -505 -0.74407959 0.61399162 -0.26336232 0.13945322
2616 -180 -456 -0.95136625 0.15016064 -0.26898682 0.084986359
2641 -273 -373 -0.68461668 -0.031715065 0.72821289 0.047801733
2616 -254 -458 -0.94523388 0.26521653 -0.1902446 0.13808346
2643 -292 -374 -0.67990774 -0.11114664 0.72482544 0.054008815
2641 -304 -418 -0.82679117 -0.41287342 0.38203654 0.15920404
2647 -138 -505 -0.7665177 0.59304708 -0.24646647 0.13693748
2612 -181 -456 -0.95299315 0.12946069 -0.2739417 0.078774773
2621 -163 -457 -0.91576034 0.31981847 -0.24310304 0.076488905
2605 -198 -455 -0.979931 -0.0074082059 -0.19919932 0.069742344
2597 -208 -409 -0.99373734 -0.10952242 0.022159694 0.052902322
2607 -272 -457 -0.94458008 0.32717162 0.026965769 0.14507918
2609 -228 -411 -0.97075897 -0.16499671 0.17436484 0.069600441
2629 -256 -460 -0.8075906 0.49093738 -0.32676882 0.1541965
2611 -246 -412 -0.95931 -0.13021703 0.25053513 0.063113354
2630 -303 -416 -0.82997358 0.0069765672 0.55775911 0.11409161
2637 -291 -373 -0.70090097 -0.095634177 0.7068181 0.056048747
2615 -264 -413 -0.92549211 -0.058061421 0.37429038 0.074096426
2641 -255 -372 -0.69178331 -0.094049975 0.71595418 0.053434357
2683 -371 -382 -0.51778978 0.8049354 -0.28978047 0.099329822
2606 -282 -412 -0.87066489 0.12967029 0.47447684 0.098966271
2639 -273 -373 -0.69499403 -0.034981571 0.71816409 0.048260365
2633 -309 -373 -0.68617791 0.10531015 0.71977055 0.10805538
2656 -126 -505 -0.70885193 0.66689444 -0.2297408 0.12495139
2642 -250 -373 -0.69981235 -0.11505274 0.70500046 0.056076799
2617 -154 -455 -0.90388727 0.35577619 -0.23751004 0.065750435
2620 -273 -416 -0.91481888 -0.032315586 0.40256944 0.081587136
2656 -288 -377 -0.63368529 -0.082397975 0.76919019 0.04754854
2647 -306 -376 -0.67012239 -0.15030007 0.72687411 0.063461319
2615 -246 -458 -0.95823419 0.15939738 -0.23744407 0.12512249
2608 -235 -413 -0.96887404 -0.1555685 0.19256574 0.057668254
2610 -172 -455 -0.94625932 0.21920519 -0.23778643 0.07622204
2601 -198 -411 -0.99871153 -0.050552063 0.0044388729 0.059468042
2611 -254 -414 -0.94813025 -0.079193294 0.30785966 0.065982647
2613 -217 -413 -0.98142534 -0.1454861 0.12505248 0.074234091
2613 -291 -416 -0.8630836 0.097032301 0.49565256 0.11102817
2712 -321 -340 -0.52405578 -0.02581905 0.85129249 0.10662673
2650 -269 -375 -0.65095103 -0.014108582 0.75898862 0.046294849
2604 -190 -454 -0.97495013 0.022451771 -0.22128761 0.069676735
2612 -264 -458 -0.9412834 0.32698545 -0.084059775 0.14759691
2613 -218 -398 -0.95941198 -0.20271279 0.1960516 0.088591032
2621 -237 -400 -0.89870042 -0.20534019 0.38752159 0.069809444
2617 -273 -401 -0.86949581 -0.074540548 0.4882834 0.056174733
2622 -292 -402 -0.81379092 0.032204743 0.58026481 0.076497853
2626 -255 -491 -0.67112076 0.6372121 -0.37889016 0.14898306
2608 -188 -442 -0.9806245 0.057204679 -0.18735859 0.069867916
2603 -169 -441 -0.96434158 0.19453044 -0.17945245 0.074012533
2604 -261 -444 -0.99037933 0.13634622 0.023630992 0.11040036
2658 -266 -362 -0.59330171 -0.0023207918 0.80497676 0.047319904
2624 -255 -401 -0.87275201 -0.11623726 0.47412333 0.06825757
2662 -303 -364 -0.56842327 -0.057273492 0.8207404 0.068753064
2602 -279 -444 -0.94205743 0.29398081 0.1615642 0.1574448
2653 -127 -492 -0.7236799 0.63812768 -0.26283178 0.084108837
2661 -285 -363 -0.57568109 -0.10093867 0.8114202 0.045886666
2615 -200 -398 -0.98819488 -0.079626635 0.13088369 0.11065867
2643 -145 -491 -0.85334748 0.40371162 -0.32987124 0.097752295
2610 -206 -443 -0.96814853 -0.099350169 -0.22982158 0.050606467
2670 -360 -368 -0.58991599 0.5644179 -0.57743537 0.15701544
2624 -236 -384 -0.82507533 -0.24192163 0.51061207 0.068378881
2638 -270 -386 -0.75819266 -0.080991343 0.64698094 0.048953041
2607 -212 -427 -0.99261349 -0.10916978 -0.052920099 0.048704624
2609 -246 -428 -0.98114479 -0.046528086 0.18759038 0.072451837
2604 -229 -426 -0.9936071 -0.097944617 0.056140997 0.061359968
2612 -262 -428 -0.96406674 0.00065450877 0.26565957 0.096824519
2606 -179 -426 -0.9897697 0.1355256 -0.044595253 0.073971458
2617 -219 -383 -0.88917869 -0.28104311 0.3610763 0.087103888
2647 -255 -388 -0.73837525 -0.080754831 0.66953766 0.054126825
2611 -196 -427 -0.99832928 0.012648866 -0.056380022 0.066820882
2692 -301 -351 -0.52047157 -0.053756844 0.85218513 0.067184463
2677 -366 -351 -0.65237832 0.75702089 0.036356442 0.1277869
2606 -278 -428 -0.94725657 0.14381035 0.28639743 0.12758049
2698 -318 -352 -0.53478169 -0.088706277 0.84032118 0.10667329
2684 -333 -351 -0.52619416 0.093499564 0.84520859 0.14392805
2630 -303 -386 -0.70843208 -0.0054876781 0.70575762 0.071362816
2638 -287 -387 -0.75669557 -0.068304136 0.65018952 0.054082967
2679 -350 -351 -0.81400186 0.54386961 0.20397758 0.19188988
2642 -261 -365 -0.65426069 -0.067431979 0.75325674 0.049712688
2717 -335 -329 -0.53271025 0.22801596 0.81500214 0.11124891
2662 -370 -369 -0.52210683 0.84062415 -0.14406778 0.084860824
2655 -293 -367 -0.60041887 -0.11434758 0.79146814 0.04293067
2696 -359 -374 -0.5707075 0.5544591 -0.60569644 0.12439389
2717 -320 -329 -0.52436489 0.033566311 0.85083181 0.099081941
2654 -278 -367 -0.62034255 -0.041736379 0.78321981 0.04507437
2653 -308 -367 -0.60207194 -0.074470766 0.79496127 0.077229604
2657 -256 -379 -0.6233595 -0.005675076 0.78191477 0.062871151
2714 -324 -347 -0.53261095 -0.090241656 0.84153551 0.12188558
2618 -210 -418 -0.99267393 -0.12000646 -0.014035343 0.082122907
2652 -289 -380 -0.6729691 -0.10154164 0.73266768 0.051532079
2652 -272 -379 -0.65712994 -0.023214154 0.75341982 0.049715549
2641 -305 -379 -0.67531043 -0.12827136 0.72629356 0.066712752
2612 -294 -421 -0.89282107 0.11706841 0.43493161 0.11239891
2650 -238 -378 -0.6452747 -0.091440029 0.7584585 0.081960827
2616 -244 -419 -0.96915656 -0.12021384 0.21513776 0.069086
2604 -193 -415 -0.99995339 -0.0066507729 -0.0069977813 0.056741923
2614 -227 -418 -0.98213726 -0.15449889 0.10740793 0.068560325
2609 -277 -419 -0.91441655 0.06359791 0.39974719 0.098967977
2617 -261 -420 -0.94638389 -0.048032776 0.31945318 0.074940294
2665 -286 -361 -0.55530477 -0.079563342 0.82783228 0.043379657
2624 -245 -400 -0.87909406 -0.17978814 0.44144067 0.064982958
2623 -276 -401 -0.84996748 -0.074869752 0.52148807 0.054771468
2619 -228 -400 -0.91861278 -0.21014488 0.33464858 0.080326691
2610 -212 -398 -0.96924037 -0.18174954 0.16595232 0.092758365
2625 -261 -401 -0.86606449 -0.10574678 0.48862049 0.058627758
2662 -270 -360 -0.56000715 0.0028610944 0.82848287 0.046513595
2710 -330 -324 -0.53022271 0.24818091 0.81072199 0.12710929
2664 -318 -361 -0.51981407 -0.00039182405 0.85427928 0.10707717
2619 -291 -401 -0.80508143 0.061651826 0.58995169 0.079373881
2678 -303 -363 -0.52333015 -0.0958483 0.8467223 0.068613023
2669 -366 -363 -0.58484364 0.73531276 -0.34245148 0.1109884
2613 -216 -444 -0.97066832 -0.10834739 -0.21462506 0.060662478
2615 -253 -446 -0.98960811 0.1191759 -0.080454141 0.11731801
2615 -179 -443 -0.96948135 0.14004827 -0.20122729 0.082288504
2661 -276 -364 -0.58053493 -0.015367866 0.81409037 0.045220945
2664 -313 -365 -0.5677579 -0.068269297 0.82035983 0.079720981
2615 -209 -399 -0.97479123 -0.15321328 0.16219676 0.10188364
2623 -283 -402 -0.84105301 -0.027666789 0.5402447 0.054242834
2665 -295 -365 -0.57844234 -0.10734706 0.80862916 0.05075502
2641 -154 -491 -0.85499048 0.37585151 -0.35738894 0.093835942
2628 -265 -403 -0.86509103 -0.11255148 0.48882481 0.062597103
2635 -248 -403 -0.86966228 -0.13064934 0.47604427 0.073143207
2642 -136 -491 -0.81676024 0.5395245 -0.20448984 0.095527954
2623 -228 -401 -0.91961956 -0.20496121 0.33509824 0.08164347
2615 -198 -444 -0.95820999 -0.067587942 -0.27796668 0.079591565
2646 -304 -407 -0.77507669 -0.34787032 0.52748686 0.13618587
2658 -257 -362 -0.593023 0.021057377 0.80491006 0.056641258
2608 -271 -445 -0.98357648 0.16846885 0.064773187 0.13524455
2664 -369 -368 -0.54540372 0.81772977 -0.18399128 0.09296269
2617 -204 -429 -0.99213403 -0.079442546 -0.096741594 0.082113378
2645 -126 -478 -0.79000145 0.55993295 -0.24974562 0.069503635
2624 -233 -389 -0.85680485 -0.24834494 0.45189628 0.072782122
2628 -268 -391 -0.81137639 -0.10300669 0.57537633 0.051773053
2636 -251 -392 -0.81064498 -0.13426791 0.56993586 0.062383372
2668 -281 -354 -0.51704776 -0.055642895 0.85414606 0.042310514
2623 -257 -432 -0.98473346 -0.014085187 0.17349792 0.10337958
2628 -142 -476 -0.85417646 0.41992164 -0.30667332 0.054789666
2610 -168 -427 -0.96183735 0.27337888 -0.011529068 0.083155274
2609 -214 -386 -0.9407388 -0.26275027 0.21441293 0.088351905
2637 -241 -434 -0.99528933 -0.0033969306 -0.096890301 0.1457938
2613 -221 -429 -0.99168789 -0.1189585 -0.049030907 0.05597857
2617 -186 -429 -0.992185 0.10247812 -0.071184121 0.086809613
2619 -275 -433 -0.97130382 0.056842241 0.2309498 0.11253133
2655 -307 -397 -0.69978964 -0.41875482 0.57873899 0.13209613
2691 -319 -358 -0.51567382 -0.097395673 0.85123116 0.11381
2632 -286 -393 -0.79139143 -0.051694106 0.60912007 0.059675068
2659 -369 -356 -0.59235781 0.80313784 -0.063888237 0.1075124
2684 -300 -356 -0.50275016 -0.077408917 0.86095893 0.059606034
2683 -354 -359 -0.80740839 0.56947845 -0.15422687 0.19529176
2685 -336 -358 -0.55432409 0.017715421 0.83211225 0.15010558
2693 -319 -352 -0.51823306 -0.065521881 0.85272586 0.11199271
2686 -303 -351 -0.50275248 -0.043531753 0.86333358 0.070717283
2680 -363 -351 -0.70821285 0.6992085 0.09768299 0.15555778
2687 -349 -352 -0.74944282 0.37473962 0.54580736 0.18370895
2664 -376 -350 -0.57025659 0.8160038 0.094578847 0.09178751
2687 -333 -352 -0.56031865 0.065150574 0.82571083 0.13493717
2614 -184 -445 -0.97396177 0.096751966 -0.20503092 0.081013538
2631 -149 -447 -0.86027336 0.48247051 -0.16477844 0.092745334
2660 -124 -496 -0.61258233 0.71514791 -0.33661011 0.11246716
2622 -166 -446 -0.93964577 0.30233189 -0.16019145 0.10283829
2648 -277 -363 -0.62440985 -0.026408961 0.78065026 0.041150894
2649 -258 -362 -0.63819885 -0.020673385 0.76959395 0.052094828
2622 -203 -447 -0.92049974 -0.12951657 -0.36865386 0.080557011
2657 -314 -365 -0.54814041 -0.0032749262 0.83638 0.090744354
2620 -231 -401 -0.91232884 -0.21918656 0.34585163 0.076700076
2614 -213 -400 -0.96739298 -0.1911619 0.16615638 0.089396231
2623 -286 -403 -0.83008254 -0.00047926721 0.55764031 0.059386291
2693 -356 -371 -0.61677355 0.52095932 -0.59007776 0.14985344
2611 -194 -399 -0.99802136 -0.031055033 0.054671079 0.09370368
2624 -250 -402 -0.88455385 -0.146567 0.44281217 0.067193165
2614 -257 -447 -0.98907769 0.11466704 -0.092611216 0.11934108
2624 -268 -403 -0.86641067 -0.10719001 0.48769143 0.058189515
2659 -296 -365 -0.59709609 -0.096247204 0.79637474 0.051134374
2606 -275 -446 -0.98515075 0.15078145 0.082116172 0.13611752
2624 -241 -396 -0.86783522 -0.19480132 0.4570716 0.067043267
2677 -316 -359 -0.51941776 -0.062233809 0.85225129 0.087704994
2689 -349 -361 -0.56319344 0.14454035 0.81358534 0.21356079
2660 -282 -356 -0.55470282 -0.064600796 0.82953697 0.039503589
2711 -327 -320 -0.56780183 0.28295735 0.77300465 0.12534733
2649 -307 -401 -0.72909027 -0.36992839 0.57583016 0.1340306
2675 -363 -359 -0.67849523 0.64627254 -0.3492505 0.12580174
2673 -299 -358 -0.52663106 -0.046602704 0.84881562 0.058962263
2626 -273 -397 -0.83808786 -0.087124765 0.53853315 0.054839365
2626 -257 -397 -0.85092342 -0.1188893 0.51165879 0.06051359
2690 -333 -361 -0.57625359 -0.031906996 0.81664783 0.16504239
2607 -208 -393 -0.97409499 -0.1811761 0.13532974 0.080049969
2618 -287 -396 -0.80909252 0.014952326 0.58749098 0.067205302
2657 -266 -355 -0.57206035 -0.0023726176 0.82020813 0.051430676
2620 -225 -395 -0.9109745 -0.23064227 0.34194976 0.080476157
2605 -214 -386 -0.94783318 -0.24687554 0.20165521 0.087069735
2606 -198 -386 -0.98504198 -0.10546152 0.13627252 0.09547694
2684 -311 -355 -0.51772219 -0.060830534 0.85338348 0.076003402
2625 -264 -391 -0.82001662 -0.12101475 0.55939978 0.052812245
2650 -372 -354 -0.50135279 0.86204416 0.074332416 0.11724475
2621 -296 -392 -0.77485281 0.0391648 0.63092726 0.074474305
2628 -248 -391 -0.83197755 -0.17441505 0.52668083 0.064162008
2619 -231 -389 -0.87034279 -0.23852448 0.43082431 0.076073892
2629 -280 -392 -0.80685651 -0.072359353 0.58629918 0.058147971
2701 -346 -359 -0.77484542 0.16661058 0.60979956 0.19812323
2657 -275 -350 -0.55958766 -0.02337392 0.82844156 0.044069096
2673 -359 -356 -0.76243985 0.61636513 -0.19692475 0.15940198
2611 -183 -454 -0.95756084 0.11459938 -0.26446986 0.077290438
2640 -130 -458 -0.77524137 0.62967402 -0.05011443 0.079863489
2614 -165 -454 -0.92972177 0.26188496 -0.25890869 0.074367695
2632 -148 -457 -0.85926539 0.48621094 -0.15893982 0.09138187
2606 -194 -408 -0.99864328 -0.046991728 0.022435378 0.069748007
2608 -212 -408 -0.98962528 -0.12171526 0.076335691 0.076823942
2632 -239 -369 -0.71343207 -0.2266558 0.66305494 0.070113055
2611 -285 -411 -0.86528212 0.093653046 0.492459 0.086736247
2643 -313 -372 -0.62575668 0.09917701 0.77368754 0.10114334
2616 -249 -411 -0.93940288 -0.13983253 0.31300017 0.063580915
2644 -295 -372 -0.66420966 -0.13163146 0.73586601 0.052303433
2612 -231 -410 -0.96462572 -0.1650582 0.20555553 0.065999724
2615 -267 -411 -0.90773541 -0.061249718 0.41504815 0.069597967
2642 -258 -371 -0.66967285 -0.081214637 0.73820221 0.05112645
2638 -276 -371 -0.687343 -0.045081943 0.72493261 0.052742328
2700 -357 -382 -0.61080825 0.56445146 -0.55525482 0.14069495
2656 -111 -476 -0.64005148 0.73597634 -0.22061944 0.072888397
2614 -191 -427 -0.99724412 0.054156534 -0.050706062 0.078124568
2609 -209 -427 -0.99124527 -0.11311847 -0.068096414 0.054660462
2618 -203 -383 -0.9570235 -0.18533152 0.22306553 0.13576384
2635 -278 -388 -0.77508974 -0.070261866 0.62793237 0.046679582
2631 -147 -472 -0.85141927 0.4661839 -0.24032857 0.062233098
2689 -309 -352 -0.51870608 -0.053240206 0.8532933 0.079982258
2671 -363 -352 -0.70983821 0.7035355 -0.034170326 0.14483985
2613 -264 -429 -0.96547538 0.01204707 0.26021555 0.099751621
2620 -246 -430 -0.98293209 -0.033288151 0.18093206 0.086610705
2644 -129 -474 -0.80430734 0.5415675 -0.24452859 0.068463445
2633 -241 -386 -0.79634911 -0.19848815 0.57134098 0.069955923
2610 -282 -430 -0.9455024 0.15768604 0.28488657 0.11250854
2612 -220 -382 -0.88771623 -0.29965848 0.34952083 0.080140918
2693 -347 -354 -0.77922738 0.28400028 0.55870253 0.19683111
2610 -172 -426 -0.9819777 0.1805737 -0.055793963 0.078640409
2635 -259 -387 -0.78356797 -0.091923267 0.61446846 0.053599581
2638 -296 -389 -0.7474528 -0.10414967 0.65609992 0.067080677
2618 -228 -429 -0.99191648 -0.12596217 0.015337548 0.062829085
2643 -306 -380 -0.67131203 -0.17325683 0.72064024 0.071594
2643 -157 -465 -0.86701649 0.46094337 -0.18924478 0.11428721
2613 -237 -419 -0.97624213 -0.13856477 0.16658656 0.063869812
2708 -321 -345 -0.52882636 -0.049907491 0.84726143 0.10360788
2614 -273 -420 -0.93776447 -0.0011596524 0.34727004 0.088106781
2641 -269 -378 -0.70153171 -0.041442052 0.71143222 0.047371518
2663 -372 -341 -0.59091419 0.78590262 0.18214688 0.10772478
2608 -218 -417 -0.98924094 -0.13741787 0.050186127 0.059285086
2644 -251 -378 -0.70106739 -0.090811215 0.70728916 0.05521524
2629 -138 -462 -0.84505731 0.49503621 -0.20203304 0.066888951
2612 -200 -417 -0.99913377 -0.026412392 0.032158688 0.077820018
2609 -182 -416 -0.99513513 0.098519146 1.8629675e-05 0.071931653
2615 -255 -420 -0.9530499 -0.061028063 0.29659957 0.069135718
2648 -288 -380 -0.68803102 -0.095656879 0.71934909 0.048613258
2624 -231 -375 -0.77969068 -0.26274729 0.56837153 0.068406917
2642 -120 -464 -0.76799154 0.62532765 -0.1383996 0.054596845
2658 -131 -481 -0.6998378 0.64063746 -0.31592834 0.12135187
2629 -284 -389 -0.78863913 -0.057390247 0.61217213 0.054326288
2606 -213 -384 -0.94103843 -0.2492058 0.22878633 0.091647148
2630 -266 -389 -0.80568743 -0.098036304 0.58417171 0.04915563
2619 -275 -430 -0.96709198 0.031871021 0.25242314 0.1068079
2630 -241 -431 -0.99695891 -0.044782277 0.063776053 0.11481383
2630 -301 -389 -0.73299521 -0.012072849 0.68012655 0.072830282
2693 -314 -354 -0.50513357 -0.099213608 0.85731947 0.09437874
2666 -276 -350 -0.51266587 -0.02567796 0.85820413 0.045043424
2617 -231 -386 -0.86014974 -0.24733271 0.44605935 0.076325759
2617 -188 -428 -0.99381566 0.07908605 -0.077947423 0.084617116
2630 -249 -389 -0.81244189 -0.17088285 0.55743808 0.063144758
2621 -171 -429 -0.95566851 0.29350352 -0.023522643 0.10626822
2612 -153 -427 -0.91008395 0.4129236 0.035232503 0.094794497
2620 -257 -430 -0.98007077 -0.016434344 0.19796753 0.095756598
2648 -113 -479 -0.72432733 0.64651585 -0.23951444 0.058166992
2615 -205 -428 -0.99371833 -0.074245416 -0.083734937 0.074255884
2673 -364 -353 -0.70418286 0.70999831 -0.0053659608 0.1311816
2654 -379 -351 -0.50261694 0.8509618 0.15244766 0.079043567
2688 -348 -355 -0.74326038 0.29191163 0.60195649 0.18443544
2649 -149 -460 -0.86123353 0.48668772 -0.14632818 0.125305
2610 -231 -410 -0.96520841 -0.16454773 0.20321608 0.067432843
2637 -130 -457 -0.78049833 0.62222707 -0.060464438 0.079533696
2614 -214 -410 -0.98252821 -0.14109643 0.12136737 0.08324071
2653 -112 -460 -0.66097414 0.75002182 0.02409205 0.079962872
2607 -195 -408 -0.99862772 -0.046593331 0.023910828 0.067146383
2625 -240 -368 -0.74783975 -0.26183784 0.61006296 0.061885923
2609 -177 -408 -0.99180925 0.12772489 -0.00090424879 0.089885242
2639 -277 -372 -0.68919384 -0.043011248 0.72329932 0.052666705
2626 -288 -414 -0.87422019 -0.022404103 0.48501247 0.074152537
2618 -269 -412 -0.90457302 -0.056484137 0.42256021 0.067081429
2646 -260 -372 -0.65336704 -0.045684271 0.75566161 0.048066456
2646 -297 -373 -0.65540946 -0.14516105 0.74119282 0.052584734
2622 -251 -412 -0.92611152 -0.11513687 0.35925049 0.066536389
2610 -182 -424 -0.99286807 0.11423356 -0.034112938 0.076690823
2612 -231 -425 -0.99211144 -0.11083113 0.058577828 0.061872188
2613 -221 -380 -0.86524415 -0.2922816 0.40733764 0.082813039
2614 -205 -380 -0.93736714 -0.23428965 0.25778121 0.12259775
2607 -198 -424 -0.99799907 -0.033138841 -0.053848084 0.057102129
2609 -215 -425 -0.99315614 -0.11092737 -0.036551241 0.054322768
2630 -239 -382 -0.77204061 -0.19992238 0.60331124 0.066124506
2679 -369 -349 -0.63054913 0.76940483 0.10209838 0.12895066
2700 -321 -350 -0.53214025 -0.064120434 0.84422469 0.11370745
2645 -257 -385 -0.72282052 -0.08458709 0.68583935 0.048703846
2636 -306 -384 -0.67575508 -0.055624034 0.73502445 0.06929855
2611 -248 -426 -0.97295487 -0.046774819 0.22620985 0.075738437
2615 -265 -426 -0.95706588 0.0095982533 0.28971168 0.095100209
2689 -336 -349 -0.6077044 0.12609905 0.78408825 0.14309324
2644 -290 -385 -0.72471666 -0.095483787 0.68239915 0.050620966
2682 -352 -349 -0.77295685 0.53065652 0.34776631 0.18248153
2642 -273 -385 -0.73806685 -0.063348368 0.67174721 0.049578041
2605 -280 -425 -0.9207046 0.15314937 0.35895437 0.1139712
2687 -331 -348 -0.55002517 0.060019102 0.83298856 0.13372333
2615 -267 -426 -0.95409471 0.022965793 0.29862326 0.099139512
2690 -294 -347 -0.50089681 -0.035020377 0.86479819 0.055670861
2705 -314 -350 -0.54190385 -0.080821641 0.83654535 0.094787307
2607 -193 -422 -0.99882233 0.025570033 -0.041231021 0.06350024
2633 -262 -383 -0.75221634 -0.089499846 0.65280968 0.047824517
2615 -249 -425 -0.96832174 -0.050191272 0.24460992 0.078310169
2634 -132 -469 -0.81999499 0.53877169 -0.19321829 0.06056565
2615 -224 -379 -0.84340858 -0.2816681 0.45752057 0.076823644
2639 -300 -385 -0.71187818 -0.11757613 0.69239104 0.063778043
2609 -285 -426 -0.91080314 0.17745022 0.37275878 0.12115497
2615 -212 -424 -0.99130136 -0.12412443 -0.043759648 0.066444539
2634 -244 -382 -0.75858968 -0.19114521 0.62290055 0.061558858
2604 -175 -421 -0.98691303 0.16025649 -0.017901931 0.076454796
2653 -383 -346 -0.50986427 0.83796132 0.19457456 0.068541631
2686 -350 -349 -0.74704647 0.44556731 0.4933472 0.17922279
2605 -230 -423 -0.98951244 -0.11118224 0.092215069 0.061820772
2676 -367 -349 -0.64856416 0.75625843 0.086242206 0.12473464
2639 -281 -384 -0.74527675 -0.080887936 0.66183054 0.047683243
2620 -230 -391 -0.88314575 -0.23827851 0.40407524 0.079053603
2648 -242 -440 -0.90801501 0.11976067 -0.40145487 0.16409199
2644 -138 -479 -0.8107003 0.50586224 -0.29473463 0.07055226
2665 -282 -354 -0.52634972 -0.059978377 0.84815013 0.041637138
2610 -257 -434 -0.98428679 0.056040037 0.16744848 0.098036036
2611 -220 -433 -0.99192274 -0.107453 -0.067402877 0.054961517
2629 -267 -394 -0.82111818 -0.10005781 0.56191933 0.053318154
2609 -184 -431 -0.99205476 0.096736416 -0.080432385 0.06918487
2627 -285 -395 -0.81055284 -0.044089861 0.58400363 0.060433969
2606 -202 -432 -0.9905237 -0.07633999 -0.11417135 0.057986043
2633 -249 -394 -0.83477432 -0.16318692 0.52585351 0.069364496
2615 -265 -478 -0.68691623 0.70467722 -0.1776965 0.1188487
2635 -156 -478 -0.86486483 0.35758829 -0.35233411 0.05584592
2606 -210 -389 -0.96530777 -0.19207294 0.17688668 0.089520849
2609 -275 -435 -0.97678322 0.068315059 0.20304562 0.12122729
2687 -303 -358 -0.50451583 -0.098460302 0.85776997 0.066371679
2696 -323 -360 -0.52788371 -0.05330899 0.847642 0.13535962
2704 -331 -316 -0.60872108 0.46435398 0.64329934 0.13788739
2682 -359 -359 -0.71507281 0.60393029 -0.3520498 0.17304015
2661 -375 -358 -0.53019267 0.84771585 0.016541027 0.090678655
2625 -303 -395 -0.7632153 0.043646879 0.64466834 0.083688974
2608 -179 -426 -0.99050689 0.12700871 -0.052581899 0.072295517
2647 -136 -475 -0.81953627 0.51566726 -0.24989523 0.077216603
2634 -153 -473 -0.86521727 0.41595194 -0.27996957 0.063328311
2616 -198 -428 -0.99421602 -0.037310455 -0.10070918 0.080064207
2630 -263 -474 -0.64098102 0.70723414 -0.29826695 0.14093457
2602 -287 -427 -0.90730977 0.21319528 0.3624042 0.13145557
2699 -313 -352 -0.52877331 -0.09506762 0.84342211 0.098770626
2635 -260 -388 -0.78754008 -0.087131634 0.61007267 0.055362053
2615 -252 -429 -0.97607452 -0.02956469 0.21541689 0.08534345
2633 -278 -388 -0.78162622 -0.067252815 0.62011081 0.051480077
2614 -222 -385 -0.89040405 -0.286053 0.35405421 0.083383366
2628 -241 -387 -0.82884455 -0.20574324 0.52027535 0.071278937
2631 -296 -389 -0.75323808 -0.028207636 0.65714276 0.070433788
2613 -270 -429 -0.96587557 0.018784378 0.25832462 0.09953738
2613 -216 -428 -0.99048883 -0.11663359 -0.072996154 0.060795821
2693 -331 -352 -0.56068635 0.028675631 0.82753158 0.1433402
2695 -349 -352 -0.7618897 0.28338704 0.58242249 0.18967699
2682 -366 -351 -0.65369785 0.75115931 0.091863044 0.14439602
2610 -233 -427 -0.99264646 -0.091820203 0.078879483 0.064712241
2700 -323 -346 -0.53220546 -0.012202566 0.84652734 0.11802526
2629 -290 -381 -0.74363226 -0.059176683 0.66596484 0.055725105
2666 -368 -344 -0.63815868 0.7623964 0.10726228 0.11982426
2616 -208 -376 -0.8779121 -0.2635217 0.39978313 0.13816702
2636 -275 -381 -0.74350756 -0.072283432 0.66480947 0.051209453
2625 -306 -381 -0.68690205 0.025763819 0.72629321 0.074529223
2634 -258 -380 -0.74136186 -0.10325781 0.66311431 0.048172832
2605 -223 -375 -0.85316062 -0.34103471 0.39473063 0.088658564
2620 -241 -378 -0.79367298 -0.24725617 0.55583054 0.054152831
2661 -119 -500 -0.68214971 0.70376271 -0.1984688 0.10754771
2618 -254 -405 -0.90310335 -0.12440751 0.41100752 0.064146392
2612 -220 -403 -0.9705798 -0.16733538 0.17312898 0.076377951
2626 -160 -447 -0.9125784 0.3733789 -0.16669995 0.099414192
2614 -177 -446 -0.96310276 0.19011493 -0.1904977 0.082511276
2626 -247 -449 -0.94510484 0.14835422 -0.29114911 0.14543113
2637 -143 -449 -0.83293688 0.54467493 -0.097700022 0.097117536
2650 -264 -366 -0.63413912 -0.011743532 0.77312982 0.046634372
2617 -264 -448 -0.99047279 0.12302594 -0.061872873 0.14255984
2614 -237 -404 -0.92543858 -0.1876245 0.32918152 0.064662322
2606 -202 -402 -0.99513417 -0.083124325 0.052899309 0.079697102
2616 -194 -446 -0.95928448 -0.032747827 -0.28053686 0.088026218
2617 -272 -405 -0.87854683 -0.06462875 0.47326383 0.058239896
2664 -300 -369 -0.58283436 -0.12227069 0.8033393 0.056544155
2656 -282 -367 -0.61228001 -0.06641382 0.78784674 0.046518881
2662 -317 -369 -0.56213689 -0.07195013 0.82390851 0.087604269
2705 -331 -328 -0.58481622 0.19981775 0.78616977 0.12424564
2611 -288 -404 -0.82616121 0.086535797 0.55674875 0.085733302
2616 -244 -428 -0.98593074 -0.049747918 0.1595798 0.082276471
2603 -177 -425 -0.98806596 0.14836751 -0.041384619 0.074801177
2603 -226 -426 -0.99379623 -0.10195265 0.044437531 0.056781039
2604 -210 -426 -0.99353373 -0.10209876 -0.04966379 0.044391315
2636 -162 -430 -0.85996211 0.49313194 0.13147621 0.14887029
2618 -233 -382 -0.82765365 -0.24273716 0.50603181 0.066710293
2606 -193 -426 -0.99816495 0.03153858 -0.051692314 0.065252803
2645 -252 -387 -0.74513519 -0.094813436 0.66013932 0.061539263
2608 -216 -381 -0.91121846 -0.28919551 0.29333732 0.090332977
2690 -349 -352 -0.7285679 0.31047791 0.61056715 0.19033369
2694 -315 -351 -0.50020373 -0.087731898 0.86145192 0.098977715
2634 -284 -386 -0.76503795 -0.063316539 0.64086503 0.051811632
2633 -300 -386 -0.72523075 -0.039467417 0.68737376 0.070712976
2679 -364 -350 -0.7012679 0.70747101 0.087795936 0.14572252
2611 -260 -428 -0.96573132 0.0035694938 0.25951913 0.088023566
2657 -377 -348 -0.52187979 0.83917314 0.15306823 0.087774575
2686 -331 -351 -0.55486816 0.054413985 0.83015686 0.1294985
2635 -268 -385 -0.76148182 -0.078372143 0.64343083 0.04893418
2691 -298 -351 -0.50390929 -0.050662749 0.86226946 0.059894718
2608 -276 -427 -0.94457746 0.095792264 0.31400195 0.12154109
2616 -167 -441 -0.94855154 0.28883955 -0.12969826 0.086953543
2614 -183 -441 -0.97910005 0.094494179 -0.18009432 0.07879962
2633 -257 -398 -0.83844233 -0.089313261 0.53762209 0.064231783
2614 -206 -395 -0.97506303 -0.15812212 0.15572245 0.10281971
2616 -250 -442 -0.99779719 0.059301991 -0.029729486 0.10668907
2611 -200 -440 -0.97699165 -0.068133362 -0.20210202 0.064639121
2633 -240 -398 -0.8661989 -0.20521553 0.45561609 0.074493363
2619 -223 -396 -0.92067158 -0.22126889 0.32156491 0.08417093
2619 -151 -441 -0.91334814 0.37804314 -0.15125659 0.08283487
2676 -303 -362 -0.53585327 -0.093513876 0.83911651 0.065707996
2654 -267 -359 -0.60136706 -0.0047238087 0.7989589 0.049086671
2670 -285 -361 -0.52954262 -0.066443436 0.8456772 0.045288209
2634 -274 -399 -0.82504618 -0.077209696 0.55976564 0.053796154
2672 -319 -362 -0.51909727 -0.03039862 0.85417444 0.098628148
2668 -369 -363 -0.58765656 0.7834934 -0.20198481 0.098360233
2711 -329 -323 -0.52921629 0.24609165 0.81201541 0.12616974
2686 -354 -365 -0.58765 0.46813953 -0.65993398 0.17151587
2627 -289 -398 -0.81199968 -0.016077297 0.58343649 0.066634715
2612 -266 -441 -0.99598265 0.056662139 0.069339611 0.12654848
2610 -175 -448 -0.96158445 0.17272748 -0.21335568 0.070927717
2617 -158 -448 -0.92256963 0.32304087 -0.2109734 0.082749993
2629 -235 -407 -0.91513813 -0.21624766 0.34023392 0.081279851
2659 -249 -369 -0.57234132 0.067799635 0.81720775 0.072090216
2624 -244 -453 -0.93575513 0.15104382 -0.3186661 0.13100506
2619 -201 -404 -0.99310952 -0.068990648 0.09472993 0.10489887
2626 -252 -407 -0.9049809 -0.11151065 0.41057891 0.069628321
2626 -218 -406 -0.96102381 -0.19111368 0.19977175 0.10381708
2618 -192 -450 -0.9299776 -0.041129414 -0.36530796 0.092558339
2624 -286 -408 -0.8548817 -0.014991059 0.51860636 0.072190449
2629 -269 -408 -0.87747401 -0.091630496 0.47079015 0.067927487
2650 -265 -368 -0.63421184 -0.0043378323 0.77314711 0.045179069
2616 -260 -452 -0.97196162 0.18698385 -0.14257526 0.14129336
2691 -330 -333 -0.57118809 0.17515135 0.8019141 0.13795252
2661 -283 -371 -0.59307128 -0.057306953 0.80310798 0.048476063
2659 -300 -371 -0.60512269 -0.13093515 0.78529137 0.052696593
2622 -179 -445 -0.95847118 0.16446164 -0.2329921 0.096308306
2619 -161 -444 -0.93952477 0.29400852 -0.17564824 0.080975235
2658 -121 -498 -0.65711433 0.69642669 -0.28842786 0.080270752
2644 -138 -495 -0.82231045 0.5336886 -0.19743863 0.10256038
2620 -239 -403 -0.91059339 -0.1874361 0.36835781 0.068722129
2663 -267 -366 -0.57958043 -0.00056732359 0.81491488 0.046107654
2622 -248 -446 -0.98354667 0.10478575 -0.14715929 0.11944111
2676 -356 -370 -0.53538311 0.44413415 -0.71840781 0.15751131
2616 -221 -402 -0.96125048 -0.17791976 0.21057536 0.086353913
2668 -285 -367 -0.5577718 -0.084523693 0.8256793 0.045678191
2615 -290 -403 -0.81714272 0.079782851 0.57088733 0.083023727
2619 -196 -445 -0.95303476 -0.053927414 -0.29802135 0.087291054
2629 -257 -405 -0.87577927 -0.092046797 0.47385445 0.065639704
2605 -203 -400 -0.99353164 -0.088811383 0.070762642 0.079587802
2668 -302 -367 -0.57211417 -0.12145492 0.81113136 0.06489937
2618 -265 -446 -0.99397385 0.10288932 -0.037811723 0.1305867
2619 -274 -404 -0.87197369 -0.06156332 0.48566639 0.057247709
2679 -321 -369 -0.52748376 -0.082327046 0.84556681 0.097596928
2709 -333 -327 -0.56394726 0.22126532 0.79561621 0.12711726
2611 -200 -451 -0.94947302 -0.079822488 -0.30352822 0.074178077
2667 -370 -374 -0.51276869 0.8509903 -0.11350637 0.08351817
2650 -275 -369 -0.63715011 -0.02872669 0.77020419 0.044226144
2620 -229 -408 -0.95266432 -0.18251891 0.24314108 0.080030292
2646 -256 -368 -0.65508091 -0.057484712 0.75336874 0.052586041
2654 -294 -370 -0.60800016 -0.12491087 0.78404921 0.041883908
2614 -164 -451 -0.93399245 0.27937651 -0.22272581 0.085888863
2622 -248 -408 -0.91408032 -0.15610851 0.37428233 0.065508842
2620 -182 -452 -0.93426514 0.056235906 -0.35211679 0.090122804
2620 -266 -409 -0.8976537 -0.085557364 0.43231672 0.061253164
2612 -210 -406 -0.9862743 -0.12206578 0.11118871 0.083952568
2611 -273 -453 -0.98378384 0.17909619 -0.0096921688 0.14391424
2647 -140 -500 -0.77864081 0.57054162 -0.26115257 0.12543312
2647 -311 -370 -0.62462753 0.0044566561 0.78091007 0.094325528
2621 -256 -454 -0.95549703 0.21067731 -0.20649564 0.13907583
2614 -283 -408 -0.85778713 0.041273817 0.51234531 0.072296388
2624 -252 -464 -0.86051929 0.38289371 -0.33600447 0.14640184
2613 -179 -461 -0.94054401 0.15945517 -0.2999185 0.079656139
2617 -240 -419 -0.97131145 -0.13553633 0.195407 0.068458118
2612 -197 -461 -0.91438645 -0.12537345 -0.38494009 0.09293773
2614 -203 -418 -0.99761349 -0.066898927 0.017085634 0.078362465
2650 -271 -379 -0.66720122 -0.032106742 0.74418533 0.04939096
2625 -161 -463 -0.90156585 0.34661964 -0.25890887 0.070051767
2649 -253 -379 -0.68414658 -0.064823776 0.72645795 0.055602003
2617 -294 -421 -0.88872439 0.087092049 0.45009333 0.11096207
2657 -134 -512 -0.66715449 0.6908533 -0.27861544 0.14795744
2616 -276 -420 -0.93510866 0.028776234 0.35319084 0.091879822
2659 -290 -381 -0.63301641 -0.13974826 0.76142013 0.057071321
2598 -268 -460 -0.87317324 0.48603263 -0.036616731 0.12034986
2650 -308 -380 -0.65536237 -0.2389916 0.71650767 0.062982313
2618 -258 -420 -0.95170605 -0.051030248 0.3027398 0.075204909
2617 -222 -419 -0.98370284 -0.16489322 0.07168626 0.074619003
2655 -283 -373 -0.63027805 -0.052695863 0.77457899 0.045245286
2650 -267 -372 -0.63645846 -0.0058477521 0.77128881 0.046810906
2644 -315 -373 -0.63028949 0.11104678 0.76837736 0.09895429
2711 -331 -335 -0.52893412 0.11508314 0.84082371 0.10759532
2690 -370 -382 -0.50544786 0.74778813 -0.43050596 0.093959697
2645 -250 -370 -0.66497344 -0.08736898 0.74173915 0.057165079
2655 -300 -374 -0.62906432 -0.17847601 0.75658733 0.052737173
2605 -273 -463 -0.85889924 0.50570214 -0.080978408 0.12957944
2658 -130 -470 -0.75490147 0.64402586 -0.12391354 0.14613412
2619 -244 -421 -0.96789026 -0.10607776 0.22789469 0.067595921
2619 -208 -420 -0.99302733 -0.11445227 -0.028238786 0.081860736
2649 -293 -381 -0.68624151 -0.12465039 0.71661347 0.052553739
2647 -275 -380 -0.68851066 -0.034178149 0.72442043 0.049716465
2611 -225 -419 -0.98516548 -0.15413682 0.075436898 0.063545212
2617 -262 -421 -0.95132697 -0.05122241 0.30389673 0.082650013
2631 -147 -465 -0.86389649 0.44424051 -0.23734608 0.064948395
2636 -238 -378 -0.72691286 -0.19138837 0.65952122 0.070725888
2647 -311 -381 -0.66441596 -0.17266284 0.72714436 0.078323618
2616 -280 -421 -0.92808741 0.03609769 0.37060857 0.092910893
2706 -324 -345 -0.55488062 -0.0097578 0.83187276 0.11227222
2655 -372 -339 -0.57309324 0.79495901 0.19900851 0.12305617
2626 -165 -464 -0.90531278 0.35529214 -0.2327581 0.078726515
2608 -189 -418 -0.99819499 0.060033239 0.0016903231 0.066507146
2629 -257 -467 -0.71526092 0.64978129 -0.25726661 0.14810477
2650 -257 -380 -0.68377036 -0.057559878 0.72742343 0.051710408
2609 -182 -461 -0.94001883 0.10885476 -0.32328808 0.081409179
2618 -238 -397 -0.89974403 -0.20902254 0.38310611 0.067455791
2612 -300 -398 -0.76313406 0.10843585 0.63707775 0.095855609
2629 -255 -399 -0.85688674 -0.10978615 0.50367856 0.065054707
2658 -279 -358 -0.57341027 -0.026624961 0.81883562 0.042018007
2606 -206 -395 -0.98274177 -0.13647807 0.12486923 0.087667808
2673 -297 -360 -0.53228492 -0.060276266 0.84441662 0.057205897
2675 -313 -361 -0.52073509 -0.076807298 0.8502562 0.084045067
2617 -285 -398 -0.816432 0.017290028 0.57718271 0.065724842
2661 -264 -358 -0.56305414 0.016107062 0.82626295 0.050580818
2612 -222 -396 -0.94293356 -0.20672928 0.26103511 0.080328047
2624 -270 -399 -0.84868127 -0.095877238 0.5201419 0.056885242
2715 -325 -323 -0.5245564 0.15614995 0.83693355 0.1170757
2682 -362 -362 -0.67285162 0.64492601 -0.36241001 0.16078305
2702 -332 -364 -0.53612381 -0.15028436 0.83065391 0.18293917
2613 -228 -382 -0.86801374 -0.29308194 0.40081805 0.065966092
2636 -247 -386 -0.77130759 -0.17307951 0.612477 0.064454973
2627 -294 -387 -0.75408947 -0.021890389 0.65640676 0.066637978
2697 -310 -351 -0.50514942 -0.085545719 0.8587817 0.093662336
2632 -279 -387 -0.77533644 -0.066339627 0.62805444 0.053486686
2634 -263 -387 -0.77929282 -0.095440559 0.61934948 0.052286301
2694 -326 -351 -0.5430705 -0.0073573468 0.83965486 0.12587963
2681 -358 -351 -0.77086717 0.62437904 0.12615338 0.16681662
2664 -372 -350 -0.59782135 0.79890794 0.065998234 0.10927951
2688 -342 -351 -0.64854193 0.19439459 0.7359376 0.16426462
2613 -163 -455 -0.9214741 0.26154301 -0.28719458 0.068627365
2651 -139 -505 -0.69521749 0.65142155 -0.30384636 0.15168212
2620 -181 -456 -0.93768865 0.087259717 -0.33634156 0.095040016
2609 -199 -455 -0.94206077 -0.089396603 -0.32331064 0.079358332
2612 -273 -457 -0.9646197 0.26247713 -0.024790883 0.14511584
2648 -293 -374 -0.66304684 -0.1151817 0.7396636 0.047557432
2609 -210 -410 -0.99093837 -0.11884245 0.062590703 0.073635995
2642 -256 -372 -0.68470883 -0.089642853 0.72328269 0.052590586
2615 -228 -411 -0.9685483 -0.17129482 0.18047778 0.068154201
2619 -265 -413 -0.91767651 -0.062446661 0.39239034 0.070925802
2643 -274 -373 -0.67457724 -0.033568259 0.73744065 0.050566763
2620 -255 -458 -0.94076914 0.2582384 -0.21969593 0.14524329
2619 -247 -412 -0.93612307 -0.1451107 0.32033822 0.066916302
2622 -302 -414 -0.81767297 0.12629436 0.56165886 0.097784325
2642 -311 -374 -0.66515011 0.065892942 0.74379665 0.098486409
2617 -283 -413 -0.88803446 -0.0042075808 0.45975757 0.083462901
2688 -372 -382 -0.50334668 0.75828618 -0.41429976 0.091716826
2710 -331 -323 -0.5380277 0.26374128 0.80060399 0.1224764
2662 -263 -354 -0.55604678 0.016897183 0.83097917 0.053262454
2672 -280 -356 -0.50829697 -0.052675612 0.85956937 0.042037345
2693 -345 -362 -0.59461117 0.041065801 0.80296397 0.20648056
2689 -329 -361 -0.5348047 -0.064750142 0.84249115 0.14413509
2692 -314 -360 -0.53003722 -0.13875292 0.83654535 0.096405961
2679 -360 -361 -0.69537354 0.59809971 -0.39841223 0.16158366
2623 -218 -426 -0.99226385 -0.12277721 -0.018389307 0.080339476
2616 -199 -425 -0.99715292 -0.046181772 -0.059610169 0.08241985
2623 -175 -469 -0.92705387 0.17786688 -0.33005235 0.090715617
2657 -249 -386 -0.6492548 -0.0044880295 0.76055777 0.072309293
2625 -255 -427 -0.97150779 -0.029720187 0.23513676 0.09513773
2619 -266 -470 -0.73445803 0.65145075 -0.19021891 0.14076197
2713 -316 -351 -0.52893639 -0.088419139 0.8440429 0.098030806
2620 -236 -426 -0.98902011 -0.11287358 0.095387749 0.077889301
2624 -273 -428 -0.96456951 0.0082793729 0.263699 0.090514883
2655 -286 -387 -0.69085586 -0.11445706 0.71387523 0.063131548
2647 -303 -386 -0.69055545 -0.20667225 0.69312322 0.072502613
2615 -290 -427 -0.92877293 0.095647305 0.35809547 0.12132179
2651 -267 -386 -0.6925751 -0.04115608 0.72017074 0.053881444
2651 -118 -477 -0.69708604 0.68636191 -0.20731232 0.070694134
2629 -135 -474 -0.83046442 0.50143254 -0.24268137 0.057710376
2614 -198 -429 -0.99613535 -0.015017529 -0.086537734 0.079609066
2635 -285 -390 -0.77840477 -0.068236247 0.62404305 0.055506174
2614 -180 -429 -0.98619807 0.15048213 -0.069054171 0.083465666
2695 -336 -356 -0.60603511 0.012983212 0.79533195 0.16409867
2616 -216 -430 -0.98987484 -0.12036787 -0.075228415 0.061669197
2618 -253 -432 -0.98857421 0.0065327091 0.15059346 0.094957322
2620 -228 -386 -0.86257499 -0.25676996 0.43592855 0.076476045
2611 -209 -384 -0.94653618 -0.22462553 0.23154415 0.10895579
2686 -316 -354 -0.52657342 -0.083599925 0.84600919 0.08741048
2636 -266 -390 -0.79264361 -0.088377744 0.60324574 0.05260383
2636 -248 -389 -0.80162388 -0.17668095 0.57112437 0.0661612
2614 -161 -428 -0.93964589 0.34193408 0.012111377 0.096033774
2612 -271 -432 -0.97864896 0.027213 0.20372923 0.11574005
2651 -305 -393 -0.70744151 -0.27780062 0.64988726 0.097132102
2667 -277 -350 -0.50804991 -0.036174327 0.86056769 0.043700658
2686 -354 -355 -0.80956823 0.51253301 0.28619781 0.19338599
2663 -369 -353 -0.61312729 0.78998411 0.00014955433 0.1137645
2618 -274 -409 -0.87698603 -0.02887379 0.47964767 0.064969555
2614 -238 -407 -0.93866462 -0.17304307 0.29826981 0.065614484
2625 -266 -452 -0.94942641 0.2910195 -0.11788587 0.1427549
2655 -266 -370 -0.62698495 0.0097882058 0.77896988 0.046459034
2630 -249 -453 -0.87873584 0.27816126 -0.38787839 0.14939895
2662 -303 -372 -0.59749782 -0.13108258 0.79108393 0.062753908
2656 -284 -371 -0.61693114 -0.066337891 0.78421634 0.046186306
2616 -175 -449 -0.95228302 0.17679615 -0.24879763 0.079054289
2621 -193 -450 -0.92561078 -0.051726505 -0.37492537 0.095485747
2613 -220 -407 -0.97336531 -0.16276081 0.16145888 0.077926084
2643 -140 -454 -0.83891034 0.53358084 -0.10733537 0.10663242
2611 -202 -406 -0.99605644 -0.072292164 0.051433694 0.082796261
2615 -292 -408 -0.81926858 0.075594112 0.56840515 0.084955975
2617 -256 -408 -0.91727084 -0.097194217 0.38622195 0.06485039
2642 -122 -453 -0.7645641 0.64435971 -0.015566255 0.066187769
2634 -158 -452 -0.88618833 0.40679437 -0.22178504 0.095090523
2672 -322 -374 -0.55578411 -0.086056493 0.82686049 0.097971193
2702 -335 -331 -0.59323996 0.23863874 0.76884186 0.13055004
2607 -169 -433 -0.97268891 0.21385966 -0.090224154 0.08064013
2623 -225 -391 -0.89558071 -0.25461516 0.36483723 0.081526838
2610 -202 -434 -0.98510718 -0.082456827 -0.1508795 0.067003608
2632 -292 -393 -0.7786755 -0.06125626 0.62442946 0.062156089
2637 -243 -393 -0.83309275 -0.18860956 0.51998353 0.075956792
2656 -239 -442 -0.7375955 0.479913 -0.47501209 0.16241296
2614 -208 -389 -0.95881236 -0.21057773 0.19061978 0.10331786
2607 -284 -435 -0.9599759 0.17928587 0.21518081 0.12772265
2609 -218 -434 -0.99097782 -0.10490453 -0.083415292 0.055322438
2639 -276 -394 -0.79673511 -0.076434888 0.5994755 0.053694591
2640 -260 -394 -0.79556537 -0.078246079 0.6007939 0.060484782
2656 -312 -397 -0.63391727 -0.57556862 0.51659423 0.14842811
2687 -323 -358 -0.50135487 -0.048056774 0.8639062 0.12109505
2692 -307 -359 -0.51311892 -0.1144106 0.85065812 0.082495309
2614 -252 -436 -0.99443465 0.032123454 0.10033915 0.097670995
2611 -268 -435 -0.98172563 0.05582355 0.18193009 0.11687984
2617 -186 -435 -0.98867804 0.0878212 -0.12166816 0.086773522
2700 -341 -361 -0.7503528 0.050658129 0.65909362 0.19653217
2691 -357 -360 -0.81621444 0.55445802 0.16238934 0.20261054
2676 -372 -358 -0.62888008 0.76950783 -0.11120984 0.11338261
2670 -302 -368 -0.56386775 -0.13297834 0.81508887 0.063100815
2655 -255 -365 -0.62192649 -0.00054319139 0.78307545 0.055888273
2673 -363 -369 -0.53465444 0.58189678 -0.61281377 0.13455074
2656 -286 -365 -0.60081577 -0.09147314 0.7941367 0.04742834
2658 -316 -366 -0.54625005 -0.016592788 0.83745772 0.091519751
2654 -270 -365 -0.61074883 0.0058481307 0.79180276 0.046428524
2694 -325 -324 -0.5790363 0.21075729 0.78759021 0.13473302
2671 -113 -492 -0.50835556 0.81245905 -0.2854557 0.11555019
2650 -131 -489 -0.77622312 0.57977217 -0.24767305 0.091127977
2668 -370 -367 -0.55345553 0.80184722 -0.22522876 0.09572199
2617 -196 -442 -0.96213949 -0.042245027 -0.26926389 0.080908708
2619 -178 -442 -0.96497649 0.18611377 -0.18488379 0.084071621
2630 -242 -402 -0.88309574 -0.18223214 0.43235794 0.072885387
2632 -261 -403 -0.86167568 -0.098453559 0.49781707 0.064592116
2670 -314 -365 -0.5632723 -0.085315056 0.82185501 0.080671407
2611 -269 -444 -0.99017841 0.13677353 0.028977862 0.15044841
2698 -324 -324 -0.53671885 0.18437628 0.8233701 0.12429182
2668 -295 -364 -0.55940384 -0.11016072 0.82154238 0.047635924
2617 -159 -441 -0.93499327 0.3059153 -0.17945307 0.079768769
2620 -223 -400 -0.93623888 -0.20014839 0.2887859 0.086441398
2697 -355 -370 -0.61475813 0.53596276 -0.57863325 0.15354133
2664 -276 -362 -0.55803043 -0.015959509 0.82966703 0.044010464
2616 -251 -444 -0.99560887 0.070095696 -0.062043447 0.1122645
2609 -204 -398 -0.98847789 -0.11285203 0.10087568 0.084340692
2625 -297 -404 -0.80745 0.044498883 0.58825535 0.078363292
2626 -279 -403 -0.85132331 -0.059877519 0.52121329 0.057323791
2609 -179 -435 -0.98331648 0.14121988 -0.1146544 0.075211905
2608 -160 -434 -0.9435063 0.3193222 -0.088482507 0.082739949
2647 -136 -484 -0.80576766 0.51345223 -0.295136 0.074457452
2616 -198 -436 -0.9844107 -0.033501752 -0.17266485 0.080520459
2616 -209 -391 -0.95604908 -0.20852751 0.20612213 0.1024446
2654 -118 -485 -0.69467831 0.66554362 -0.27289888 0.075976171
2622 -216 -438 -0.97754627 -0.12282579 -0.17122251 0.069358572
2607 -270 -438 -0.9852823 0.069340125 0.15623957 0.12202955
2649 -304 -400 -0.74642837 -0.3336367 0.57578748 0.11617163
2625 -228 -393 -0.88634443 -0.24660835 0.39189014 0.085492589
2661 -369 -360 -0.56669724 0.81223881 -0.13828363 0.10715169
2675 -296 -359 -0.53171629 -0.069355637 0.84407794 0.052967392
2627 -265 -395 -0.83130008 -0.10920355 0.5449906 0.053484082
2662 -276 -356 -0.54255384 -0.0018669374 0.84001893 0.044326197
2618 -253 -439 -0.99850821 0.039569449 0.037624095 0.11505865
2629 -284 -396 -0.81110585 -0.053434227 0.58245355 0.061400421
2679 -315 -360 -0.52947646 -0.085711651 0.84398353 0.080983303
2681 -353 -362 -0.68183297 0.50155646 -0.5324893 0.17425242
2635 -247 -396 -0.84148043 -0.16862403 0.51329976 0.072223112
2614 -232 -436 -0.99789959 -0.061564326 0.020154517 0.072053567
2614 -223 -394 -0.93164408 -0.22785799 0.28305495 0.07933531
2670 -287 -359 -0.52679622 -0.064785607 0.8475191 0.045210771
2621 -198 -437 -0.97464144 -0.050487489 -0.21800232 0.092893861
2626 -293 -397 -0.79573816 -0.0050943219 0.60561931 0.07171189
2627 -276 -397 -0.82999653 -0.084509373 0.55132931 0.052872423
2629 -139 -484 -0.83497143 0.45815516 -0.30482206 0.056892678
2626 -251 -439 -0.99798214 0.052340634 -0.035945136 0.13258594
2616 -206 -394 -0.97240794 -0.16711821 0.16277066 0.10521106
2618 -215 -437 -0.97964853 -0.11720546 -0.16294679 0.065453902
2675 -270 -359 -0.50058877 0.0061850231 0.86566305 0.047358517
2687 -323 -362 -0.50890106 -0.065695062 0.85831457 0.12087716
2621 -181 -437 -0.97978711 0.16706894 -0.11002349 0.11076567
2695 -342 -363 -0.57724863 -0.014255832 0.81644392 0.20132881
2633 -259 -397 -0.8294462 -0.10963522 0.54772186 0.05858881
2622 -268 -438 -0.99322939 0.032095458 0.11164778 0.1164739
2625 -156 -484 -0.85213196 0.46403253 -0.24196064 0.075698249
2685 -306 -361 -0.51614523 -0.099689275 0.85067981 0.066578709
2629 -242 -396 -0.86394876 -0.19450232 0.46450117 0.071226828
2630 -262 -486 -0.70217556 0.5783205 -0.41532513 0.13653141
2613 -284 -437 -0.97597677 0.11047715 0.18778758 0.12288462
2674 -357 -361 -0.61746365 0.52069455 -0.58958948 0.15284546
2611 -200 -414 -0.99810922 -0.058573317 0.018636001 0.071296081
2615 -266 -416 -0.94089651 -0.024625788 0.3377977 0.080825768
2647 -308 -375 -0.66977692 -0.094540022 0.73651958 0.075770415
2616 -283 -416 -0.90501022 0.013336376 0.42518061 0.088916473
2631 -301 -419 -0.86078113 -0.032646209 0.50792724 0.12147164
2614 -233 -415 -0.97188193 -0.15394171 0.17817788 0.067916863
2620 -250 -416 -0.94829583 -0.098274298 0.30178982 0.069200456
2615 -217 -415 -0.98377168 -0.13720581 0.11561976 0.07071647
2658 -260 -376 -0.62104279 0.020695969 0.78350341 0.054321449
2658 -293 -377 -0.61372226 -0.16030887 0.77307576 0.053847909
2661 -276 -377 -0.62033337 -0.029321294 0.78379005 0.050784506
2615 -205 -430 -0.99094129 -0.076261982 -0.11054205 0.068138905
2628 -178 -475 -0.90816313 0.17903814 -0.378398 0.091518715
2598 -293 -429 -0.8260631 0.38719121 0.40951529 0.14507063
2641 -267 -392 -0.78270864 -0.087297015 0.61623561 0.053213019
