# .PCD v0.7 - Point Cloud Data file format
VERSION 0.7
FIELDS x y z normal_x normal_y normal_z curvature
SIZE 4 4 4 4 4 4 4
TYPE F F F F F F F
COUNT 1 1 1 1 1 1 1
WIDTH 782
HEIGHT 1
VIEWPOINT 0 0 0 1 0 0 0
POINTS 782
DATA ascii
2568 -706 -338 -0.84297395 0.25219688 0.47517541 0.079400718
2591 -731 -297 -0.71209127 0.050524738 0.70026654 0.071393043
2551 -678 -423 -0.81637037 0.48757628 -0.30952993 0.10273601
2600 -706 -252 -0.74742818 0.5712505 -0.33915195 0.11223116
2626 -680 -254 -0.71218878 0.67105997 -0.20607187 0.10640651
2549 -733 -336 -0.90550071 0.16882007 0.38931757 0.07901483
2617 -694 -253 -0.78073639 0.50721413 -0.36494467 0.12931934
2543 -727 -378 -0.96032917 -0.019775273 0.27816671 0.063114509
2597 -750 -298 -0.6722185 -0.11366734 0.73157501 0.085459575
2550 -680 -377 -0.90902048 0.25318676 0.33102611 0.10387766
2558 -720 -337 -0.88290399 0.17578413 0.43540841 0.076009057
2587 -695 -340 -0.75639498 0.36803481 0.54075587 0.10650997
2646 -769 -257 -0.6791507 0.062150117 0.73136294 0.11297112
2547 -712 -378 -0.95739758 0.045595534 0.28515068 0.055539884
2566 -701 -451 -0.66372526 0.16682681 -0.72913474 0.068147741
2543 -702 -402 -0.99234426 0.12175123 0.020724509 0.07317239
2558 -711 -360 -0.91222131 0.13861175 0.3855373 0.07969217
2542 -683 -400 -0.97409272 0.22188401 0.043713484 0.073484659
2561 -731 -362 -0.9355247 0.0071802237 0.35318831 0.094300181
2569 -675 -359 -0.80410594 0.3811354 0.45623401 0.13892423
2562 -693 -359 -0.89360827 0.19880125 0.40242052 0.093140952
2630 -741 -267 -0.71931249 -0.25168979 0.64748889 0.092652924
2633 -757 -267 -0.67250592 -0.066318527 0.73711431 0.085875124
2597 -727 -306 -0.68869507 0.20987231 0.69401205 0.082467444
2563 -716 -348 -0.89354318 0.13821614 0.4271732 0.078389615
2562 -700 -348 -0.87967098 0.21008733 0.4266642 0.074948721
2607 -704 -264 -0.78409982 0.57775384 -0.2266891 0.15246433
2622 -723 -266 -0.83888769 -0.27160028 0.47169989 0.169835
2588 -709 -305 -0.70831031 0.36809459 0.60233122 0.077223219
2556 -729 -348 -0.92095923 0.048078235 0.3866815 0.086638838
2573 -735 -304 -0.75205153 0.16072021 0.63920844 0.086992122
2548 -741 -347 -0.94057846 -0.047814593 0.33619332 0.10739963
2633 -673 -295 -0.72877014 0.68475837 0.00027409024 0.12025257
2594 -715 -248 -0.7310527 0.59067047 -0.34157053 0.11757506
2588 -740 -296 -0.67790091 0.042723421 0.73391086 0.071016714
2598 -727 -296 -0.73471767 -0.069893032 0.6747629 0.070810944
2609 -687 -248 -0.69745898 0.68476129 -0.21131235 0.087881468
2594 -699 -247 -0.72915119 0.64132655 -0.23882778 0.088339381
2604 -713 -295 -0.7478047 0.11980928 0.65301901 0.084853493
2645 -744 -254 -0.78745991 -0.3418268 0.51289499 0.10196435
2634 -757 -254 -0.76755989 -0.10392421 0.6324963 0.10653288
2538 -720 -421 -0.9827497 -0.0030690918 -0.1849151 0.092992142
2549 -726 -378 -0.95732063 -0.054585062 0.2838268 0.073611125
2543 -702 -420 -0.97739345 0.13588251 -0.16198146 0.089171015
2550 -707 -378 -0.94869643 0.07900665 0.30615848 0.065348588
2556 -690 -377 -0.91308159 0.20575124 0.35206303 0.091659717
2536 -741 -378 -0.95709556 -0.10913046 0.26843762 0.085898161
2633 -762 -265 -0.62531686 -0.045446977 0.77904648 0.089075208
2550 -704 -385 -0.96354151 0.098198682 0.24888711 0.08382038
2587 -744 -304 -0.70695651 0.026374169 0.70676506 0.089741848
2573 -698 -341 -0.82367164 0.28317347 0.49130219 0.085611969
2539 -684 -382 -0.95837969 0.15505508 0.23972127 0.061930779
2534 -717 -384 -0.97226512 0.009312951 0.23369579 0.057866443
2563 -730 -343 -0.91063315 0.0083512776 0.41313145 0.093951523
2627 -673 -258 -0.66200423 0.73272407 -0.1576889 0.10038239
2561 -673 -384 -0.83912367 0.46677768 0.27926692 0.14022383
2634 -745 -264 -0.74431568 -0.25337499 0.61789596 0.095738813
2632 -727 -262 -0.83213609 -0.27745479 0.48017535 0.15701063
2587 -727 -302 -0.71339065 0.18225156 0.67665213 0.072961561
2601 -701 -258 -0.72911215 0.61949927 -0.29088864 0.11155889
2617 -688 -258 -0.76647812 0.58426714 -0.26672688 0.11603843
2596 -712 -302 -0.73812139 0.22278863 0.63682193 0.082550921
2571 -715 -343 -0.86949217 0.2009365 0.4512293 0.087184459
2557 -734 -340 -0.91143042 0.078510597 0.40389439 0.090418532
2540 -727 -381 -0.96643186 -0.012386861 0.25662422 0.057025339
2562 -717 -340 -0.87845081 0.18211669 0.4417665 0.074132726
2546 -691 -380 -0.93949038 0.16038458 0.30271196 0.075129628
2547 -710 -381 -0.96121424 0.042075187 0.27257434 0.055488709
2538 -720 -427 -0.96067703 -0.013823407 -0.27732396 0.095222533
2546 -704 -427 -0.94725728 0.13389276 -0.29116383 0.10307282
2560 -698 -339 -0.85494542 0.21148136 0.47364959 0.080543824
2548 -685 -381 -0.9328267 0.21042253 0.2925007 0.08586286
2548 -701 -427 -0.93832129 0.15853208 -0.30727935 0.11325905
2553 -705 -383 -0.95525998 0.096850671 0.27946073 0.085264646
2544 -722 -383 -0.96776283 -0.02852574 0.25024268 0.060307559
2541 -718 -427 -0.96058959 0.0054639685 -0.27791703 0.10012422
2543 -715 -425 -0.96784371 0.016064417 -0.25103891 0.10152717
2556 -684 -380 -0.90439546 0.27809644 0.32362214 0.10239259
2538 -736 -381 -0.96637076 -0.091561623 0.24029985 0.07777603
2550 -720 -382 -0.9638133 -0.037258975 0.26396164 0.069197319
2543 -696 -424 -0.96067393 0.18151775 -0.21013542 0.095722958
2549 -701 -381 -0.95108968 0.11608674 0.28627318 0.074689917
2575 -714 -347 -0.88370824 0.155414 0.44148189 0.089333884
2557 -690 -343 -0.8670153 0.23214336 0.44090116 0.084452853
2552 -714 -435 -0.89220023 0.062312856 -0.44732067 0.12240396
2551 -684 -386 -0.93644392 0.25610426 0.23975685 0.093501069
2546 -701 -387 -0.97369558 0.084173828 0.21173486 0.063332498
2544 -720 -388 -0.97896808 -0.039942648 0.20006521 0.059719231
2566 -731 -347 -0.91717809 -0.01092269 0.3983278 0.096476756
2548 -694 -433 -0.87056971 0.263394 -0.41561043 0.097844921
2559 -737 -376 -0.93375593 -0.21131274 0.28887168 0.11543728
2547 -691 -415 -0.97172999 0.20922558 -0.10938681 0.098699957
2562 -699 -373 -0.91321832 0.18255845 0.36428666 0.093710504
2557 -717 -374 -0.94788325 0.0057930299 0.31856504 0.089805126
2548 -711 -417 -0.98775035 0.049808744 -0.14787945 0.10508063
2552 -716 -388 -0.97669697 -0.0097123971 0.21440333 0.072744854
2550 -683 -387 -0.94060767 0.25532782 0.22375193 0.090755619
2615 -696 -262 -0.79550141 0.54089689 -0.27314469 0.13034223
2627 -683 -263 -0.74305916 0.60030293 -0.29580313 0.11610432
2554 -698 -434 -0.85720956 0.25206366 -0.44906095 0.11094867
2549 -736 -346 -0.93105763 0.062552452 0.35947034 0.091125429
2550 -713 -434 -0.90773386 0.081921525 -0.41147077 0.1111406
2630 -750 -265 -0.69405478 -0.16316168 0.70118916 0.092181817
2547 -731 -388 -0.97258693 -0.10809955 0.20588616 0.074818507
2595 -719 -307 -0.70308995 0.30612728 0.64183372 0.090267755
2553 -700 -388 -0.96572351 0.13045041 0.22441185 0.084678009
2585 -732 -306 -0.7384091 0.16827145 0.65302116 0.082296886
2563 -691 -346 -0.85592341 0.24530913 0.45521256 0.085138001
2561 -707 -346 -0.87960732 0.18207096 0.43947822 0.073528603
2607 -710 -262 -0.84606898 0.48193395 -0.22783086 0.17616472
2633 -734 -265 -0.76265323 -0.32004586 0.56207711 0.13139413
2554 -721 -346 -0.90815192 0.12052979 0.40091479 0.073110208
2661 -747 -244 -0.66163862 -0.50522035 0.5540638 0.075001314
2580 -703 -322 -0.74063903 0.40195519 0.53841048 0.081416987
2619 -690 -239 -0.67604804 0.71440613 -0.18050739 0.13947594
2587 -711 -237 -0.66021121 0.74506611 -0.094855651 0.12221579
2550 -708 -364 -0.92306256 0.13127856 0.36155427 0.075165227
2551 -693 -364 -0.91119242 0.15542221 0.38153949 0.078477755
2585 -719 -323 -0.79226249 0.28936267 0.53720516 0.10378584
2608 -730 -283 -0.73892277 -0.23614281 0.63105452 0.10236318
2609 -715 -282 -0.79944056 -0.057561669 0.5979811 0.13317059
2634 -692 -285 -0.7768575 0.61288762 -0.14443414 0.17118131
2557 -740 -366 -0.94646281 -0.045247901 0.31962588 0.11545276
2541 -676 -362 -0.91871297 0.18842731 0.34707576 0.080958545
2546 -722 -364 -0.94570154 0.030451847 0.32360667 0.069987163
2639 -677 -285 -0.67256981 0.65177381 -0.35048637 0.14032426
2616 -747 -284 -0.70784831 -0.15513408 0.68911833 0.067330904
2570 -730 -321 -0.84337157 0.17730439 0.50723511 0.097924344
2605 -701 -238 -0.74758339 0.59751153 -0.28999826 0.12819396
2636 -760 -259 -0.65287769 -0.04738573 0.75597966 0.08747188
2612 -685 -255 -0.73792017 0.62037861 -0.26571438 0.09843304
2599 -695 -254 -0.71983135 0.62808394 -0.29555619 0.091963187
2648 -735 -259 -0.74882084 -0.18749115 0.63569993 0.10573852
2593 -707 -254 -0.73155344 0.59765714 -0.32807845 0.10057543
2636 -746 -258 -0.75974339 -0.3080596 0.57261616 0.098175712
2558 -690 -394 -0.94043845 0.30877984 0.14223412 0.11425927
2629 -749 -273 -0.68650931 -0.15686657 0.70999849 0.083432116
2563 -687 -441 -0.72399014 0.36661828 -0.58431953 0.099417537
2625 -676 -267 -0.69938588 0.66789711 -0.25450528 0.10667025
2630 -713 -270 -0.96497053 0.057485141 0.25598329 0.20042667
2594 -713 -313 -0.68720829 0.39922109 0.6069327 0.090123631
2555 -707 -395 -0.98683792 0.058135029 0.15090102 0.090122402
2561 -699 -353 -0.88309151 0.21313113 0.4180007 0.076044559
2593 -695 -312 -0.61863112 0.52386737 0.58554113 0.077021532
2551 -670 -392 -0.90407747 0.40963563 0.12182973 0.10986184
2560 -717 -354 -0.90966272 0.10566866 0.40168121 0.081479572
2559 -681 -351 -0.85853291 0.23295186 0.45678732 0.10175955
2630 -731 -272 -0.74192524 -0.25497666 0.62010795 0.1229874
2579 -727 -313 -0.78154039 0.19629464 0.59216815 0.08460857
2616 -691 -268 -0.77573824 0.59192288 -0.2187635 0.13199151
2564 -725 -360 -0.92885637 0.047467094 0.36738643 0.092705376
2615 -745 -279 -0.71911603 -0.24005464 0.65210879 0.085349701
2544 -701 -403 -0.98986912 0.14162529 0.010073355 0.079550408
2637 -688 -280 -0.72873515 0.56579959 -0.38576657 0.16294977
2577 -717 -319 -0.79512256 0.2956202 0.52951753 0.090693966
2559 -676 -358 -0.85893118 0.27502292 0.43197167 0.11334369
2544 -670 -401 -0.93499142 0.35466146 -0.0025054046 0.093139403
2640 -704 -281 -0.77696723 0.38478357 -0.4982605 0.21039191
2548 -687 -403 -0.97261453 0.23239109 -0.0039121527 0.093670055
2619 -731 -279 -0.75134128 -0.22643559 0.61984944 0.11081003
2581 -702 -319 -0.72350919 0.42023423 0.54766566 0.078708604
2546 -718 -404 -0.99948847 0.013070429 0.029189285 0.081589572
2563 -693 -359 -0.89250392 0.19436342 0.407013 0.092050463
2604 -700 -231 -0.58862633 0.80821449 0.017562807 0.12077347
2633 -671 -279 -0.66528261 0.69771087 -0.2657038 0.12980062
2593 -713 -231 -0.65060931 0.75824469 -0.04210024 0.14100768
2613 -713 -279 -0.85192293 -0.0058784704 0.52363431 0.15723354
2563 -729 -317 -0.82195622 0.22226059 0.5243932 0.083030678
2568 -710 -360 -0.90534562 0.15754941 0.39436963 0.098213091
2551 -683 -415 -0.90458745 0.39199376 -0.16751848 0.10751783
2562 -725 -420 -0.95143306 -0.17675717 -0.25205579 0.1408629
2551 -726 -374 -0.95224655 -0.054758083 0.30037996 0.080311395
2561 -690 -373 -0.89680278 0.22103156 0.38326222 0.093985215
2563 -710 -374 -0.93304121 0.097936444 0.34618279 0.10198251
2554 -703 -417 -0.9741596 0.1677687 -0.15121791 0.11654143
2629 -754 -270 -0.6743685 -0.085372932 0.73344302 0.081097536
2640 -670 -269 -0.67262769 0.69225317 -0.26145265 0.12729342
2630 -740 -269 -0.7210688 -0.2377544 0.65079397 0.096803106
2584 -711 -310 -0.71417052 0.36097685 0.59971344 0.073309764
2588 -704 -222 -0.50718594 0.8501997 0.14114881 0.12234949
2630 -725 -269 -0.7895357 -0.1759394 0.58794451 0.15690388
2629 -682 -268 -0.73567736 0.59634423 -0.32117358 0.12681042
2614 -706 -267 -0.88310027 0.45386285 -0.11892169 0.1814571
2622 -694 -268 -0.79880661 0.5430584 -0.25883487 0.14430271
2576 -723 -310 -0.76513863 0.24135266 0.59691858 0.078872837
2581 -738 -311 -0.77825928 0.063706018 0.62470311 0.10132194
2578 -695 -309 -0.64630097 0.46548453 0.60466444 0.072446622
2545 -687 -407 -0.98092371 0.19108103 -0.035730883 0.082755923
2542 -705 -408 -0.99346948 0.11236273 -0.01982069 0.072612733
2554 -713 -367 -0.93469882 0.091721952 0.34340242 0.077424228
2576 -691 -322 -0.67783237 0.47455898 0.56154889 0.094506353
2552 -675 -363 -0.8880232 0.21831377 0.40466514 0.11448795
2643 -675 -282 -0.66177738 0.64425981 -0.38337985 0.14962728
2620 -745 -285 -0.71785575 -0.17522064 0.67378104 0.07260146
2566 -725 -323 -0.84509474 0.18372819 0.50205457 0.090923041
2628 -709 -283 -0.80746579 0.16977921 0.56495494 0.17148054
2616 -725 -283 -0.75002772 -0.16218919 0.64121228 0.10556916
2555 -695 -365 -0.90573633 0.18118115 0.38316467 0.087040395
2585 -712 -324 -0.77173162 0.34371632 0.53506005 0.099970259
2544 -706 -383 -0.96631128 0.064455472 0.24917461 0.062359903
2552 -705 -429 -0.9363336 0.12121811 -0.32952321 0.12017186
2598 -713 -304 -0.73776454 0.23808809 0.63167834 0.089107394
2635 -742 -265 -0.71900654 -0.22944459 0.65603721 0.098621942
2566 -734 -301 -0.72767788 0.2141722 0.6516251 0.084395953
2583 -723 -302 -0.70862752 0.21616419 0.67165476 0.078445062
2625 -694 -263 -0.81800956 0.4940286 -0.29461181 0.15000622
2633 -726 -265 -0.80070573 -0.20778105 0.56186962 0.15812038
2556 -684 -344 -0.85193312 0.24435282 0.4631432 0.096619949
2555 -714 -345 -0.90046912 0.13612913 0.41306686 0.067807049
2630 -680 -263 -0.72894657 0.6122579 -0.30623037 0.11974751
2563 -701 -345 -0.86725658 0.2128638 0.45006111 0.076101184
2608 -705 -262 -0.80767798 0.54107404 -0.23429698 0.15267165
2633 -757 -265 -0.66922593 -0.063249409 0.74036223 0.086150654
2558 -729 -346 -0.92040575 0.057386443 0.3867299 0.083209723
2552 -682 -367 -0.89635646 0.19662848 0.39734399 0.098921373
2551 -698 -412 -0.98132277 0.1796405 -0.068811141 0.098198801
2548 -678 -410 -0.93339133 0.34633106 -0.093996868 0.093864635
2545 -715 -412 -0.99642289 0.035637796 -0.076624565 0.089439921
2550 -719 -369 -0.94643825 0.02752829 0.32170919 0.066433243
2554 -701 -368 -0.91714233 0.16601557 0.36233774 0.083678059
2639 -668 -276 -0.64979637 0.70767921 -0.27740699 0.14899118
2636 -683 -276 -0.6982587 0.60048646 -0.38968039 0.14669663
2586 -679 -357 -0.56556439 0.62917328 0.53317732 0.16488396
2567 -706 -355 -0.89591265 0.19263339 0.40029112 0.088762194
2579 -698 -314 -0.68285644 0.45172918 0.57414961 0.077195734
2565 -725 -313 -0.80053723 0.23825128 0.54988778 0.074907005
2537 -711 -397 -0.99482322 0.037424482 0.094478488 0.062469367
2546 -682 -398 -0.96439147 0.25775936 0.059238993 0.082944848
2544 -697 -398 -0.9879719 0.13549788 0.074510314 0.072767764
2635 -699 -276 -0.88442379 0.43391496 -0.1717919 0.18849126
2565 -721 -355 -0.91636342 0.073613323 0.39352146 0.091522835
2618 -742 -275 -0.73264658 -0.29190907 0.61483175 0.09586037
2559 -688 -354 -0.88771856 0.18724327 0.42058972 0.085854307
2628 -713 -275 -0.86723858 0.064766869 0.49366227 0.18397234
2617 -726 -275 -0.76524431 -0.26828644 0.58516961 0.13283047
2579 -713 -314 -0.74814624 0.34313676 0.56792116 0.075190634
2542 -679 -407 -0.95229602 0.30159122 -0.046637625 0.080047727
2549 -720 -366 -0.94899011 0.032009982 0.31367692 0.065975115
2555 -688 -363 -0.89438999 0.19553204 0.40228575 0.085195079
2553 -670 -362 -0.86404663 0.2741591 0.42220873 0.12332297
2597 -702 -237 -0.71035403 0.68475062 -0.16283043 0.11891402
2539 -695 -408 -0.98795986 0.15291944 -0.023472888 0.075512566
2555 -705 -365 -0.9178018 0.15763241 0.36440605 0.077637859
2668 -757 -246 -0.6300106 -0.22178765 0.74424243 0.10599622
2607 -714 -284 -0.80857676 -0.021786451 0.58798724 0.12817867
2604 -731 -285 -0.74655873 -0.21590109 0.62931448 0.094051495
2564 -714 -324 -0.82934034 0.2400911 0.50453031 0.073713183
2572 -735 -326 -0.86216003 0.13017374 0.48962733 0.11107521
2548 -715 -411 -0.99749827 0.026420277 -0.065567583 0.092446312
2647 -672 -285 -0.5962171 0.55264235 -0.58233291 0.16699082
2619 -691 -238 -0.64488256 0.75509417 -0.118149 0.14754155
2575 -700 -324 -0.74188256 0.3871035 0.54750448 0.084169298
2546 -699 -422 -0.95965475 0.17177972 -0.22260842 0.10528887
2538 -719 -377 -0.95683348 0.0071668318 0.29054826 0.055242479
2548 -684 -377 -0.92404455 0.2042702 0.32313368 0.084978282
2552 -682 -421 -0.8581199 0.4366259 -0.27016288 0.10837629
2549 -703 -378 -0.94521588 0.10536747 0.30897358 0.068053767
2548 -674 -399 -0.93267483 0.35881072 0.037049316 0.09421216
2565 -703 -359 -0.89387041 0.20132923 0.4005774 0.082336687
2545 -693 -400 -0.98640263 0.16046788 0.035494801 0.07329189
2572 -692 -450 -0.58336312 0.25460452 -0.77127433 0.093379855
2558 -682 -357 -0.88347918 0.22545694 0.41065034 0.096467257
2559 -721 -360 -0.93008411 0.035336632 0.36564299 0.088073745
2540 -711 -401 -0.99782044 0.032138441 0.057632484 0.070521429
2561 -698 -439 -0.78191441 0.30018508 -0.54635042 0.11376888
2568 -733 -352 -0.9165172 -0.012026986 0.39981431 0.10290283
2549 -704 -392 -0.98294526 0.0654331 0.17186363 0.081344843
2566 -680 -439 -0.64979374 0.54243129 -0.53248125 0.10403914
2565 -693 -349 -0.86429209 0.22381333 0.45045167 0.084571518
2567 -713 -351 -0.8946951 0.1300761 0.4273183 0.086315595
2572 -676 -349 -0.80167401 0.32957691 0.49869621 0.13820717
2548 -684 -390 -0.95818537 0.22482079 0.1770211 0.085166141
2581 -677 -351 -0.65488946 0.54337734 0.52522457 0.16030051
2544 -681 -390 -0.96496868 0.20455807 0.16429076 0.074127749
2624 -696 -266 -0.81667912 0.50570971 -0.27801594 0.15530506
2630 -680 -266 -0.7262702 0.60980213 -0.31729004 0.12112324
2573 -702 -438 -0.73414904 0.28673863 -0.6154722 0.13713548
2562 -706 -350 -0.88872206 0.18400808 0.41989768 0.070602268
2623 -731 -267 -0.75960797 -0.35176459 0.54704428 0.1313301
2562 -681 -436 -0.70995301 0.49654546 -0.49940896 0.10869331
2625 -749 -267 -0.69814944 -0.18820958 0.69077098 0.085881487
2596 -704 -308 -0.68178582 0.43465143 0.58842689 0.077960499
2646 -667 -267 -0.53079885 0.84020311 -0.11095592 0.1349071
2558 -668 -391 -0.79020977 0.59717011 0.13768233 0.13296114
2560 -689 -349 -0.86925101 0.19821912 0.45289272 0.085525334
2589 -719 -308 -0.70945573 0.2801705 0.64666611 0.081653841
2624 -714 -266 -0.99608523 0.074020199 -0.048323814 0.20590416
2572 -732 -306 -0.76848525 0.1600329 0.61953205 0.085627161
2557 -722 -350 -0.91511732 0.084006675 0.39433885 0.079101913
2544 -699 -391 -0.98022753 0.099617921 0.17096864 0.062206082
2561 -693 -383 -0.93145049 0.21024102 0.29698268 0.095194086
2619 -699 -260 -0.81511539 0.49856398 -0.29499295 0.14042619
2642 -672 -262 -0.65703118 0.72123706 -0.21937908 0.11919704
2633 -736 -262 -0.77080107 -0.34778392 0.53377146 0.12494352
2563 -709 -344 -0.88118291 0.174895 0.43923622 0.074293405
2556 -702 -386 -0.95685792 0.12116095 0.2640889 0.089362368
2592 -703 -304 -0.7080757 0.39438587 0.58573771 0.078322619
2590 -719 -304 -0.72872949 0.22315145 0.64742315 0.086225517
2552 -683 -431 -0.80695575 0.40204924 -0.43264163 0.092586517
2547 -714 -431 -0.93929315 0.036238413 -0.34119657 0.10598152
2550 -717 -385 -0.97068304 -0.020407891 0.23949517 0.068244927
2566 -694 -344 -0.83606249 0.2617265 0.48218122 0.08597216
2556 -724 -344 -0.91037804 0.11283416 0.39809579 0.074280418
2628 -718 -262 -0.97360522 -0.13745901 0.18220262 0.19394216
2552 -685 -384 -0.93164724 0.24802344 0.26555175 0.094620727
2575 -732 -302 -0.73113197 0.1467603 0.66626382 0.080610894
2631 -753 -263 -0.67794627 -0.10129505 0.72809905 0.089191623
2629 -685 -261 -0.76084393 0.56646049 -0.31660545 0.12665053
2551 -699 -431 -0.88600063 0.23061977 -0.40226531 0.11721089
2567 -726 -357 -0.92540234 0.029622449 0.37782666 0.096639007
2566 -687 -354 -0.8776176 0.21218219 0.42984414 0.10058912
2545 -677 -395 -0.95345587 0.28344217 0.1028718 0.086545423
2570 -695 -446 -0.65224999 0.31764236 -0.68823922 0.097840458
2538 -714 -396 -0.99316204 0.022016695 0.11464944 0.058745202
2567 -707 -355 -0.89415556 0.19234626 0.40433753 0.087750018
2549 -697 -397 -0.98595983 0.14607668 0.080899782 0.08368697
2572 -725 -325 -0.84043771 0.18373917 0.50980824 0.095250055
2550 -705 -411 -0.99049938 0.12299298 -0.061511803 0.088185549
2542 -683 -408 -0.95551258 0.28646892 -0.070222855 0.082725339
2539 -721 -411 -0.99966198 -0.015869068 -0.020592492 0.080468617
2557 -716 -367 -0.93623352 0.039735336 0.34912443 0.088271052
2583 -708 -325 -0.76848841 0.36021695 0.5288378 0.090175986
2555 -696 -365 -0.906488 0.18220718 0.38089389 0.085459873
2554 -735 -368 -0.94452626 -0.037293855 0.32631171 0.10243388
2550 -697 -392 -0.97481209 0.12979497 0.18136849 0.088620566
2586 -716 -307 -0.71652633 0.29302773 0.63302827 0.081999898
2542 -713 -391 -0.9870463 -0.0071118493 0.16027774 0.060664162
2566 -728 -305 -0.75898492 0.2526699 0.60008317 0.07552848
2558 -687 -347 -0.8648501 0.2119506 0.45509475 0.089458771
2561 -697 -437 -0.79449409 0.32928041 -0.51024854 0.12294329
2562 -725 -349 -0.91816634 0.059899539 0.39164084 0.085510299
2549 -712 -436 -0.89363635 0.070838951 -0.44316587 0.11167705
2567 -683 -393 -0.87174004 0.46105477 0.16582456 0.14007682
2567 -708 -349 -0.8790437 0.1737853 0.44393775 0.081346862
2631 -678 -272 -0.71331322 0.62988168 -0.30729991 0.11734599
2621 -693 -272 -0.79247516 0.5717935 -0.21221553 0.15072
2564 -677 -398 -0.81314546 0.58021742 0.046284795 0.1319208
2585 -688 -355 -0.80143058 0.31050998 0.51116776 0.13435709
2592 -715 -315 -0.70775145 0.38613507 0.59159756 0.092846349
2627 -711 -274 -0.91523784 0.10828894 0.38808924 0.19418432
2597 -699 -315 -0.62278432 0.53100556 0.57460654 0.078047715
2580 -704 -356 -0.87439024 0.19877408 0.44264051 0.095767401
2632 -748 -277 -0.7159341 -0.20543878 0.66725808 0.081445955
2559 -711 -401 -0.99065852 0.089492887 0.10289157 0.096215755
2559 -693 -399 -0.9587248 0.27856964 0.05697139 0.11119036
2633 -731 -276 -0.72983849 -0.18773752 0.65733576 0.12121106
2587 -730 -316 -0.7999692 0.053015299 0.5976944 0.10901134
2569 -718 -356 -0.91058648 0.090007812 0.40339923 0.097933196
2626 -759 -287 -0.67454147 -0.03871027 0.73722136 0.08104746
2551 -713 -367 -0.93718076 0.087829657 0.33760664 0.071470588
2559 -733 -369 -0.94603586 -0.02365458 0.32319748 0.10754088
2553 -696 -367 -0.9117167 0.16220024 0.37744361 0.080874577
2545 -677 -365 -0.914276 0.19396672 0.35563499 0.089275956
2602 -735 -284 -0.7358706 -0.24734113 0.63033068 0.089815497
2570 -724 -324 -0.84631598 0.17933346 0.50158626 0.092478126
2612 -720 -284 -0.76506191 -0.11505748 0.63359451 0.11842535
2582 -710 -325 -0.77740908 0.35023418 0.52246648 0.086997606
2541 -708 -409 -0.99688172 0.07732974 -0.015711434 0.073218636
2546 -691 -409 -0.98202932 0.1843974 -0.04019944 0.086296171
2552 -735 -345 -0.92409521 0.066784009 0.37628171 0.088396668
2571 -742 -304 -0.74476635 0.1709203 0.64506537 0.094931588
2541 -727 -386 -0.97286814 -0.046939738 0.22654866 0.065223001
2628 -697 -263 -0.8346079 0.44415724 -0.32581288 0.16032347
2583 -694 -348 -0.83287722 0.26540431 0.48567072 0.10875791
2628 -747 -264 -0.71892416 -0.24245059 0.65143353 0.09348724
2560 -704 -345 -0.88092333 0.17059535 0.44144234 0.074786328
2581 -729 -305 -0.73918325 0.17376868 0.65070164 0.083174497
2551 -713 -387 -0.97666806 0.017162152 0.21406753 0.069328792
2592 -715 -306 -0.71979266 0.27959445 0.63539404 0.089870848
2560 -720 -346 -0.90318018 0.12060247 0.41197145 0.072148852
2550 -711 -433 -0.90698725 0.078228526 -0.41382894 0.11872096
2547 -693 -432 -0.87378842 0.26572305 -0.40728998 0.097990908
2551 -696 -387 -0.96119571 0.14997537 0.23153894 0.088458426
2630 -764 -265 -0.62823117 -0.03341325 0.77730894 0.087709114
2632 -731 -264 -0.79108012 -0.32913658 0.51561749 0.13689952
2541 -725 -433 -0.91411644 -0.090383045 -0.39524934 0.11933646
2614 -710 -262 -0.90457648 0.34734827 -0.2471652 0.18345496
2630 -681 -263 -0.73394358 0.60166144 -0.31516719 0.12142434
2616 -701 -245 -0.79131436 0.46449673 -0.39757308 0.14036258
2626 -690 -245 -0.76637733 0.58905715 -0.25627613 0.14635722
2652 -752 -249 -0.72934479 -0.3731288 0.57343781 0.1100691
2600 -710 -243 -0.79715586 0.48655069 -0.35750663 0.11822952
2636 -762 -247 -0.83310062 0.0087005608 0.55305314 0.10737641
2640 -680 -268 -0.7360245 0.53043675 -0.42060059 0.13456216
2630 -768 -273 -0.60773146 0.014011757 0.79401898 0.085331023
2620 -719 -269 -0.84337091 -0.22234833 0.48916939 0.17663036
2617 -734 -269 -0.74543464 -0.37523514 0.55093175 0.12891495
2628 -752 -272 -0.68112141 -0.10679829 0.72433949 0.078327984
2619 -704 -268 -0.88833135 0.41638088 -0.19363458 0.18004958
2638 -695 -269 -0.83461541 0.38445696 -0.39447421 0.17378308
2557 -711 -359 -0.91443455 0.11668122 0.38755 0.076478027
2651 -677 -278 -0.60307753 0.56209594 -0.56599075 0.16912945
2556 -727 -359 -0.9372763 -0.0036807961 0.34856787 0.089961387
2620 -719 -276 -0.80307519 -0.11459523 0.58475471 0.14713654
2546 -720 -400 -0.99630785 -0.023667572 0.082525522 0.079646446
2560 -707 -402 -0.98648661 0.14292257 0.080107696 0.10490346
2586 -705 -318 -0.7061817 0.44366452 0.55178732 0.08180102
2592 -714 -229 -0.50182831 0.85187775 0.14990838 0.13192785
2558 -695 -358 -0.90170258 0.1732042 0.39614737 0.078738943
2619 -736 -277 -0.72738934 -0.25630635 0.63656241 0.10568164
2562 -731 -316 -0.81462187 0.23263879 0.53129125 0.084483653
2552 -688 -400 -0.96504474 0.25790706 0.046609722 0.10186326
2627 -755 -278 -0.67195135 -0.057151332 0.73838681 0.078818768
2581 -720 -318 -0.77142709 0.31161633 0.55479324 0.089771658
2571 -708 -450 -0.62746954 0.1083546 -0.77106506 0.082995385
2643 -686 -257 -0.72990537 0.66405416 -0.16208118 0.18228748
2623 -699 -256 -0.83495116 0.42184463 -0.35341719 0.15336166
2563 -726 -343 -0.90432405 0.087086126 0.41786835 0.081615515
2558 -692 -427 -0.84992808 0.38610297 -0.35853404 0.12895642
2543 -715 -384 -0.96868789 0.019657955 0.24750218 0.057352647
2548 -679 -381 -0.93376249 0.22844732 0.2754986 0.087863795
2594 -743 -302 -0.69593287 -0.11831298 0.70829338 0.089925043
2552 -698 -383 -0.94791991 0.15512995 0.27817738 0.086817279
2644 -743 -261 -0.74992818 -0.22183587 0.62321472 0.09931121
2640 -761 -262 -0.62071371 -0.084521979 0.77946812 0.099938147
2567 -714 -430 -0.87502372 0.13598183 -0.4645884 0.14738178
2645 -724 -260 -0.82330763 -0.12335308 0.55402929 0.14379102
2593 -724 -300 -0.72488219 0.09145958 0.68277442 0.070542455
2574 -710 -343 -0.85228723 0.24114995 0.46416944 0.082757749
2602 -708 -300 -0.73257214 0.24516308 0.63500637 0.077017561
2557 -673 -425 -0.71970636 0.59171784 -0.36317047 0.10588682
2570 -690 -341 -0.81326258 0.28460324 0.50754809 0.094964683
2541 -691 -406 -0.9871071 0.15808478 -0.02507416 0.076575652
2583 -711 -323 -0.77366531 0.345449 0.53113747 0.090405241
2555 -681 -364 -0.88422257 0.22943649 0.40682855 0.10444352
2544 -710 -407 -0.99758816 0.069378212 -0.002142071 0.080427542
2649 -678 -285 -0.59525979 0.43824491 -0.67350376 0.16519448
2559 -699 -366 -0.90476161 0.18489708 0.38369191 0.087673061
2612 -721 -282 -0.76553816 -0.16301841 0.62239563 0.12321566
2559 -716 -366 -0.9321869 0.05878536 0.35717207 0.094472066
2628 -761 -285 -0.66591412 -0.038069088 0.74505639 0.084606551
2573 -726 -322 -0.82743806 0.21769178 0.51764524 0.099123634
2552 -732 -366 -0.94439006 -0.036616433 0.3267822 0.10073829
2603 -736 -282 -0.72468591 -0.30324864 0.61876535 0.096479744
2556 -683 -375 -0.89961261 0.25069362 0.35756105 0.10640773
2552 -698 -419 -0.96542615 0.19006193 -0.178406 0.11132479
2553 -720 -376 -0.95469773 -0.039976191 0.2948797 0.07463368
2556 -702 -376 -0.9258796 0.1553126 0.34441978 0.083516508
2555 -718 -421 -0.97518295 0.090548225 -0.20203772 0.11374042
2593 -725 -301 -0.71463561 0.11409533 0.69012904 0.07273405
2638 -678 -259 -0.6697607 0.72366494 -0.16652188 0.13510573
2590 -740 -302 -0.67603302 0.061757617 0.73427874 0.07147596
2627 -691 -259 -0.81274098 0.47592768 -0.33607283 0.13640277
2574 -698 -343 -0.82767618 0.26647764 0.49390471 0.087384425
2636 -760 -264 -0.64867604 -0.079624817 0.75688791 0.091454014
2602 -711 -301 -0.73146343 0.19545874 0.65326649 0.076899268
2646 -730 -263 -0.70920038 -0.15764959 0.68715453 0.12174553
2561 -728 -344 -0.91222173 0.073096395 0.40312332 0.07908234
2617 -705 -259 -0.84581262 0.40940559 -0.34203511 0.16456109
2569 -713 -344 -0.8701998 0.21167776 0.44490981 0.08100149
2574 -682 -342 -0.7984367 0.28799725 0.52873099 0.10895862
2638 -744 -263 -0.72067732 -0.24225967 0.6495648 0.092600569
2550 -722 -429 -0.94423789 -0.035574205 -0.3273367 0.10898044
2547 -728 -383 -0.96701539 -0.074284568 0.24364528 0.068384796
2563 -735 -341 -0.9072457 0.026456723 0.41976807 0.10577665
2571 -718 -341 -0.86660767 0.19932032 0.45745212 0.092943251
2562 -697 -339 -0.8506372 0.22539046 0.47499004 0.082793981
2548 -703 -428 -0.93843555 0.15101708 -0.31069684 0.11389998
2555 -693 -382 -0.93927997 0.18462276 0.28925365 0.090695448
2555 -711 -383 -0.96121508 0.064855412 0.26806608 0.08116059
2614 -749 -281 -0.70621502 -0.11928099 0.69787717 0.072879426
2624 -699 -238 -0.73641664 0.61560827 -0.2805655 0.18876435
2565 -734 -322 -0.85776258 0.1340377 0.4962633 0.10410094
2619 -722 -281 -0.76984859 -0.13514979 0.62375283 0.11766466
2609 -709 -237 -0.8081162 0.46895257 -0.35641515 0.15940133
2615 -735 -281 -0.73736745 -0.24695757 0.62872988 0.098213233
2593 -719 -236 -0.87205446 0.35393196 -0.33801338 0.14715762
2579 -724 -323 -0.82669502 0.20966563 0.52212602 0.10493217
2647 -749 -241 -0.79014605 -0.44022804 0.42646042 0.11142443
2579 -709 -323 -0.77649635 0.35088328 0.52338737 0.083632797
2646 -740 -255 -0.79455912 -0.27551547 0.54107958 0.12106409
2618 -703 -252 -0.8234936 0.38093042 -0.4204168 0.14934543
2604 -726 -297 -0.7220245 -0.0074672536 0.69182718 0.078008533
2646 -754 -255 -0.72271699 -0.25555396 0.64216232 0.10725614
2632 -693 -253 -0.81274235 0.4962301 -0.30529591 0.17052038
2592 -752 -296 -0.64569771 0.016734896 0.76340973 0.074111752
2593 -738 -296 -0.6857115 0.019899977 0.72760129 0.063905187
2610 -716 -251 -0.90632564 0.20832689 -0.36765978 0.17788929
2599 -710 -296 -0.74633831 0.15776315 0.64659876 0.08136081
2649 -683 -254 -0.59768057 0.80164367 -0.012055889 0.18847361
2637 -767 -255 -0.75048 0.043783065 0.65944129 0.10531235
2634 -685 -262 -0.7706877 0.52653629 -0.3588872 0.13437986
2581 -735 -304 -0.72734451 0.14231002 0.67135519 0.075822622
2576 -709 -345 -0.85325795 0.23041402 0.46782491 0.082663499
2562 -740 -346 -0.92582899 -0.050558779 0.37454578 0.11319165
2566 -724 -345 -0.90498853 0.082291253 0.4174014 0.084483884
2544 -730 -389 -0.97533083 -0.10671446 0.19324024 0.073730923
2634 -755 -266 -0.67680472 -0.086789921 0.73102868 0.081784621
2620 -699 -261 -0.82478493 0.48365098 -0.29293606 0.14313671
2552 -714 -389 -0.97923386 -0.010925596 0.20243937 0.075743616
2633 -737 -265 -0.74276745 -0.30845928 0.59426367 0.12195218
2544 -695 -386 -0.9697836 0.11497224 0.21517713 0.063816704
2622 -717 -263 -0.98005837 -0.13499409 0.14581552 0.19677937
2597 -722 -305 -0.70834571 0.24299774 0.66272056 0.084646478
2541 -730 -383 -0.97041875 -0.057581324 0.23446079 0.069762319
2573 -705 -342 -0.84709173 0.23719208 0.47557908 0.082826637
2552 -696 -383 -0.94308311 0.1684249 0.28675288 0.085723691
2558 -738 -342 -0.92335463 0.06934423 0.37763411 0.10319354
2564 -721 -342 -0.89694041 0.11430199 0.42712164 0.080502175
2557 -728 -432 -0.8604461 -0.20754303 -0.46535853 0.13681626
2553 -690 -429 -0.8558377 0.34876117 -0.38197836 0.11234266
2552 -715 -384 -0.96972114 -0.011026113 0.2439657 0.069404431
2555 -709 -430 -0.92826861 0.13282186 -0.34738412 0.12535484
2635 -713 -278 -0.82109404 0.092132017 0.56330836 0.18345457
2633 -728 -278 -0.70181453 -0.096369296 0.70581114 0.13272151
2562 -684 -402 -0.90006799 0.43562734 -0.010311658 0.12677564
2625 -758 -278 -0.66539425 -0.039693277 0.74543607 0.075645752
2581 -708 -359 -0.89682835 0.13266723 0.42201695 0.10888739
2573 -721 -359 -0.91372097 0.083685398 0.39763144 0.10734999
2573 -737 -359 -0.91318607 -0.053880714 0.40396541 0.12123699
2575 -690 -358 -0.86691338 0.22456607 0.44500703 0.10917964
2632 -696 -278 -0.81932068 0.53479975 -0.20664684 0.17898163
2640 -682 -278 -0.71477699 0.56680846 -0.40966094 0.15215153
2587 -729 -317 -0.80774122 0.095377773 0.58177072 0.10846387
2545 -727 -401 -0.99367195 -0.078958005 0.079885222 0.079382896
2597 -716 -318 -0.69777888 0.40567416 0.59036702 0.10360368
2624 -742 -278 -0.73753422 -0.22828391 0.63555467 0.084111221
2553 -713 -402 -0.99542111 0.068322308 0.066849358 0.089937195
2577 -742 -317 -0.83052009 -0.030224901 0.55616802 0.12795955
2554 -698 -402 -0.97913575 0.20029435 0.034284022 0.09848018
2626 -752 -283 -0.69720042 -0.12365672 0.70613068 0.077089339
2553 -679 -403 -0.91295481 0.40752104 -0.020979973 0.1132912
2568 -731 -320 -0.84181362 0.16767022 0.51306581 0.10084154
2571 -724 -363 -0.91939002 0.069681413 0.38712606 0.10961141
2643 -669 -279 -0.63002634 0.70727444 -0.32067057 0.16329212
2589 -719 -321 -0.7798264 0.30446562 0.54696566 0.10533687
2630 -683 -279 -0.72216278 0.63827258 -0.26662526 0.13576674
2623 -733 -282 -0.73323113 -0.18741351 0.65364236 0.09416578
2589 -702 -320 -0.69032115 0.46583277 0.55358529 0.080841869
2630 -718 -281 -0.71613061 0.00034424631 0.69796622 0.14850913
2548 -713 -406 -0.99874002 0.050179318 -0.00067950593 0.087010473
2597 -717 -232 -0.90925479 0.086232238 -0.40720969 0.16394028
2622 -698 -279 -0.8493365 0.52333188 0.06892921 0.16572526
2558 -698 -406 -0.96184027 0.27250808 -0.024548067 0.11178843
2573 -708 -362 -0.90726864 0.14017291 0.39650378 0.10059234
2572 -690 -360 -0.87617338 0.22926159 0.42398044 0.1047026
2560 -720 -427 -0.9322812 -0.00099206856 -0.36173308 0.13487965
2559 -701 -425 -0.91594374 0.23200646 -0.32744494 0.13087437
2559 -723 -382 -0.95772684 -0.045599878 0.28404218 0.083865874
2552 -740 -382 -0.93491471 -0.26610732 0.23477925 0.10568202
2562 -705 -381 -0.94350451 0.11858828 0.30941236 0.092159748
2634 -682 -276 -0.70497394 0.61891252 -0.34635112 0.14145906
2591 -716 -242 -0.75489253 0.59841132 -0.26840475 0.11646281
2585 -719 -328 -0.80457133 0.29113346 0.5175966 0.11369317
2613 -705 -242 -0.80883855 0.43488699 -0.39579478 0.14495192
2577 -700 -325 -0.73290396 0.40401942 0.54737556 0.084970571
2626 -691 -243 -0.74852043 0.62942708 -0.20865929 0.15762408
2558 -724 -372 -0.942698 -0.024390897 0.33275458 0.092449889
2551 -687 -368 -0.90250331 0.19431275 0.38435692 0.08710508
2640 -673 -287 -0.64347428 0.69429255 -0.32233322 0.15713122
2616 -718 -288 -0.76570261 -0.021156652 0.6428467 0.10688837
2667 -755 -250 -0.65611184 -0.3663173 0.65979463 0.085063264
2562 -708 -371 -0.92860579 0.12076363 0.35086671 0.098597497
2616 -735 -289 -0.7193777 -0.17961282 0.67099559 0.077113532
2620 -754 -291 -0.71215034 -0.096001826 0.69543189 0.073891148
2568 -732 -327 -0.8619765 0.11310141 0.49417064 0.10140064
2575 -698 -347 -0.84374923 0.25636044 0.47155759 0.089670748
2557 -721 -437 -0.86474907 -0.01231247 -0.50205326 0.13147853
2582 -718 -349 -0.9005776 0.086815953 0.42593771 0.10990587
2556 -727 -391 -0.97477925 -0.1316638 0.18019481 0.087551408
2564 -686 -436 -0.7107904 0.48516732 -0.50930315 0.11215381
2564 -692 -390 -0.91646349 0.34456396 0.20339708 0.12107776
2565 -705 -437 -0.81093556 0.22083551 -0.54186273 0.13444608
2562 -710 -391 -0.97631574 0.039325166 0.21274647 0.094725579
2566 -733 -348 -0.91737038 0.00079730409 0.39803401 0.097729087
2608 -697 -243 -0.74546522 0.5826233 -0.32377714 0.11420266
2647 -753 -250 -0.75333524 -0.33327502 0.56693375 0.11209532
2624 -686 -244 -0.72372901 0.659962 -0.20165917 0.12814388
2647 -768 -251 -0.6617083 0.095713869 0.74362689 0.11814831
2589 -707 -242 -0.71208286 0.67044121 -0.20843846 0.096360445
2567 -691 -360 -0.88026679 0.2144381 0.42325723 0.10179064
2555 -703 -404 -0.99098772 0.12986845 0.032826025 0.095479898
2572 -732 -364 -0.93070596 0.022741038 0.36506048 0.11766912
2545 -720 -404 -0.99936366 0.0077377129 0.034819752 0.080384828
2574 -713 -363 -0.91138804 0.11337548 0.39562327 0.10792656
2571 -699 -452 -0.60359061 0.18341939 -0.77590954 0.060840301
2550 -683 -402 -0.95635194 0.29179791 0.015652806 0.094665274
2542 -718 -412 -0.9989633 0.017182706 -0.042154204 0.084423006
2546 -721 -368 -0.95000136 0.023076193 0.3113918 0.068312578
2555 -717 -371 -0.94098234 0.018475957 0.337951 0.08299689
2575 -711 -328 -0.79278731 0.32030559 0.51854855 0.087718934
2548 -733 -371 -0.94847274 -0.015294567 0.31648916 0.092423037
2545 -711 -413 -0.99521542 0.05667188 -0.079590619 0.092628077
2567 -727 -328 -0.85339308 0.15964498 0.49621937 0.090116456
2604 -721 -287 -0.76763469 -0.12406569 0.62876439 0.1045327
2551 -698 -370 -0.91903067 0.15449265 0.36264953 0.075178623
2592 -736 -286 -0.73559076 -0.22176115 0.64010018 0.08545123
2539 -728 -413 -0.99873865 -0.032901149 -0.037927814 0.085130028
2560 -743 -327 -0.88239199 0.05152183 0.46768564 0.11085889
2540 -692 -412 -0.97838873 0.1930168 -0.074161485 0.081377707
2624 -755 -272 -0.66630745 -0.05744791 0.74346089 0.076721728
2548 -722 -395 -0.98641169 -0.066968158 0.15002397 0.075279251
2646 -678 -272 -0.70528245 0.58279777 -0.40363765 0.16356981
2571 -693 -444 -0.65081495 0.39092317 -0.65086013 0.10504553
2623 -722 -271 -0.79062742 -0.22115147 0.5709644 0.15501159
2554 -728 -353 -0.93078077 0.012154005 0.36537579 0.086263277
2595 -709 -314 -0.67340469 0.43282682 0.5993222 0.091851577
2584 -722 -313 -0.75305021 0.27837971 0.5961712 0.081204228
2639 -693 -272 -0.77431613 0.45545155 -0.43931568 0.15984458
2569 -735 -312 -0.80185127 0.13128562 0.5829224 0.087367423
2553 -695 -352 -0.89577323 0.17280185 0.40954846 0.074863978
2556 -712 -353 -0.90726238 0.1178069 0.40372816 0.074295968
2542 -687 -393 -0.97591197 0.1605031 0.14776565 0.068209268
2561 -707 -443 -0.78240871 0.11778002 -0.61152631 0.11140525
2552 -706 -395 -0.98759151 0.062179416 0.14421065 0.087222986
2637 -709 -272 -0.97644335 0.20695148 0.061069984 0.19397077
2623 -738 -271 -0.72976625 -0.28847751 0.6198563 0.10858732
2623 -742 -283 -0.71834612 -0.20683075 0.66422886 0.080052964
2619 -725 -282 -0.75475675 -0.15293515 0.63792872 0.11044033
2559 -718 -364 -0.92864794 0.059425462 0.36617163 0.089848958
2650 -673 -284 -0.56869262 0.46636063 -0.67756659 0.17859887
2579 -725 -321 -0.82818693 0.19267407 0.52629191 0.10053305
2575 -694 -319 -0.70223916 0.4413476 0.5586344 0.086453103
2593 -714 -322 -0.76505512 0.3464531 0.54282677 0.097453453
2629 -759 -284 -0.67753667 -0.038652197 0.73447269 0.080460213
2625 -712 -282 -0.79499561 0.10467885 0.59751511 0.16808809
2561 -703 -364 -0.90069395 0.1821689 0.39441705 0.084193505
2602 -723 -237 -0.91556859 -0.095588334 -0.39063674 0.13575412
2561 -734 -365 -0.94001126 -0.012483384 0.34091499 0.10049686
2554 -687 -363 -0.89505178 0.18754755 0.40460879 0.087776467
2619 -697 -238 -0.72897601 0.6249088 -0.27943328 0.16290611
2604 -708 -237 -0.81665742 0.46943691 -0.3357076 0.14160492
2576 -739 -321 -0.84544718 -0.067427747 0.52978545 0.11692633
2636 -687 -239 -0.56352365 0.8252604 0.03723501 0.17264412
2554 -680 -418 -0.81926423 0.52125752 -0.23894939 0.11996447
2557 -690 -374 -0.90658748 0.21062262 0.36570099 0.093624555
2563 -711 -376 -0.93872547 0.084650971 0.33410889 0.10202898
2556 -729 -377 -0.95188344 -0.070090562 0.29833752 0.084337085
2551 -718 -421 -0.9818148 0.038236439 -0.18595088 0.10856447
2584 -702 -333 -0.75737476 0.36918709 0.53859484 0.088503011
2573 -738 -335 -0.88764328 -0.024711071 0.45986822 0.11932429
2550 -699 -419 -0.97157168 0.15145123 -0.18196413 0.11075857
2581 -721 -334 -0.82700562 0.24483442 0.50608087 0.10314783
2560 -728 -369 -0.94726694 -0.020257095 0.31980467 0.093218699
2552 -702 -410 -0.98826844 0.14599898 -0.044830259 0.093133457
2573 -712 -369 -0.90944052 0.11499281 0.39961815 0.11879395
2550 -682 -408 -0.94345593 0.32421428 -0.069109857 0.10405751
2566 -691 -367 -0.89056063 0.20486397 0.40611893 0.10409359
2548 -720 -411 -0.99834782 -0.0081336144 -0.056881633 0.090774924
2548 -694 -399 -0.9846043 0.16792439 0.04853515 0.084423415
2626 -761 -276 -0.65673453 -0.035407424 0.75329018 0.08281108
2632 -710 -275 -0.96440852 0.24498247 0.099497356 0.19898738
2568 -720 -359 -0.91878247 0.094994545 0.38316417 0.10045984
2626 -726 -275 -0.74968958 -0.18771537 0.63460898 0.1305781
2557 -691 -443 -0.76532412 0.31971845 -0.55862248 0.089679718
2597 -716 -316 -0.66251874 0.43954438 0.6065225 0.099191502
2552 -712 -400 -0.99222869 0.051965035 0.11305717 0.089932255
2638 -676 -275 -0.70202613 0.62594742 -0.33963084 0.13249087
2559 -734 -358 -0.9367457 0.0069855195 0.34994105 0.099479161
2634 -693 -275 -0.77061963 0.52349961 -0.3634468 0.16466901
2556 -709 -444 -0.79987365 0.10620619 -0.59069651 0.092300422
2587 -730 -316 -0.7999692 0.053015299 0.5976944 0.10901134
2541 -726 -399 -0.9928273 -0.066195086 0.09955962 0.076166004
2566 -701 -358 -0.89272487 0.20408307 0.40173668 0.084183559
2582 -747 -315 -0.80161917 -0.093758613 0.59043711 0.13158022
2628 -744 -275 -0.71268952 -0.23685408 0.66028309 0.084448598
2550 -701 -374 -0.92912036 0.12877753 0.34662908 0.07274811
2550 -734 -375 -0.95143861 -0.072694562 0.29913214 0.097337388
2561 -725 -333 -0.8778348 0.15045492 0.4547191 0.084111027
2620 -700 -249 -0.82106161 0.43123323 -0.37402627 0.14954092
2556 -719 -375 -0.94997621 -0.017100116 0.3118538 0.085280843
2627 -685 -250 -0.76004457 0.5951947 -0.26091281 0.11614901
2537 -695 -418 -0.97397977 0.17152832 -0.14812644 0.078856774
2536 -728 -419 -0.9914856 -0.06594675 -0.11228231 0.10209028
2555 -740 -333 -0.91365373 0.066484429 0.40101957 0.099867068
2538 -712 -419 -0.98516798 0.063347124 -0.15947162 0.085121222
2609 -724 -295 -0.73880696 -0.059576351 0.67127854 0.084165975
2641 -755 -252 -0.80838758 -0.20434006 0.55204594 0.11543345
2573 -712 -334 -0.82514942 0.26277447 0.50007808 0.085987277
2599 -738 -294 -0.70661241 -0.06201246 0.70487827 0.062567636
2608 -713 -248 -0.84992254 0.33408913 -0.4074508 0.16005783
2573 -717 -353 -0.89853036 0.090211309 0.42954054 0.10415254
2602 -709 -311 -0.67760199 0.42610654 0.59940702 0.093961522
2552 -721 -440 -0.82897705 -0.024231173 -0.55875736 0.10540585
2588 -724 -310 -0.72831124 0.24384715 0.64039153 0.082496852
2553 -687 -395 -0.9650712 0.23959489 0.10598061 0.099425465
2570 -737 -309 -0.77090269 0.17949231 0.61113954 0.086964071
2558 -704 -440 -0.80174035 0.18939993 -0.56686872 0.11210308
2573 -699 -352 -0.86171597 0.24242319 0.44573149 0.091292471
2566 -734 -352 -0.92144912 -0.013191317 0.38827512 0.10394295
2551 -705 -395 -0.98845768 0.060394082 0.13893859 0.086895138
2552 -723 -396 -0.98363471 -0.099776179 0.15002504 0.088191278
2573 -723 -347 -0.90525329 0.071190983 0.41886556 0.1046631
2566 -701 -345 -0.85453755 0.23760027 0.46185684 0.079595923
2540 -728 -388 -0.97691202 -0.04615061 0.20859785 0.069092117
2552 -713 -388 -0.97750139 0.0022135181 0.21091744 0.075679645
2553 -704 -434 -0.89155126 0.15823978 -0.42437792 0.12575912
2549 -692 -386 -0.95646685 0.1629806 0.24209192 0.079702996
2550 -723 -435 -0.90827805 -0.026519518 -0.41752565 0.11573479
2575 -721 -340 -0.86994511 0.16411345 0.46504021 0.10283444
2555 -729 -384 -0.9601959 -0.091703348 0.26384535 0.075768113
2644 -746 -260 -0.74181271 -0.23262824 0.6289658 0.10126827
2548 -679 -381 -0.93376249 0.22844732 0.2754986 0.087863795
2641 -762 -260 -0.62632793 -0.052179478 0.77781141 0.097241916
2600 -732 -300 -0.70812833 -0.020198004 0.70579481 0.069495887
2578 -706 -340 -0.82520831 0.28211161 0.48933038 0.087711327
2555 -697 -382 -0.94270962 0.15859166 0.29350838 0.091254301
2614 -722 -257 -0.95249295 -0.30063519 0.048740223 0.18986794
2635 -696 -259 -0.83158445 0.40011573 -0.38519445 0.16444993
2642 -682 -259 -0.69942117 0.68935978 -0.1886615 0.16693278
2574 -736 -340 -0.90342802 -0.10831935 0.4148311 0.1158997
2604 -717 -300 -0.72791028 0.10857464 0.67702156 0.077473491
2617 -707 -257 -0.86806709 0.36041403 -0.34141061 0.1731874
2551 -712 -383 -0.96655595 0.046503685 0.25220412 0.067497596
2595 -747 -300 -0.68275374 -0.091812998 0.72485703 0.08746092
2544 -695 -416 -0.9751718 0.19331983 -0.10801593 0.08817786
2561 -705 -372 -0.91707301 0.17097688 0.36020005 0.094017722
2554 -685 -370 -0.89272147 0.23863466 0.3822329 0.10240851
2570 -697 -330 -0.7745254 0.35503125 0.52351046 0.084211543
2557 -722 -373 -0.9450717 -0.016071808 0.32646787 0.083900489
2603 -720 -245 -0.91347158 0.16271567 -0.37295204 0.15549001
2606 -713 -291 -0.7688061 0.11087567 0.62979656 0.10222752
2609 -704 -245 -0.78178656 0.5018295 -0.3701039 0.12609261
2620 -689 -244 -0.72992533 0.63197416 -0.26041836 0.1224848
2596 -728 -291 -0.74207354 -0.14654753 0.65410298 0.07839749
2546 -714 -418 -0.98806798 0.029324388 -0.15120095 0.098640822
2572 -716 -332 -0.82960856 0.24361344 0.50239629 0.09159556
2556 -730 -331 -0.88253933 0.17275664 0.4373551 0.087159276
2649 -751 -251 -0.71564358 -0.38282046 0.58421123 0.1042384
2582 -709 -363 -0.90057427 0.13666408 0.41266087 0.12651494
2591 -739 -302 -0.6820184 0.031036688 0.73067617 0.077708483
2574 -717 -346 -0.88634449 0.14154556 0.44086087 0.091623254
2573 -702 -346 -0.8461886 0.25126091 0.46992844 0.088554092
2563 -729 -345 -0.91800725 0.028181264 0.39556101 0.088593997
2640 -727 -264 -0.75892389 -0.16711214 0.62937111 0.14454596
2640 -742 -265 -0.68452442 -0.21126601 0.69770545 0.097679012
2599 -711 -303 -0.7340157 0.24677436 0.63271111 0.085093759
2600 -726 -303 -0.7095564 0.071256295 0.70103651 0.08086852
2640 -757 -265 -0.64779741 -0.12917383 0.7507813 0.089496784
2626 -708 -262 -0.90249527 0.28216079 -0.32540366 0.18459685
2643 -697 -264 -0.83236337 0.33571351 -0.44098485 0.19036785
2539 -717 -410 -0.99956858 0.020714533 -0.020822167 0.080089316
2551 -683 -410 -0.93225318 0.35043958 -0.089978471 0.10885245
2557 -706 -367 -0.91700971 0.15419686 0.36785397 0.087367043
2554 -686 -366 -0.88902187 0.22494897 0.39879578 0.09628769
2545 -721 -367 -0.94973689 0.034764066 0.31111288 0.065329783
2547 -701 -410 -0.98967779 0.1358052 -0.045770116 0.08556591
2558 -673 -356 -0.8447302 0.28196785 0.45489007 0.11734535
2552 -682 -402 -0.9482764 0.31744421 0.0010334434 0.10684648
2564 -694 -359 -0.89368832 0.19865176 0.40231675 0.086562067
2577 -722 -318 -0.80563861 0.26481634 0.52992332 0.086682528
2546 -699 -403 -0.98889232 0.14789036 0.014850491 0.07816717
2563 -713 -360 -0.91854119 0.12001353 0.3766681 0.090079904
2587 -705 -318 -0.70350033 0.44432887 0.55467033 0.079710521
2558 -695 -400 -0.96155578 0.26912728 0.054597955 0.10826192
2585 -687 -358 -0.72079706 0.46706229 0.51215672 0.15315905
2583 -706 -359 -0.88724554 0.16653696 0.4301869 0.11097812
2567 -678 -400 -0.74720418 0.66427493 -0.020610511 0.13833088
2591 -698 -346 -0.76655066 0.38730159 0.51224762 0.12502186
2608 -723 -305 -0.69796544 0.13527465 0.70323896 0.090935156
2609 -686 -234 -0.57151324 0.82029694 -0.022035362 0.088996008
2594 -697 -234 -0.65331811 0.75534683 -0.051250711 0.10083321
2638 -675 -282 -0.66418684 0.65979511 -0.3514632 0.14382018
2618 -744 -285 -0.71298128 -0.18469739 0.67642045 0.070000343
2614 -713 -283 -0.80990911 0.031075466 0.58573163 0.13828522
2578 -707 -233 -0.60090983 0.79927498 -0.0081784595 0.11800696
2610 -727 -283 -0.74899375 -0.21554886 0.62653571 0.10607926
2562 -724 -333 -0.87440741 0.15513004 0.45972422 0.081678152
2555 -701 -375 -0.92291921 0.1630698 0.34875259 0.082976639
2554 -719 -376 -0.95528233 -0.032077663 0.29395023 0.074227422
2546 -692 -419 -0.95665812 0.23678607 -0.16952156 0.095951542
2552 -682 -374 -0.90469748 0.23618425 0.35459775 0.10028579
2550 -712 -421 -0.97668248 0.07557828 -0.20094612 0.11289121
2576 -709 -334 -0.80936152 0.28518152 0.51342511 0.08901453
2561 -668 -383 -0.77704942 0.58489007 0.2325892 0.1427265
2558 -686 -384 -0.91602904 0.28482795 0.28242493 0.10330866
2555 -723 -386 -0.97139442 -0.056391142 0.23067956 0.075655699
2555 -701 -429 -0.91155356 0.19977891 -0.35938624 0.12475065
2559 -705 -385 -0.95411915 0.11732212 0.27548528 0.087062657
2559 -683 -428 -0.75916255 0.51949972 -0.39216352 0.11831682
2563 -739 -325 -0.87334049 0.064343996 0.48284188 0.11280459
2596 -708 -241 -0.78450906 0.538463 -0.30757612 0.11950638
2604 -740 -286 -0.71995288 -0.28381073 0.63333982 0.08766602
2575 -727 -326 -0.85271019 0.16245964 0.49647987 0.10780001
2636 -687 -244 -0.66915864 0.74053538 -0.061920237 0.16186704
2588 -715 -327 -0.79818922 0.295941 0.52470273 0.10809463
2547 -732 -368 -0.94897664 -0.029814275 0.31393388 0.09113726
2658 -757 -247 -0.70104116 -0.18708283 0.68814343 0.10204922
2619 -699 -243 -0.76972651 0.5483346 -0.32687959 0.15918964
2616 -727 -287 -0.73247725 -0.13185656 0.66790038 0.093837991
2603 -726 -242 -0.93468696 -0.22100225 -0.27842128 0.14381142
2543 -700 -367 -0.93112862 0.12209846 0.34364441 0.062366888
