# .PCD v0.7 - Point Cloud Data file format
VERSION 0.7
FIELDS x y z normal_x normal_y normal_z curvature
SIZE 4 4 4 4 4 4 4
TYPE F F F F F F F
COUNT 1 1 1 1 1 1 1
WIDTH 784
HEIGHT 1
VIEWPOINT 0 0 0 1 0 0 0
POINTS 784
DATA ascii
2881 424 -386 -0.80623507 -0.40411237 0.43206266 0.16105513
2794 533 -332 -0.57038301 0.31810123 -0.75728118 0.079172835
2876 430 -337 -0.61378717 -0.77039146 -0.17251731 0.082565539
2803 477 -331 -0.80248833 -0.4581182 -0.38228276 0.063698165
2895 406 -387 -0.91641915 -0.060079522 0.39568475 0.14058384
2797 457 -329 -0.75433052 -0.53098214 -0.3860614 0.056074068
2783 512 -330 -0.78824216 -0.12057305 -0.60343724 0.077705048
2871 442 -385 -0.66074467 -0.67412847 0.33010203 0.20594169
2795 495 -330 -0.83846861 -0.29609567 -0.45749086 0.071644783
2889 386 -386 -0.87481976 0.36361369 0.32011798 0.17099495
2895 414 -354 -0.96030456 -0.26783386 -0.077976041 0.13243426
2893 396 -353 -0.9673804 0.18547077 -0.17255642 0.12896931
2774 562 -209 -0.82298583 0.49274951 0.28265214 0.11235835
2804 511 -349 -0.68987167 0.0034759762 -0.72392327 0.073301554
2765 524 -206 -0.9931097 0.11421677 -0.026223863 0.094912507
2820 459 -348 -0.64713043 -0.60007828 -0.47024268 0.04384324
2810 475 -348 -0.74144316 -0.42200825 -0.5217002 0.046230383
2793 480 -300 -0.85871273 -0.45600843 -0.23381346 0.070659593
2780 500 -252 -0.82391423 0.10180811 -0.55749488 0.10139561
2806 493 -349 -0.76105976 -0.18784483 -0.62088847 0.047504451
2765 480 -250 -0.89705032 -0.08802814 -0.43307251 0.068144329
2773 517 -253 -0.9394033 -0.22375691 -0.25971979 0.094888672
2886 432 -354 -0.71404392 -0.68407679 -0.14893055 0.1026131
2844 444 -350 -0.54798037 -0.77304035 -0.31957167 0.047627274
2803 464 -300 -0.82969886 -0.52051324 -0.20165758 0.084744997
2766 542 -207 -0.97031999 0.20764494 0.12394635 0.10215427
2806 446 -299 -0.7369175 -0.66037905 -0.14440261 0.09540379
2760 495 -148 -0.91179788 0.29585028 0.28477582 0.086129144
2758 491 -192 -0.96816707 0.24595614 -0.046455298 0.11030248
2761 505 -193 -0.97557527 0.21966523 0.0001799591 0.10048096
2771 548 -238 -0.99229616 0.08443547 0.090658516 0.19994557
2805 465 -288 -0.79651308 -0.59141725 -0.12566809 0.098750442
2766 490 -237 -0.94463265 -0.0040053041 -0.3281053 0.078834347
2806 480 -288 -0.85722393 -0.49268162 -0.14977291 0.11132763
2768 477 -236 -0.92392939 -0.096119449 -0.37029108 0.089239925
2775 506 -238 -0.95835489 -0.12852697 -0.25502306 0.093234114
2807 451 -287 -0.73961145 -0.66952389 -0.068648197 0.13048339
2803 436 -287 -0.78399163 -0.60682893 -0.13082767 0.1081535
2804 456 -294 -0.80963182 -0.57129526 -0.1346032 0.099754229
2774 524 -154 -0.81772298 0.52161884 0.24339879 0.093801469
2853 446 -345 -0.52339065 -0.78907883 -0.32158488 0.028262893
2815 442 -295 -0.70699632 -0.68958545 -0.15693372 0.12187646
2799 471 -294 -0.8368144 -0.50879872 -0.20215231 0.077356309
2763 502 -199 -0.98875141 0.14035891 -0.051672805 0.10036068
2759 515 -246 -0.96130025 -0.23972912 -0.13576353 0.073477946
2804 454 -339 -0.70522779 -0.55647194 -0.43930924 0.047567856
2879 433 -348 -0.6444568 -0.74549627 -0.17003129 0.082171902
2786 514 -339 -0.74519879 -0.057836305 -0.66432959 0.06156734
2757 506 -153 -0.91859293 0.31864807 0.23377426 0.085159399
2754 531 -198 -0.9649626 0.25140715 0.075110905 0.093559206
2773 487 -246 -0.90561265 -0.074073195 -0.41758689 0.093559794
2800 485 -340 -0.79282355 -0.32905814 -0.51298302 0.060474243
2793 500 -339 -0.78109717 -0.17153223 -0.60038644 0.053161103
2769 539 -154 -0.7734533 0.58431798 0.24564686 0.070760302
2747 544 -246 -0.98826343 -0.15011747 0.028288085 0.12474789
2815 472 -341 -0.73078084 -0.49997568 -0.46474051 0.047902208
2758 517 -199 -0.98209661 0.18830605 0.0051981178 0.094279535
2765 501 -246 -0.93555343 -0.070535459 -0.34607023 0.083222017
2894 419 -349 -0.91032344 -0.39405122 -0.1266287 0.12734923
2881 397 -397 -0.75680542 -0.025374042 0.65314758 0.17376678
2860 446 -374 -0.64870262 -0.76104164 0.00078030798 0.16829251
2892 430 -377 -0.90505344 -0.40230504 0.13794571 0.14541623
2821 480 -371 -0.67247701 -0.27525949 -0.68702763 0.041786578
2836 462 -372 -0.69794744 -0.49958146 -0.51311558 0.1001244
2898 447 -399 -0.93659997 -0.3138707 -0.15577461 0.19502246
2876 404 -394 -0.76302648 -0.1346406 0.63218862 0.16574258
2763 549 -243 -0.99131113 0.087357946 0.098340653 0.15979971
2879 420 -390 -0.78968817 -0.30580279 0.53186202 0.16798349
2800 457 -287 -0.79874986 -0.58415431 -0.14409126 0.10240561
2803 471 -337 -0.76194447 -0.4782615 -0.43669957 0.048634328
2884 402 -389 -0.8480655 -0.063129276 0.52611756 0.16228296
2775 497 -241 -0.92062497 0.040196177 -0.38837349 0.093792148
2786 505 -337 -0.78429276 -0.17207755 -0.59604877 0.061696816
2773 479 -240 -0.90120155 -0.068625055 -0.42793271 0.10534018
2796 475 -288 -0.84858745 -0.49300429 -0.1919533 0.084010653
2870 437 -390 -0.51966959 -0.61010575 0.59809244 0.18538044
2892 411 -343 -0.94741905 -0.20468864 -0.24596663 0.15158036
2804 440 -287 -0.77101642 -0.6223591 -0.13491803 0.11571389
2876 427 -342 -0.65595537 -0.74115342 -0.14287768 0.10893531
2857 443 -341 -0.50223964 -0.81159198 -0.29845229 0.030520733
2794 488 -337 -0.82001257 -0.3049027 -0.48436934 0.056276456
2786 523 -338 -0.68330038 0.11990999 -0.72022372 0.070805423
2762 513 -241 -0.96425533 -0.18983699 -0.18486109 0.08679229
2800 453 -335 -0.72590995 -0.54793102 -0.41572392 0.053667769
2881 458 -392 -0.73166257 -0.54670453 -0.40716591 0.18569894
2762 514 -172 -0.92973053 0.35045639 0.11305481 0.093149707
2776 500 -172 -0.89598203 0.42848989 0.11667293 0.12630571
2764 523 -218 -0.99852562 -0.016684869 -0.051655032 0.097013332
2759 540 -219 -0.99360138 0.085775703 0.073477104 0.11176433
2793 456 -265 -0.82250869 -0.49368164 -0.28241441 0.097404562
2787 517 -313 -0.86126012 -0.21625884 -0.45985112 0.1013389
2792 473 -265 -0.86711669 -0.35303912 -0.35138583 0.11092059
2886 423 -364 -0.87031531 -0.49248976 -0.0022448651 0.13808343
2820 453 -313 -0.6793676 -0.6793406 -0.27740958 0.081236184
2796 483 -312 -0.86811912 -0.42412683 -0.25784808 0.070338018
2815 482 -360 -0.6999647 -0.26983729 -0.66123915 0.03537095
2816 435 -311 -0.61921656 -0.74938148 -0.23451707 0.087305009
2815 500 -361 -0.66672111 -0.055832617 -0.74321306 0.055914842
2834 468 -361 -0.64690357 -0.51226479 -0.56488991 0.052528858
2845 452 -361 -0.62596595 -0.70449585 -0.33444327 0.083857693
2868 438 -363 -0.68029273 -0.72388488 -0.11485877 0.12475391
2771 507 -218 -0.98171031 -0.036649425 -0.18682013 0.09375342
2767 531 -312 -0.70269203 0.1220266 -0.70095181 0.078105591
2798 466 -311 -0.83893603 -0.48156875 -0.25353098 0.069612704
2783 489 -266 -0.89932925 -0.30089176 -0.31728709 0.11999128
2795 489 -283 -0.86642045 -0.45911264 -0.19629332 0.091194667
2808 476 -284 -0.83006722 -0.54238534 -0.12964037 0.12472466
2775 535 -236 -0.99186641 -0.098228164 -0.080946036 0.15468945
2819 463 -284 -0.75664318 -0.65333617 -0.025354138 0.14882371
2762 518 -234 -0.97724593 -0.16065115 -0.13849737 0.094288468
2773 549 -236 -0.99003524 0.11234635 0.084902897 0.19828567
2781 555 -193 -0.75043446 0.61753511 0.23558126 0.10272738
2787 491 -259 -0.82808745 0.06383545 -0.5569526 0.10577565
2828 474 -357 -0.66767955 -0.42490774 -0.6112752 0.052425861
2811 506 -356 -0.68375999 0.0068158377 -0.72967517 0.065060727
2809 475 -309 -0.84762514 -0.45623758 -0.27088562 0.083263069
2800 476 -260 -0.85083604 -0.2483896 -0.46301264 0.12272268
2822 490 -357 -0.68435127 -0.18956082 -0.70408106 0.049451422
2791 509 -259 -0.82093799 0.093190692 -0.56336153 0.12133259
2841 458 -358 -0.60223925 -0.65353847 -0.45847061 0.056695167
2782 547 -213 -0.9202953 0.36355793 0.14450671 0.1563942
2771 528 -212 -0.99871218 0.050159182 -0.0076244655 0.10849916
2820 460 -310 -0.7353822 -0.62412208 -0.26397866 0.10236937
2777 523 -259 -0.93944418 -0.25420508 -0.22983553 0.12080263
2828 443 -310 -0.54501206 -0.81139427 -0.2111901 0.081769541
2889 430 -364 -0.81245404 -0.5818032 -0.037729718 0.12514508
2859 443 -360 -0.59838575 -0.77709973 -0.19506532 0.088452049
2900 414 -364 -0.97436899 -0.22341014 0.026323061 0.10851296
2872 392 -361 -0.93019211 0.35805678 0.080857478 0.18752329
2871 374 -360 -0.64047879 0.76293558 0.087841578 0.16830696
2775 527 -212 -0.9993993 0.024310619 -0.024697756 0.13525489
2769 544 -213 -0.97863096 0.16665475 0.12044778 0.11203481
2771 518 -258 -0.94207418 -0.28483799 -0.17709763 0.088551253
2893 397 -358 -0.98072493 0.13672759 -0.13958569 0.12173286
2814 448 -306 -0.6755988 -0.70508057 -0.21547067 0.090968005
2876 432 -358 -0.70749015 -0.70121247 -0.088083312 0.12012942
2895 392 -405 -0.50716323 -0.27184913 0.81785297 0.16248038
2822 479 -355 -0.69245005 -0.34205905 -0.63522321 0.048572019
2834 462 -355 -0.60997111 -0.61909425 -0.4946287 0.049522307
2787 503 -258 -0.74959421 0.18691254 -0.63495839 0.10737455
2777 483 -256 -0.86748183 -0.050789256 -0.49486938 0.093701206
2815 467 -307 -0.77518517 -0.57422036 -0.26336083 0.1041036
2788 480 -305 -0.86131018 -0.45594558 -0.2241839 0.067327946
2812 496 -355 -0.71334612 -0.11612273 -0.69112438 0.054433323
2847 446 -356 -0.58606493 -0.76542121 -0.26581636 0.068690278
2772 524 -206 -0.98815918 0.14791662 -0.040769517 0.10689285
2780 559 -208 -0.75722265 0.58307517 0.29434195 0.13839827
2748 542 -295 -0.53778625 0.58151501 -0.61043125 0.097878121
2783 543 -208 -0.92588317 0.34050232 0.16370225 0.1371168
2821 469 -346 -0.69314921 -0.53483182 -0.48321754 0.049143787
2816 458 -296 -0.73079574 -0.67106026 -0.1249625 0.11933585
2801 513 -347 -0.70575005 0.015064509 -0.70830083 0.06744381
2811 483 -346 -0.75762784 -0.34156254 -0.55617893 0.054832853
2888 431 -352 -0.70638049 -0.69153768 -0.15100394 0.099231809
2887 398 -350 -0.96696705 0.15651996 -0.20118713 0.13476521
2781 503 -251 -0.82831812 0.10750227 -0.5498476 0.098969154
2852 442 -348 -0.53735751 -0.79803365 -0.27274412 0.043106027
2818 452 -345 -0.6274792 -0.62805361 -0.46023753 0.043220032
2822 443 -296 -0.64288861 -0.75357741 -0.13716909 0.12055775
2895 416 -352 -0.92863631 -0.36153448 -0.083230466 0.12940519
2776 519 -251 -0.94113618 -0.20272127 -0.27049357 0.11455513
2809 473 -296 -0.84480315 -0.50208336 -0.18498603 0.10645673
2810 499 -347 -0.73901212 -0.10626304 -0.66525871 0.062623538
2780 487 -250 -0.81777871 0.070206888 -0.57123464 0.10827275
2793 486 -296 -0.87388253 -0.4379968 -0.21092217 0.074003071
2788 560 -140 -0.55788428 0.7307893 0.39333472 0.090402521
2788 546 -139 -0.62248224 0.67606634 0.39427161 0.091827653
2789 528 -322 -0.67572361 0.15439957 -0.72080404 0.082503058
2846 463 -376 -0.67496192 -0.51062977 -0.53261966 0.10745879
2806 465 -275 -0.77441216 -0.62037617 -0.12417452 0.12602301
2800 482 -275 -0.82440788 -0.54294395 -0.15988633 0.10921726
2873 432 -328 -0.53342885 -0.83262616 -0.14895418 0.069895394
2894 433 -381 -0.91505766 -0.38017267 0.13467829 0.14417733
2786 510 -321 -0.85029989 -0.17450793 -0.49652496 0.088966228
2794 493 -321 -0.88367701 -0.36525732 -0.29274908 0.079187259
2864 447 -377 -0.67541206 -0.73658282 0.035560004 0.17341882
2808 459 -322 -0.75190002 -0.56266659 -0.34358788 0.067372493
2799 476 -321 -0.84053844 -0.45132759 -0.29966393 0.066796713
2839 481 -375 -0.62098157 -0.282426 -0.73117536 0.047524977
2781 497 -274 -0.91009676 -0.34861913 -0.22402805 0.10082648
2752 548 -246 -0.99270427 -0.11856675 0.021908954 0.13583304
2779 523 -199 -0.97980583 0.19359182 0.050027519 0.13935705
2870 400 -389 -0.77536362 0.014482809 0.63134891 0.17094259
2779 503 -245 -0.90360588 0.050171252 -0.42541665 0.09761072
2796 512 -338 -0.74172956 -0.058166366 -0.668172 0.067361742
2765 537 -198 -0.95914781 0.26332605 0.10341592 0.098809719
2806 468 -291 -0.81171358 -0.56330824 -0.15428828 0.090851121
2770 485 -243 -0.91255665 -0.047820706 -0.40614489 0.085894033
2810 464 -337 -0.72183615 -0.5403381 -0.43242022 0.0480805
2806 447 -335 -0.66559309 -0.61567885 -0.42181194 0.05839048
2886 425 -343 -0.70619035 -0.69074446 -0.15545806 0.11195271
2768 505 -197 -0.97450775 0.22408885 -0.010896064 0.11671164
2812 481 -338 -0.77196139 -0.41281283 -0.48338512 0.068200618
2809 452 -291 -0.76462817 -0.63875467 -0.085652061 0.1212528
2818 487 -293 -0.89426631 -0.41960487 -0.15562655 0.1423898
2765 517 -245 -0.96085602 -0.20992786 -0.18079242 0.092445113
2878 435 -393 -0.65590465 -0.45904967 0.59921825 0.18821084
2895 410 -343 -0.96330208 -0.13555177 -0.23167846 0.14662606
2800 496 -337 -0.79936433 -0.22985761 -0.55514163 0.061950684
2789 552 -136 -0.57325733 0.70150512 0.42339882 0.079001188
2786 537 -135 -0.66182208 0.6211037 0.41978776 0.097080208
2792 524 -135 -0.65449142 0.67945349 0.33163825 0.1231336
2892 395 -403 -0.55782628 -0.28193086 0.78060544 0.16603985
2783 482 -252 -0.84188735 -0.031314969 -0.53874397 0.09956114
2878 430 -354 -0.71556592 -0.69058472 -0.10515786 0.12137198
2767 506 -206 -0.98346919 0.10676733 -0.14625019 0.1140555
2775 525 -208 -0.99636114 0.075013779 -0.040463351 0.119858
2845 444 -351 -0.56160849 -0.77026582 -0.30213651 0.053755231
2785 465 -251 -0.85117936 -0.24971135 -0.46166867 0.094492182
2897 395 -354 -0.9776898 0.17274776 -0.11950256 0.1156567
2773 543 -209 -0.96573663 0.22914559 0.1218403 0.12139528
2808 493 -350 -0.74774152 -0.18705602 -0.63709712 0.049381364
2814 447 -301 -0.66865021 -0.72662246 -0.1578819 0.10262485
2763 529 -301 -0.89066052 -0.14284059 -0.43164843 0.12718697
2798 480 -301 -0.8615641 -0.45548341 -0.22414798 0.068284124
2820 476 -350 -0.70947921 -0.42453036 -0.56250614 0.05147735
2831 460 -350 -0.62311929 -0.63151395 -0.46142447 0.04692908
2808 464 -302 -0.82369149 -0.52950203 -0.20287889 0.084393606
2755 549 -254 -0.99326104 -0.11326388 0.024574738 0.13713484
2779 499 -253 -0.82857698 0.11300232 -0.54835266 0.095213063
2896 414 -355 -0.9598394 -0.27109581 -0.072216891 0.12305897
2794 537 -121 -0.53972632 0.59165984 0.5988608 0.09543819
2792 522 -120 -0.60301948 0.49948925 0.62199515 0.10422166
2775 538 -181 -0.86738539 0.45612988 0.19896759 0.089098573
2761 546 -226 -0.97670239 0.12337087 0.17559037 0.12896225
2851 454 -372 -0.66356015 -0.66677159 -0.33926925 0.11301003
2782 499 -274 -0.91386348 -0.3460688 -0.21234393 0.10114557
2898 427 -378 -0.92836297 -0.34240261 0.14457729 0.12786615
2790 529 -322 -0.65261579 0.18946758 -0.73361754 0.082591571
2824 452 -323 -0.64101112 -0.67254066 -0.36985648 0.062188201
2772 499 -226 -0.96526486 -0.02239278 -0.26031217 0.091668919
2775 516 -226 -0.98138058 -0.11185555 -0.15614253 0.11917839
2792 485 -275 -0.85220128 -0.48938498 -0.18508184 0.098296046
2803 470 -276 -0.79682684 -0.59292167 -0.11623649 0.11639647
2780 522 -181 -0.89480406 0.42189395 0.14605208 0.11773134
2876 440 -375 -0.7301057 -0.67457587 0.10905578 0.16559398
2802 465 -321 -0.7996856 -0.50340509 -0.32724017 0.062069245
2800 481 -322 -0.84174693 -0.44770393 -0.30170068 0.068388812
2811 455 -276 -0.7569198 -0.64515436 -0.10415532 0.13727094
2862 424 -327 -0.52852184 -0.82849443 -0.18509911 0.093372181
2766 530 -226 -0.99766052 -0.056231845 -0.038877338 0.11551437
2767 504 -180 -0.92953759 0.35790536 0.088677429 0.095948189
2834 468 -371 -0.64878637 -0.40874141 -0.64187753 0.058933746
2791 496 -321 -0.87617475 -0.34920076 -0.33222961 0.081288062
2789 512 -321 -0.84684044 -0.16874269 -0.50436807 0.098868132
2831 470 -372 -0.65110928 -0.372298 -0.66140074 0.046773754
2880 438 -377 -0.76691169 -0.6296078 0.12425962 0.16278137
2853 454 -374 -0.67772937 -0.68609542 -0.2644918 0.12853262
2824 476 -360 -0.67775238 -0.33673018 -0.65365475 0.043917425
2822 495 -361 -0.6617136 -0.095629036 -0.74363303 0.055613052
2883 426 -366 -0.81449401 -0.57961237 0.025476044 0.14534953
2865 443 -364 -0.63905281 -0.74597573 -0.18743464 0.11353821
2845 460 -362 -0.61841136 -0.63620794 -0.46130985 0.078111112
2799 479 -290 -0.86424357 -0.46745268 -0.18593256 0.08450947
2883 402 -392 -0.84634531 -0.013399175 0.53246611 0.16794896
2811 462 -290 -0.77729046 -0.62412483 -0.079295374 0.1096705
2801 490 -338 -0.79973274 -0.29230872 -0.52438831 0.060176965
2886 426 -343 -0.70472312 -0.69227755 -0.15529713 0.11096261
2825 456 -338 -0.63346189 -0.6393047 -0.43590766 0.042150129
2797 508 -338 -0.76636881 -0.11730289 -0.63160026 0.071496874
2811 444 -289 -0.74698585 -0.65894055 -0.088371664 0.12984119
2811 473 -338 -0.76139146 -0.47490707 -0.44130078 0.05164022
2756 546 -205 -0.93507797 0.29404393 0.19790743 0.10657185
2766 523 -158 -0.88015461 0.42687717 0.20761442 0.08352422
2762 518 -205 -0.98684138 0.153396 -0.051125322 0.098599352
2754 531 -205 -0.97865415 0.18791014 0.08322183 0.094981857
2769 537 -159 -0.80377853 0.56092 0.19826466 0.078217238
2749 502 -204 -0.99051136 0.10846066 -0.08440052 0.10060389
2816 437 -291 -0.74566966 -0.65134555 -0.14044815 0.13090761
2802 515 -340 -0.7183373 -0.0082887178 -0.69564557 0.072131149
2887 423 -344 -0.75170368 -0.63975143 -0.16018602 0.11587278
2779 548 -199 -0.89123446 0.40802073 0.19804084 0.11983648
2771 529 -198 -0.96741807 0.2392277 0.082900569 0.10403159
2811 447 -337 -0.6298334 -0.6388427 -0.44180295 0.05041891
2763 510 -196 -0.97999686 0.19807166 0.019335227 0.10781612
2776 487 -242 -0.91253459 -0.10154963 -0.39619222 0.098116651
2814 465 -338 -0.71566385 -0.54181516 -0.44075119 0.045544345
2806 498 -340 -0.77026439 -0.17082202 -0.61442065 0.068958752
2758 552 -244 -0.98893809 0.067458175 0.13210174 0.1514599
2878 399 -388 -0.84249657 0.028594671 0.53794229 0.16988708
2770 520 -243 -0.9684599 -0.19132772 -0.15962146 0.10397874
2869 438 -343 -0.5475955 -0.81264532 -0.19936605 0.045062911
2799 470 -291 -0.82912982 -0.52977347 -0.17856002 0.087128483
2886 436 -391 -0.81577647 -0.41398686 0.40388575 0.20145072
2813 482 -339 -0.76920182 -0.39842838 -0.4995833 0.066063717
2802 453 -290 -0.78616089 -0.60861391 -0.10742555 0.11263508
2778 504 -243 -0.92925954 -0.016052958 -0.36907876 0.093891658
2809 469 -335 -0.75710517 -0.50508058 -0.41434935 0.053125665
2889 456 -390 -0.79032683 -0.49672049 -0.35868141 0.17867801
2793 471 -285 -0.82967395 -0.5307349 -0.17309415 0.07947477
2792 503 -335 -0.78573656 -0.17440459 -0.59346527 0.063466147
2762 510 -238 -0.96425402 -0.17546983 -0.19855621 0.085452363
2809 451 -334 -0.67851043 -0.6050294 -0.41660911 0.050089352
2804 455 -285 -0.77033186 -0.62900251 -0.10461714 0.11291463
2753 545 -239 -0.98994696 0.013847713 0.14075914 0.14033954
2878 436 -388 -0.74559259 -0.50510919 0.43469119 0.19812581
2889 381 -386 -0.86022645 0.45781428 0.22453642 0.19445589
2774 494 -238 -0.91477829 0.069587797 -0.39791727 0.095706142
2802 487 -335 -0.81599283 -0.33073148 -0.47410163 0.066407345
2878 417 -387 -0.81660897 -0.29337394 0.49707288 0.16217817
2880 425 -340 -0.66849589 -0.72511601 -0.16528782 0.10841142
2863 441 -339 -0.50011331 -0.83404189 -0.23293945 0.037849683
2813 438 -285 -0.76880974 -0.62461579 -0.13706473 0.11892286
2896 401 -388 -0.92407829 0.022994038 0.381511 0.13694225
2773 476 -237 -0.92604959 -0.17340079 -0.33520782 0.1074078
2761 517 -152 -0.89218283 0.37447736 0.25254023 0.083587207
2768 532 -153 -0.81379974 0.51874852 0.26197299 0.092081696
2861 451 -371 -0.6391905 -0.71156794 -0.29173031 0.12509681
2884 434 -374 -0.81745827 -0.57151216 0.071664311 0.15853132
2832 486 -369 -0.6534583 -0.23156884 -0.72067201 0.051827673
2829 465 -368 -0.65823376 -0.47633237 -0.58295429 0.051834259
2900 425 -384 -0.94009739 -0.28759933 0.18303955 0.12445807
2878 441 -381 -0.73386395 -0.65794122 0.16898811 0.18664035
2797 455 -325 -0.77575046 -0.53942728 -0.32745913 0.0669154
2873 428 -332 -0.62189281 -0.76835787 -0.15124631 0.088670321
2789 511 -326 -0.8063066 -0.12814619 -0.57744974 0.085813731
2808 476 -327 -0.80388242 -0.48033386 -0.35078835 0.069757946
2793 492 -325 -0.87058872 -0.33664331 -0.35881275 0.076040082
2848 456 -378 -0.70693511 -0.69400829 -0.13636431 0.17166163
2800 532 -328 -0.55995643 0.34986869 -0.75102639 0.081462421
2821 476 -336 -0.74165291 -0.50755811 -0.43856108 0.066562258
2807 493 -335 -0.80500597 -0.28932792 -0.51793313 0.076985382
2889 426 -341 -0.72285175 -0.6648128 -0.18843892 0.11097988
2795 511 -335 -0.76932347 -0.098706625 -0.63118815 0.077028289
2895 438 -390 -0.92109799 -0.368029 0.12701605 0.17687586
2816 455 -334 -0.66292983 -0.62175184 -0.41707143 0.047696356
2872 414 -386 -0.75852728 -0.28460827 0.5862034 0.16601913
2886 375 -386 -0.95717067 0.20257376 0.20685305 0.21014644
2759 497 -130 -0.88785243 0.22114606 0.40350032 0.097110108
2759 511 -131 -0.84588271 0.36639234 0.38760695 0.075775467
2767 492 -167 -0.90354812 0.41934052 0.088058516 0.11172099
2788 472 -262 -0.86932367 -0.29839286 -0.39400268 0.095779955
2794 468 -308 -0.84579307 -0.47837001 -0.23621218 0.070348568
2877 428 -362 -0.76446134 -0.64365542 -0.036148649 0.15095693
2876 360 -360 -0.5284667 0.82489157 0.20069072 0.18326733
2861 443 -361 -0.59899151 -0.77696729 -0.19372939 0.094550587
2783 499 -308 -0.89420128 -0.35762599 -0.26927254 0.087962493
2821 439 -310 -0.6033687 -0.75903511 -0.24456488 0.086333781
2759 517 -213 -0.99521399 0.045011025 -0.086735994 0.095300987
2817 487 -356 -0.69202942 -0.23272732 -0.68332511 0.042851485
2835 473 -358 -0.658562 -0.47010845 -0.58761746 0.053153079
2786 483 -308 -0.87149954 -0.43276808 -0.23065192 0.065509804
2776 515 -307 -0.88062465 -0.25852606 -0.39706993 0.091977172
2868 393 -360 -0.93518585 0.32404274 0.14291126 0.1993921
2843 457 -359 -0.61592555 -0.66639364 -0.42018476 0.068714008
2761 549 -261 -0.9983139 0.048252475 -0.032266457 0.16706671
2779 487 -261 -0.89185327 -0.14223894 -0.42937848 0.098151684
2760 485 -212 -0.96884549 0.09734863 -0.22773163 0.086887173
2818 455 -310 -0.71326745 -0.65488875 -0.24974051 0.088514127
2777 454 -261 -0.84398574 -0.38034907 -0.37818336 0.081550941
2762 534 -213 -0.99250746 0.10074597 0.069131322 0.1072986
2761 501 -213 -0.98130113 0.057978541 -0.18353917 0.090438776
2773 509 -168 -0.89150989 0.42848974 0.14699213 0.10329957
2785 488 -308 -0.88297743 -0.40072697 -0.24447657 0.07285282
2852 450 -360 -0.61449128 -0.72763157 -0.30488172 0.084498711
2815 433 -308 -0.62829304 -0.7445612 -0.22555794 0.088845983
2777 506 -308 -0.90605396 -0.31259739 -0.28521788 0.084423319
2869 392 -359 -0.92422885 0.37034974 0.092963181 0.19903518
2828 455 -310 -0.62235826 -0.74739385 -0.23253529 0.1026127
2875 433 -362 -0.70860291 -0.70207435 -0.070522517 0.12866665
2783 468 -306 -0.85559964 -0.47101235 -0.21470116 0.064521506
2833 467 -359 -0.64212859 -0.53010029 -0.55377299 0.05331789
2816 484 -358 -0.69787639 -0.23988535 -0.67485076 0.04106582
2869 372 -358 -0.50286585 0.82579476 0.25532132 0.16698578
2773 525 -309 -0.8153466 -0.077131152 -0.57381248 0.088668682
2891 368 -388 -0.95429182 0.29881671 0.0059757838 0.17569187
2798 491 -337 -0.80727297 -0.28586262 -0.51632631 0.060676727
2798 441 -286 -0.79431427 -0.58829254 -0.15158089 0.11126154
2836 443 -338 -0.52309632 -0.76042402 -0.3848708 0.035638258
2879 431 -343 -0.63677007 -0.75601846 -0.15152542 0.087558299
2876 404 -388 -0.79203761 -0.1092645 0.60061443 0.16497779
2788 508 -337 -0.78713542 -0.15229417 -0.59768242 0.063135736
2770 499 -240 -0.9201166 0.016289975 -0.39130554 0.096219398
2864 420 -387 -0.51346964 -0.48869032 0.70535862 0.17638981
2753 550 -242 -0.98643512 0.057777457 0.15364715 0.15320276
2814 457 -337 -0.67266566 -0.60378075 -0.42774954 0.046599951
2766 480 -239 -0.92111742 -0.046258371 -0.38652679 0.083322391
2890 414 -343 -0.91063935 -0.32343453 -0.25714996 0.14674105
2805 474 -337 -0.77263838 -0.46831542 -0.42861474 0.050156042
2805 461 -288 -0.78697598 -0.60554701 -0.11824355 0.10185071
2810 457 -271 -0.77895248 -0.59847546 -0.18724379 0.13473041
2793 470 -270 -0.8539207 -0.44007808 -0.2777603 0.10648619
2771 515 -223 -0.97979063 -0.098135598 -0.17429793 0.11059333
2754 542 -223 -0.98081052 0.12111687 0.15277927 0.12036815
2768 533 -180 -0.91333508 0.37804583 0.15132847 0.086785972
2762 528 -223 -0.99921083 -0.037560839 -0.012921614 0.10719557
2778 502 -223 -0.97242206 0.0023524794 -0.23321645 0.10587887
2784 542 -136 -0.65157533 0.6453768 0.39867073 0.097632356
2787 483 -270 -0.86051589 -0.45381156 -0.23144649 0.10678718
2766 518 -179 -0.93996167 0.3280609 0.09406364 0.08898259
2778 497 -270 -0.92162013 -0.31383216 -0.22831045 0.10737012
2755 501 -177 -0.94254261 0.32949421 0.055199608 0.093058482
2764 559 -225 -0.86153382 0.39678499 0.31673527 0.13242877
2779 526 -135 -0.7305302 0.55591643 0.39658862 0.10021607
2784 546 -187 -0.8122555 0.53368002 0.23542853 0.1045752
2762 516 -137 -0.84535891 0.40779376 0.34506887 0.077894099
2766 532 -138 -0.80415815 0.46216321 0.37381136 0.07245452
2735 492 -182 -0.96221095 0.2693491 0.040013764 0.10511371
2755 511 -184 -0.95818514 0.27953953 0.061145693 0.094163463
2752 525 -184 -0.93728042 0.32966229 0.1132612 0.083600484
2765 540 -209 -0.97539264 0.18656933 0.11747788 0.10363261
2793 457 -257 -0.829243 -0.29778874 -0.47294593 0.10009763
2784 484 -257 -0.8367269 0.029273259 -0.54683751 0.10613366
2769 495 -256 -0.87055868 0.031224985 -0.49107283 0.075091191
2772 513 -209 -0.99315053 0.056510314 -0.10226719 0.11070397
2750 497 -164 -0.93811017 0.31612659 0.14146848 0.10996388
2768 528 -165 -0.87412304 0.45678157 0.16510434 0.082201436
2781 507 -120 -0.70954865 0.35946745 0.60607249 0.097505286
2767 514 -165 -0.90825796 0.38780251 0.15708819 0.09698581
2741 546 -255 -0.98499286 -0.17244837 -0.0071130726 0.11742628
2793 523 -121 -0.59249997 0.52746868 0.60886842 0.10353583
2765 498 -208 -0.98232114 0.077953823 -0.17020096 0.10598372
2776 468 -256 -0.85923511 -0.21379831 -0.4647637 0.087420844
2766 526 -209 -0.9943046 0.10656863 -0.0012302099 0.10074983
2780 518 -114 -0.66226989 0.40480325 0.63050216 0.097200297
2820 444 -302 -0.65808564 -0.73250359 -0.17424628 0.10669588
2752 554 -256 -0.99895316 0.02134534 0.040460449 0.1543292
2770 530 -303 -0.80964857 0.1195498 -0.57461023 0.11817136
2815 477 -353 -0.7247684 -0.37355313 -0.57893771 0.047487818
2781 503 -256 -0.80080158 0.12530795 -0.58567452 0.097809672
2797 478 -302 -0.86363655 -0.45321152 -0.22075172 0.068720862
2894 384 -404 -0.62521541 -0.19961074 0.75449407 0.19977428
2777 465 -253 -0.86449313 -0.23726697 -0.44312066 0.090385012
2878 390 -355 -0.92126685 0.34536657 -0.17885585 0.15581338
2885 430 -358 -0.75822234 -0.64535958 -0.092789255 0.12012517
2802 493 -352 -0.74829692 -0.18833949 -0.63606602 0.042276636
2813 462 -303 -0.77624035 -0.59305745 -0.2138547 0.09814585
2782 484 -255 -0.8187896 0.067515314 -0.57010978 0.10345913
2836 461 -354 -0.60908371 -0.6240924 -0.48941377 0.048427727
2897 412 -358 -0.97054505 -0.23805366 -0.037050955 0.11818475
2848 443 -354 -0.57132292 -0.78278351 -0.24665774 0.066523008
2756 549 -246 -0.99451375 -0.032229207 0.099517055 0.14029713
2779 484 -246 -0.87880874 -0.054271001 -0.47407791 0.10580577
2794 514 -343 -0.71867514 -0.016116148 -0.69515932 0.06596642
2888 400 -399 -0.76507658 -0.11245149 0.63404453 0.15744723
2873 439 -350 -0.61233318 -0.76364756 -0.20467187 0.069110207
2772 500 -246 -0.92182559 -0.00088779844 -0.38760397 0.097709581
2839 451 -347 -0.55667639 -0.71382385 -0.42493165 0.039781041
2812 449 -295 -0.71248972 -0.69398028 -0.10368063 0.11073133
2792 469 -247 -0.82780975 -0.13665493 -0.54411072 0.13129966
2896 406 -352 -0.98817307 -0.031570863 -0.15005758 0.1290552
2827 467 -346 -0.65155089 -0.58363581 -0.48461393 0.047391776
2802 498 -344 -0.76705372 -0.16725607 -0.61939806 0.051716872
2810 466 -295 -0.82380521 -0.54731482 -0.14761958 0.10392261
2815 483 -345 -0.75893182 -0.35567483 -0.54545188 0.06187145
2800 465 -307 -0.83697069 -0.49088141 -0.24189997 0.071812347
2796 484 -307 -0.87052697 -0.4292565 -0.2406691 0.06989184
2880 429 -361 -0.74715966 -0.66044056 -0.074637517 0.13438573
2844 463 -358 -0.59051478 -0.62718368 -0.50787103 0.056606214
2804 497 -356 -0.73977005 -0.16533837 -0.65222967 0.043576304
2851 444 -358 -0.59483278 -0.77495033 -0.21360222 0.071860395
2821 449 -308 -0.65764064 -0.72186339 -0.21545787 0.091506168
2816 479 -356 -0.70571721 -0.31520361 -0.63451546 0.042364676
2773 520 -307 -0.88292611 -0.2203224 -0.41460776 0.09727969
2871 367 -356 -0.51105499 0.84426659 0.16135898 0.17440355
2754 506 -179 -0.94542766 0.31901428 0.066305801 0.094737053
2761 536 -181 -0.91357154 0.37888935 0.14774971 0.090015821
2757 521 -180 -0.94052136 0.32222658 0.10765526 0.094418019
2795 533 -135 -0.60683709 0.67764431 0.41538772 0.1167185
2769 522 -163 -0.87288362 0.45278746 0.18181814 0.1006769
2758 515 -209 -0.99271274 0.082281068 -0.088041119 0.098080516
2761 536 -163 -0.88497335 0.43865606 0.15621477 0.071913116
2751 529 -209 -0.9862749 0.15493473 0.057071768 0.10046211
2755 545 -210 -0.94980311 0.24242771 0.19774443 0.10506342
2749 499 -208 -0.98914748 0.052817278 -0.13710485 0.093639337
2887 410 -350 -0.96488976 -0.21705069 -0.14790769 0.16037126
2813 494 -295 -0.91867322 -0.37693793 -0.11814081 0.13501325
2815 460 -343 -0.67982483 -0.57174903 -0.45928332 0.046012007
2779 538 -202 -0.96149206 0.25867769 0.092837289 0.12539513
2809 505 -344 -0.72633171 -0.068954453 -0.68387693 0.075783767
2791 491 -248 -0.78225291 0.10875387 -0.61339462 0.10992666
2820 449 -294 -0.66571957 -0.73710746 -0.1161465 0.12571582
2816 445 -343 -0.60198998 -0.66218054 -0.44623411 0.04749262
2812 475 -343 -0.74355382 -0.44461411 -0.49944565 0.0453807
2798 518 -343 -0.71468258 0.024656979 -0.69901425 0.068912856
2818 491 -344 -0.74511522 -0.25678718 -0.61551899 0.071616501
2750 542 -290 -0.79291737 -0.60508317 -0.071807846 0.11876864
2781 505 -247 -0.88726485 0.056220744 -0.45782119 0.097039759
2888 425 -351 -0.78845471 -0.60845029 -0.09015251 0.11741921
2815 464 -294 -0.77277392 -0.62138867 -0.12921531 0.11950155
2900 396 -352 -0.980708 0.13184699 -0.14431952 0.10981421
2785 520 -248 -0.90810102 -0.028022163 -0.41781256 0.1219092
2875 439 -350 -0.61602163 -0.7577756 -0.21515931 0.065891586
2811 478 -294 -0.84435123 -0.50280404 -0.18509227 0.10497117
2790 556 -203 -0.71093762 0.65146667 0.26487511 0.14664182
2794 519 -106 -0.50844848 0.41197002 0.75614864 0.084237941
2775 515 -114 -0.71411997 0.34407979 0.60962421 0.089618437
2883 431 -376 -0.83762479 -0.51709569 0.17605892 0.17190383
2862 447 -374 -0.6459471 -0.76105285 -0.059589978 0.16144738
2834 463 -372 -0.70698971 -0.4712719 -0.52732182 0.09642309
2820 453 -318 -0.67965996 -0.64893442 -0.3419742 0.069742724
2791 468 -315 -0.84967136 -0.45909268 -0.25940809 0.064087622
2779 506 -316 -0.88300681 -0.28045362 -0.37635729 0.086104289
2839 467 -368 -0.62333143 -0.49987137 -0.60132062 0.066290908
2855 449 -369 -0.6557191 -0.71163434 -0.2522082 0.12735361
2783 526 -318 -0.68284291 0.11842671 -0.72090268 0.086776875
2844 488 -370 -0.55966884 -0.092577495 -0.82352912 0.060869515
2785 487 -316 -0.87762427 -0.39029732 -0.27828684 0.071822338
2869 421 -321 -0.58274561 -0.77444482 -0.24625742 0.10488947
2880 433 -371 -0.78100556 -0.61749685 0.093424119 0.16384585
2765 493 -170 -0.92625594 0.36545646 0.092148796 0.10638626
2771 523 -172 -0.89752936 0.41147608 0.15851936 0.10101477
2757 501 -218 -0.97348827 0.029703522 -0.22679983 0.082475424
2754 506 -171 -0.93444175 0.33836466 0.11103113 0.10101728
2760 517 -219 -0.99398595 -0.047328025 -0.098752357 0.090123408
2750 544 -220 -0.97215194 0.15621339 0.17469403 0.12124837
2784 515 -129 -0.73404115 0.45465767 0.50445008 0.11869919
2801 533 -130 -0.54541767 0.68061244 0.48916888 0.11130068
2760 487 -217 -0.96051985 0.059267104 -0.27182546 0.088455118
2788 524 -120 -0.6235376 0.46848351 0.62587863 0.095706306
2779 507 -119 -0.71308887 0.34623995 0.60960817 0.099126421
2778 519 -234 -0.9783411 -0.11542781 -0.17182848 0.12158263
2794 456 -276 -0.80139339 -0.56788856 -0.18780613 0.10584473
2766 486 -231 -0.9431088 0.011364524 -0.33228984 0.089119494
2809 490 -279 -0.89948684 -0.4074885 -0.15772261 0.16065598
2764 508 -187 -0.96025985 0.27759597 0.029011559 0.09897346
2797 498 -328 -0.84426379 -0.28420648 -0.45436254 0.082073957
2775 513 -140 -0.8282851 0.46163315 0.3175509 0.099355519
2782 469 -276 -0.82622468 -0.52690536 -0.19930789 0.083110109
2801 483 -327 -0.83366054 -0.41784534 -0.36113071 0.070618659
2750 490 -185 -0.94038928 0.33937371 0.02221356 0.1188791
2868 413 -330 -0.68471342 -0.72666699 0.055881102 0.19577485
2763 501 -232 -0.96749759 -0.11916794 -0.22304127 0.082686439
2759 522 -188 -0.95693654 0.27740744 0.085542828 0.10038621
2800 441 -276 -0.7798394 -0.59149116 -0.20491129 0.11216554
2766 496 -139 -0.89656079 0.26825753 0.35244381 0.10399813
2779 535 -235 -0.99304217 -0.097256854 -0.066395231 0.16367956
2795 513 -328 -0.77589726 -0.08709918 -0.62481773 0.086457945
2801 467 -326 -0.79268354 -0.49035472 -0.36222243 0.06154687
2802 451 -325 -0.7290923 -0.58382332 -0.35717624 0.064838633
2758 547 -234 -0.97816825 0.093294315 0.18569584 0.1344609
2894 398 -351 -0.970945 0.12627523 -0.20327412 0.11813151
2762 497 -201 -0.98076802 0.1637702 -0.10617631 0.097771548
2819 438 -298 -0.67701757 -0.70924467 -0.19651774 0.10897285
2777 483 -249 -0.86766279 -0.056489442 -0.49393347 0.10891835
2780 506 -156 -0.8220948 0.53523165 0.19413182 0.11960492
2759 528 -201 -0.97460246 0.21942881 0.044733927 0.095016874
2884 430 -350 -0.68942493 -0.71029907 -0.14201584 0.092815168
2773 467 -248 -0.86542606 -0.18810126 -0.46438736 0.095340945
2811 483 -343 -0.76502919 -0.35423464 -0.53781801 0.054182295
2829 454 -344 -0.61787689 -0.64466369 -0.4501521 0.041561756
2817 454 -298 -0.70871866 -0.6916039 -0.13929123 0.11038447
2763 518 -155 -0.88860881 0.40407503 0.2170203 0.080479145
2762 543 -249 -0.98931521 -0.14015886 -0.040137675 0.14521693
2780 499 -249 -0.82066923 0.11831392 -0.55902046 0.10296017
2899 395 -402 -0.72536242 -0.176286 0.66541159 0.1603886
2803 497 -343 -0.76969439 -0.18642516 -0.6105867 0.053855084
2759 513 -201 -0.98724371 0.15671702 -0.028098622 0.10543571
2824 469 -344 -0.67514712 -0.56213158 -0.47768664 0.054989722
2797 467 -296 -0.8344304 -0.5162043 -0.19302614 0.07722237
2853 462 -375 -0.66319138 -0.56415755 -0.49183685 0.10829953
2897 428 -379 -0.92524999 -0.34710076 0.15307988 0.12952018
2868 444 -376 -0.68975121 -0.71677959 0.10232422 0.16936161
2775 514 -135 -0.80027407 0.48238757 0.35617918 0.10100336
2774 529 -135 -0.76736099 0.51385111 0.3835547 0.093695864
2820 472 -306 -0.78576469 -0.5660975 -0.24921386 0.11009871
2773 469 -254 -0.86657602 -0.21701656 -0.44938833 0.079255968
2881 381 -355 -0.85436928 0.50744885 -0.11202148 0.14101878
2866 435 -356 -0.65854847 -0.74538326 -0.10352675 0.108704
2887 396 -403 -0.59291971 -0.25391626 0.76418114 0.16686158
2892 401 -357 -0.99113351 0.071745306 -0.11183494 0.13432612
2810 452 -304 -0.73817271 -0.6368562 -0.22252023 0.089286245
2889 377 -402 -0.79265106 -0.22128099 0.56810117 0.21926825
2840 449 -354 -0.58038306 -0.71839195 -0.38349494 0.055816796
2822 465 -352 -0.66493648 -0.56625569 -0.48704615 0.045808967
2823 484 -354 -0.70047545 -0.28632772 -0.65372056 0.05177591
2894 420 -358 -0.91768479 -0.38943794 -0.078693472 0.12779036
2787 552 -130 -0.57907939 0.67882121 0.45151851 0.079660974
2891 427 -370 -0.85961324 -0.50862366 0.048652314 0.12550037
2833 454 -318 -0.58840883 -0.74376696 -0.31715256 0.084813856
2824 436 -317 -0.55299199 -0.77289706 -0.31117499 0.06339781
2867 440 -368 -0.67927927 -0.73353565 -0.022474868 0.1417633
2850 455 -366 -0.64025509 -0.67254847 -0.37114954 0.096172221
2809 467 -316 -0.80459607 -0.51042533 -0.30346525 0.075315095
2800 454 -269 -0.77045906 -0.61260492 -0.17637442 0.13311282
2836 469 -365 -0.63363105 -0.50978684 -0.58191836 0.058171444
2774 496 -256 -0.81571323 0.11811024 -0.56627005 0.089439422
2758 559 -259 -0.76771802 0.63724291 0.067309767 0.17765479
2764 501 -211 -0.98135871 0.067229085 -0.18004242 0.09456984
2770 539 -166 -0.81913865 0.5478844 0.16980745 0.075226121
2777 523 -165 -0.85108769 0.49365574 0.17875595 0.1086458
2758 533 -212 -0.99078619 0.12231945 0.058142453 0.1015761
2767 505 -164 -0.90937471 0.38617599 0.15461484 0.10480888
2766 518 -212 -0.99736381 0.025208931 -0.068044096 0.10111919
2776 553 -214 -0.88759243 0.40271249 0.22361213 0.14148486
2797 535 -121 -0.53102952 0.61343175 0.58455884 0.10447949
2816 433 -302 -0.63824439 -0.74118221 -0.20806986 0.10317568
2804 481 -303 -0.85866278 -0.4517467 -0.24212226 0.086142786
2868 384 -354 -0.64093798 0.68191403 -0.35240838 0.18211782
2810 465 -303 -0.81297261 -0.54072398 -0.21608591 0.090859041
2814 493 -354 -0.70975047 -0.15670134 -0.68680346 0.054266348
2884 420 -358 -0.86228848 -0.5057627 -0.025744848 0.15417215
2862 434 -356 -0.65215504 -0.75100583 -0.10336381 0.11052131
2827 462 -354 -0.63869709 -0.59785336 -0.48439381 0.046573929
2844 448 -355 -0.5993191 -0.73217577 -0.32362837 0.06705416
2818 449 -303 -0.66796672 -0.71941781 -0.19041677 0.095041901
2828 479 -355 -0.69271886 -0.34815624 -0.63160735 0.046875197
2779 481 -256 -0.8655864 -0.099121459 -0.49085143 0.094105765
2888 403 -357 -0.99681878 0.014895253 -0.078297138 0.14214364
2787 466 -256 -0.8476758 -0.22366947 -0.48105907 0.088011988
2844 451 -326 -0.50479287 -0.79860234 -0.32774761 0.054269016
2783 533 -137 -0.69330955 0.61664784 0.37291735 0.091085762
2785 491 -275 -0.87355608 -0.43879706 -0.21061108 0.094106011
2802 460 -321 -0.78194344 -0.53214514 -0.32463217 0.067823127
2840 463 -375 -0.69014877 -0.44895262 -0.56757051 0.11149374
2758 537 -229 -0.9975642 -0.030542653 0.062711813 0.12220962
2820 450 -278 -0.82437503 -0.55201089 -0.12525907 0.14241357
2772 526 -182 -0.92421222 0.35669377 0.13638699 0.092645273
2758 553 -229 -0.95803183 0.18490939 0.21905169 0.14362676
2765 509 -181 -0.93743724 0.33690676 0.087779857 0.091801278
2778 504 -320 -0.87160331 -0.26274127 -0.4138535 0.075647973
2807 464 -277 -0.75840718 -0.64391321 -0.10096763 0.12334532
2758 539 -181 -0.92049527 0.35773507 0.15720735 0.083328508
2779 520 -320 -0.77309734 -0.05084306 -0.63224632 0.078129694
2823 477 -373 -0.66777742 -0.28894493 -0.68599135 0.041682359
2797 478 -276 -0.83448702 -0.522214 -0.17585205 0.097116768
2791 475 -320 -0.84513038 -0.45103562 -0.28691745 0.065037228
2769 515 -136 -0.82872051 0.43839568 0.34789601 0.08516223
2770 509 -229 -0.97418857 -0.12071486 -0.19074757 0.10070673
2767 524 -229 -0.9897992 -0.11269918 -0.087157331 0.12113901
2783 489 -320 -0.88285047 -0.35091111 -0.31214812 0.071510106
2873 423 -328 -0.62421727 -0.77900511 -0.059193678 0.11030414
2857 450 -377 -0.66776478 -0.74367428 -0.032229725 0.1741361
2899 423 -382 -0.92106688 -0.33663151 0.19574255 0.12211455
2876 436 -379 -0.74243098 -0.61401618 0.26791862 0.18206023
2893 406 -380 -0.9541496 -0.05050008 0.2950395 0.1416468
2856 452 -381 -0.63856274 -0.74288356 0.20090182 0.1914673
2898 418 -385 -0.94504857 -0.22027685 0.24158059 0.12657574
2882 436 -383 -0.79779965 -0.50952184 0.32234028 0.19137444
2890 396 -383 -0.92203426 0.1426664 0.35985988 0.14715306
2782 539 -128 -0.64683926 0.6003046 0.47035447 0.092215843
2757 531 -174 -0.91777104 0.37515837 0.13020204 0.075480543
2772 523 -127 -0.75806224 0.46728042 0.45496231 0.096900344
2766 518 -174 -0.92546231 0.3567512 0.12746838 0.091961004
2752 502 -173 -0.93729353 0.33847034 0.083178192 0.099104598
2767 514 -142 -0.87022001 0.35827729 0.3381635 0.079363056
2747 547 -232 -0.98406845 0.049566258 0.17074071 0.13901094
2763 511 -185 -0.94496614 0.31903458 0.072497793 0.097600572
2757 521 -233 -0.98315346 -0.16299683 -0.082711503 0.093058757
2775 530 -143 -0.77406603 0.5451256 0.32196268 0.098265976
2770 538 -234 -0.99723196 -0.050007902 -0.05502411 0.15651327
2763 525 -186 -0.94596398 0.30818209 0.10087578 0.097983785
2753 495 -184 -0.9454053 0.32458878 0.029171836 0.10701636
2761 508 -233 -0.96927726 -0.15083821 -0.19429234 0.079495259
2763 494 -232 -0.95205951 -0.031440206 -0.30429289 0.075308792
2887 432 -380 -0.87695056 -0.42590627 0.2226242 0.16311163
2856 447 -377 -0.59064138 -0.77306825 0.23131852 0.18090124
2819 479 -361 -0.68818092 -0.30911025 -0.65639764 0.036764625
2776 500 -311 -0.89523184 -0.32643926 -0.30331054 0.079736151
2886 429 -366 -0.80484921 -0.59347916 0.00047957667 0.13035855
2774 519 -312 -0.86702132 -0.18338792 -0.46329567 0.085464232
2838 451 -315 -0.51146472 -0.82608151 -0.23662864 0.076924056
2780 481 -310 -0.8775627 -0.42076927 -0.22986281 0.062641926
2845 463 -364 -0.61548537 -0.61543375 -0.49236071 0.068159848
2795 464 -311 -0.82686472 -0.50240654 -0.25274944 0.06523025
2828 429 -312 -0.50031453 -0.81401551 -0.29506648 0.084970959
2863 446 -365 -0.61374199 -0.75507712 -0.2306063 0.10216791
2764 537 -296 -0.64252251 0.44104999 -0.62660968 0.13208316
2764 490 -247 -0.90415323 -0.00091970799 -0.42720747 0.068780527
2801 502 -346 -0.74727929 -0.10923896 -0.65546966 0.059580572
2751 543 -249 -0.99214435 -0.12249625 0.025384391 0.12117255
2798 470 -295 -0.84331882 -0.49805352 -0.20188102 0.078438617
2809 485 -346 -0.76237118 -0.32141572 -0.56167793 0.054565452
2812 454 -296 -0.75122535 -0.64948052 -0.11762422 0.10974086
2833 452 -347 -0.59238851 -0.67093664 -0.44600436 0.042122312
2821 469 -346 -0.69314921 -0.53483182 -0.48321754 0.049143787
2887 397 -397 -0.82038593 -0.047715675 0.56981593 0.15152177
2893 406 -351 -0.98622167 -0.022485649 -0.16389397 0.13325243
2776 474 -247 -0.87540913 -0.085018054 -0.47584745 0.11052652
2896 425 -352 -0.85403401 -0.51268196 -0.088222645 0.1130532
2807 435 -294 -0.76572061 -0.62756866 -0.14081717 0.1055673
2858 438 -349 -0.57411206 -0.79770899 -0.18454188 0.066618897
2755 507 -204 -0.99077976 0.11586063 -0.070226759 0.098604113
2771 526 -206 -0.99382651 0.10789185 -0.025851434 0.10789096
2757 492 -203 -0.9815895 0.14689501 -0.12208141 0.10281164
2890 417 -351 -0.92708659 -0.36071354 -0.10196217 0.14475319
2795 441 -293 -0.78033245 -0.61099005 -0.13331325 0.094332874
2819 487 -347 -0.74095434 -0.2796891 -0.61054134 0.066943601
2806 501 -347 -0.73089325 -0.071111411 -0.67877704 0.060211778
2897 402 -351 -0.9840942 0.02305322 -0.17614533 0.11891136
2783 471 -294 -0.82941937 -0.51320773 -0.22063847 0.078626558
2833 441 -346 -0.52647632 -0.74625504 -0.40734032 0.033851463
2822 455 -346 -0.63747758 -0.61694127 -0.46152553 0.040566921
2871 431 -350 -0.65554374 -0.74648398 -0.11412356 0.10745393
2770 472 -248 -0.89448708 -0.16297723 -0.41633061 0.090478547
2818 471 -346 -0.71872211 -0.49058312 -0.4927136 0.045757089
2802 458 -295 -0.80422604 -0.5739305 -0.15435128 0.095797159
2760 496 -156 -0.92434502 0.32909521 0.19308743 0.096284464
2764 487 -248 -0.90670323 -0.036078513 -0.42022321 0.068780802
2752 506 -193 -0.98002577 0.19778757 0.020724135 0.10376348
2774 525 -195 -0.96387923 0.25179633 0.08680734 0.098427474
2749 492 -192 -0.95993787 0.27774709 -0.037093606 0.11570903
2770 499 -147 -0.90782636 0.31774941 0.27365422 0.092654355
2813 466 -336 -0.72269392 -0.54794604 -0.42127013 0.048514392
2798 502 -336 -0.78448969 -0.16504824 -0.59777498 0.064558432
2808 485 -336 -0.78912014 -0.37696543 -0.48496029 0.075578302
2823 448 -337 -0.60724545 -0.67450035 -0.41988343 0.043810308
2800 522 -337 -0.66553557 0.14927231 -0.7312867 0.081017151
2892 452 -393 -0.81198615 -0.4534286 -0.36753368 0.1929055
2896 420 -345 -0.86412412 -0.48067641 -0.14912941 0.12496642
2873 410 -389 -0.74083722 -0.23425473 0.62951165 0.16433747
2873 430 -390 -0.68875325 -0.4741649 0.54844016 0.18377432
2880 438 -343 -0.58239949 -0.78655112 -0.20530024 0.052584495
2882 413 -387 -0.82427299 -0.25247437 0.50678468 0.15941654
2867 451 -386 -0.708049 -0.70264596 0.070394382 0.19796608
2872 432 -386 -0.71007216 -0.54632318 0.44421667 0.1703112
2899 375 -388 -0.97569817 0.19947705 0.090675518 0.14651087
2823 466 -348 -0.66130441 -0.57467562 -0.48210403 0.045518592
2790 469 -298 -0.84558219 -0.49319026 -0.20433834 0.072827101
2811 434 -298 -0.71391559 -0.67762142 -0.17650431 0.11258658
2800 502 -347 -0.74642587 -0.10857169 -0.65655202 0.057437807
2845 449 -349 -0.54877412 -0.74574393 -0.37777361 0.036156498
2879 435 -353 -0.65777409 -0.72992808 -0.18584497 0.095905989
2886 392 -401 -0.68596965 -0.12442486 0.71691287 0.19427362
2811 484 -348 -0.75165099 -0.32385793 -0.57457525 0.055896081
2857 448 -375 -0.67034072 -0.74164653 -0.024570402 0.17775169
2790 481 -323 -0.84673959 -0.4269928 -0.3173472 0.063284434
2838 453 -326 -0.55069607 -0.76005113 -0.34504518 0.057623804
2790 450 -273 -0.81324142 -0.52182764 -0.25755429 0.10025161
2790 463 -322 -0.81195241 -0.49474189 -0.30978015 0.065820284
2842 464 -374 -0.6645205 -0.4426057 -0.60209024 0.0897751
2861 419 -327 -0.57382745 -0.79091656 -0.21253975 0.12494256
2787 467 -274 -0.83058453 -0.51399428 -0.21433465 0.092858255
2833 481 -374 -0.62977731 -0.25010318 -0.73541075 0.04305518
2880 433 -377 -0.78048879 -0.57966971 0.23413701 0.17471011
2754 509 -165 -0.9236998 0.36073476 0.12903097 0.098167248
2751 547 -254 -0.98966402 -0.14119181 0.02510239 0.13360362
2774 538 -212 -0.98578948 0.15865454 0.055206574 0.12126432
2773 492 -255 -0.82847148 0.089668907 -0.55280602 0.092517443
2763 505 -254 -0.93201846 -0.20348339 -0.2998935 0.06865824
2807 449 -306 -0.74694234 -0.62730467 -0.22037682 0.090132192
2815 435 -306 -0.63986784 -0.73986131 -0.2077848 0.090942696
2753 495 -165 -0.93282515 0.34301007 0.11036938 0.1166668
2785 475 -304 -0.86466497 -0.45277101 -0.21760696 0.071438119
2759 475 -253 -0.89703667 -0.08564087 -0.43357906 0.075173587
2757 505 -210 -0.98759747 0.07518255 -0.13783608 0.089881726
2810 464 -306 -0.79892141 -0.55148095 -0.23998615 0.090147056
2889 429 -391 -0.83945334 -0.35829267 0.40858835 0.17806292
2885 418 -342 -0.85313964 -0.47403464 -0.21781646 0.15629415
2797 504 -337 -0.76720315 -0.12990907 -0.62811065 0.067173578
2796 524 -338 -0.66345322 0.14922409 -0.73318619 0.081710771
2897 410 -391 -0.91675067 -0.08151076 0.39105529 0.14001402
2842 452 -339 -0.55568659 -0.73120838 -0.39565989 0.037256215
2809 467 -336 -0.735268 -0.52072322 -0.43385288 0.05016071
2813 487 -338 -0.78344911 -0.3391653 -0.52074414 0.073920541
2875 437 -342 -0.58005965 -0.78913701 -0.20197457 0.050020266
2759 505 -195 -0.98525655 0.17092766 -0.0072971466 0.10336478
2742 541 -243 -0.98662513 -0.14373951 0.076875098 0.11709035
2760 520 -196 -0.97705996 0.2072361 0.049061693 0.09285523
2765 495 -151 -0.90890461 0.32524163 0.26097938 0.099755608
2764 509 -152 -0.90068525 0.35670561 0.24804674 0.087523483
2736 486 -193 -0.90877235 0.41014028 -0.076926425 0.11329195
2778 538 -198 -0.95161432 0.27139249 0.14413996 0.10937928
2790 476 -243 -0.76386517 0.083131991 -0.63999915 0.12894395
2764 486 -242 -0.92610151 -0.043249518 -0.37478727 0.071586408
2762 504 -141 -0.89116919 0.33805177 0.30255347 0.089882076
2874 436 -358 -0.68019783 -0.72322315 -0.11949521 0.10955615
2804 503 -352 -0.720797 -0.058771186 -0.69065017 0.057298824
2878 377 -357 -0.81136292 0.58447087 -0.0091611212 0.15505098
2834 469 -355 -0.64421928 -0.53759158 -0.54403746 0.056215364
2844 451 -355 -0.593472 -0.71629262 -0.36703667 0.060711205
2893 399 -360 -0.99201697 0.083979338 -0.09407331 0.1323752
2896 419 -361 -0.94962001 -0.30793434 -0.058295459 0.12299429
2823 486 -354 -0.68573254 -0.23709024 -0.68815631 0.050870825
2769 508 -236 -0.96682984 -0.14729153 -0.20867522 0.098422892
2771 490 -235 -0.93972057 0.0086003095 -0.34183493 0.090444408
2779 518 -191 -0.96360821 0.26134995 0.056172956 0.14756562
2759 540 -237 -0.99606633 -0.072198108 0.051373847 0.12943362
2764 498 -189 -0.95927757 0.28239548 -0.0062702121 0.10356997
2773 534 -191 -0.94799048 0.29279289 0.12484533 0.10523545
2795 501 -332 -0.81068599 -0.2316689 -0.53769678 0.07505171
2803 485 -332 -0.81761235 -0.38694921 -0.42635703 0.070440933
2800 475 -284 -0.83740789 -0.52648532 -0.14683759 0.093065992
2787 517 -332 -0.75900835 -0.030011706 -0.65038878 0.082740851
2838 469 -380 -0.7149713 -0.29673737 -0.63305849 0.11679918
2834 455 -333 -0.58400548 -0.70344859 -0.4050898 0.042554166
2808 458 -284 -0.74291617 -0.66767794 -0.047768515 0.12234623
2870 425 -335 -0.63293529 -0.75725907 -0.16109489 0.11058422
2803 468 -330 -0.78669602 -0.48982725 -0.3757374 0.059782978
2877 439 -383 -0.72990942 -0.63013601 0.26487884 0.20005289
2896 424 -385 -0.92307395 -0.32755473 0.20159969 0.13637997
2811 442 -284 -0.76880473 -0.62565535 -0.13226736 0.12549771
2851 453 -381 -0.5900768 -0.75762069 0.27896279 0.19297776
2804 529 -123 -0.50730091 0.64390737 0.57273823 0.12904572
