# .PCD v0.7 - Point Cloud Data file format
VERSION 0.7
FIELDS x y z normal_x normal_y normal_z curvature
SIZE 4 4 4 4 4 4 4
TYPE F F F F F F F
COUNT 1 1 1 1 1 1 1
WIDTH 524
HEIGHT 1
VIEWPOINT 0 0 0 1 0 0 0
POINTS 524
DATA ascii
2431 -1536 -119 -0.93037897 -0.31529787 0.18703525 0.16196667
2414 -1554 -112 -0.91463864 -0.32288966 0.24326627 0.14259353
2407 -1564 -108 -0.93242908 -0.279266 0.22931738 0.13781124
2409 -1537 -115 -0.83374453 -0.48791853 0.2584677 0.14838563
2444 -1573 -157 -0.67512 0.26134732 -0.68986273 0.13357991
2421 -1570 -106 -0.92950612 -0.25145692 0.26979226 0.1143139
2432 -1554 -114 -0.97946006 -0.10666119 0.1711181 0.15254113
2432 -1588 -150 -0.89415085 -0.0091525586 -0.44767222 0.10939885
2429 -1564 -110 -0.97029173 -0.15798031 0.18323821 0.12561277
2415 -1532 -116 -0.85690284 -0.46346343 0.22565265 0.15875012
2431 -1542 -70 -0.53337932 -0.58853924 0.60755926 0.088316366
2413 -1597 -140 -0.93737185 -0.12971312 -0.3232778 0.091189556
2426 -1573 -153 -0.89391339 0.071221091 -0.44254532 0.13387905
2424 -1594 -145 -0.92449576 -0.10679378 -0.36592701 0.096624143
2417 -1571 -100 -0.89740473 -0.26373017 0.35371059 0.12129936
2426 -1564 -104 -0.92428249 -0.22170687 0.31072181 0.1274292
2416 -1532 -111 -0.8520143 -0.44908443 0.26906285 0.15511541
2430 -1569 -152 -0.81831378 0.1424135 -0.55684918 0.13233475
2431 -1554 -108 -0.92818207 -0.20298471 0.31188974 0.14689687
2427 -1592 -145 -0.9234103 -0.065023988 -0.37826616 0.10700344
2433 -1583 -149 -0.87006313 0.069298699 -0.48804492 0.11155391
2422 -1600 -141 -0.92925251 -0.16245274 -0.33181161 0.090841793
2445 -1552 -70 -0.61197245 -0.50059217 0.61228848 0.091038197
2427 -1554 -113 -0.96409893 -0.17486323 0.19984004 0.14167419
2425 -1609 -144 -0.89075297 -0.21995582 -0.39771676 0.084358767
2437 -1583 -157 -0.93040848 -0.0084607294 -0.36642662 0.12301053
2432 -1603 -149 -0.90632796 -0.18868341 -0.3781113 0.093379803
2435 -1593 -153 -0.91815203 -0.094967328 -0.3846792 0.10093179
2423 -1588 -125 -0.97538978 -0.21782601 -0.034156293 0.10629843
2423 -1576 -129 -0.9910304 -0.086113386 -0.10219246 0.10963064
2452 -1635 -168 -0.75493538 -0.64214122 -0.13314341 0.12038508
2424 -1563 -133 -0.99258292 -0.029197894 -0.11801068 0.11771757
2451 -1596 -179 -0.87743837 -0.41209313 -0.24552208 0.17389502
2462 -1616 -177 -0.79120135 -0.45960107 -0.40344432 0.17181481
2462 -1629 -173 -0.76656872 -0.53591633 -0.35378817 0.14706133
2451 -1554 -141 -0.58194244 0.54922742 -0.59974355 0.18734762
2423 -1550 -92 -0.76982045 -0.39309338 0.50284594 0.14464581
2416 -1559 -95 -0.81803578 -0.36959732 0.44069868 0.13934816
2432 -1542 -88 -0.70262408 -0.39902413 0.58915126 0.13859092
2426 -1558 -138 -0.98391932 -0.0019740583 -0.17860237 0.13541785
2455 -1601 -180 -0.8367936 -0.46128294 -0.29494837 0.17149548
2423 -1558 -88 -0.75837553 -0.38426805 0.52650219 0.13739023
2421 -1578 -130 -0.98652792 -0.12597488 -0.10436971 0.10613994
2419 -1588 -126 -0.9765085 -0.20926753 -0.051364195 0.10128645
2434 -1541 -96 -0.79047191 -0.32705951 0.51786703 0.15266308
2427 -1549 -92 -0.7586754 -0.3780795 0.5305351 0.14933947
2462 -1618 -177 -0.77093303 -0.48475367 -0.41312957 0.17412943
2426 -1570 -134 -0.98882824 -0.044243399 -0.14234206 0.11274848
2457 -1625 -173 -0.77073056 -0.58832222 -0.24464525 0.15689735
2448 -1630 -168 -0.8130632 -0.55879682 -0.16332263 0.12128091
2412 -1596 -139 -0.94394165 -0.13356696 -0.30188423 0.092739172
2414 -1552 -141 -0.9685691 -0.16915265 -0.18237671 0.13901861
2418 -1577 -141 -0.96127474 -0.035385028 -0.27331078 0.10480697
2429 -1543 -94 -0.80036378 -0.33436289 0.49761364 0.15312175
2404 -1583 -125 -0.98645282 -0.089062303 -0.13776352 0.098409154
2412 -1566 -127 -0.99106807 -0.13171287 -0.020873506 0.11043116
2418 -1547 -128 -0.96768856 -0.25075752 0.026449135 0.14226773
2434 -1540 -81 -0.62225461 -0.49232596 0.60861671 0.11703787
2448 -1536 -96 -0.84247613 -0.10092772 0.52919519 0.14492343
2430 -1571 -143 -0.93074673 0.082632795 -0.35620564 0.12461992
2441 -1557 -96 -0.77081764 -0.32919791 0.54540712 0.15667677
2425 -1594 -143 -0.93419516 -0.12845334 -0.33283499 0.10177438
2415 -1583 -138 -0.96856838 -0.086194761 -0.23333634 0.10020439
2455 -1631 -144 -0.70530367 -0.69597834 0.13476248 0.10299942
2430 -1565 -87 -0.71910483 -0.38066462 0.58136278 0.13716342
2412 -1561 -135 -0.98738039 -0.09159667 -0.12918989 0.11850871
2444 -1554 -85 -0.61816162 -0.47936484 0.6229651 0.11459966
2448 -1536 -83 -0.50155181 -0.65631127 0.56365007 0.1094889
2417 -1544 -133 -0.93631202 -0.34721053 0.052580189 0.15318035
2430 -1559 -100 -0.90005606 -0.20950626 0.38210756 0.13683911
2415 -1556 -148 -0.94421721 -0.015566792 -0.32895511 0.11969779
2442 -1548 -97 -0.84375715 -0.19893576 0.498496 0.15220875
2423 -1598 -155 -0.9489103 -0.28339317 -0.13877185 0.1252768
2430 -1584 -152 -0.91724545 -0.01426498 -0.39806694 0.1143939
2423 -1550 -94 -0.78567809 -0.3780331 0.48969471 0.1446469
2428 -1531 -92 -0.72278827 -0.42778525 0.5427494 0.15500635
2449 -1546 -81 -0.59460616 -0.50898999 0.62239265 0.10064626
2417 -1579 -140 -0.96680361 -0.060818721 -0.24817698 0.10089394
2416 -1563 -136 -0.98691761 -0.071794443 -0.14435752 0.11603837
2436 -1554 -84 -0.64257455 -0.4492605 0.62069559 0.13001491
2416 -1595 -144 -0.92747813 -0.11113786 -0.35697731 0.096836612
2414 -1550 -146 -0.9439953 -0.10021481 -0.31437209 0.14957158
2424 -1583 -140 -0.95429873 -0.03100213 -0.29724211 0.11282325
2428 -1573 -144 -0.91928816 0.081492007 -0.38505623 0.1231586
2419 -1540 -150 -0.87944734 -0.09730643 -0.46594405 0.18390217
2418 -1570 -105 -0.92518151 -0.23996517 0.29403394 0.11773276
2428 -1549 -97 -0.82353473 -0.31833661 0.46952364 0.15034063
2417 -1556 -101 -0.88029504 -0.32337207 0.34714717 0.13985573
2447 -1548 -68 -0.50067395 -0.64496624 0.57735974 0.092495598
2435 -1577 -155 -0.87084877 0.11489169 -0.4779354 0.13129741
2439 -1567 -159 -0.74131614 0.22719942 -0.63153058 0.14051458
2436 -1589 -151 -0.8593663 0.048510037 -0.5090543 0.11243518
2432 -1609 -143 -0.88034564 -0.27771839 -0.3845309 0.093643837
2432 -1598 -147 -0.89126784 -0.12722844 -0.43526372 0.09064538
2404 -1558 -103 -0.89104033 -0.32706484 0.31476316 0.14526899
2419 -1548 -87 -0.72996795 -0.39846799 0.55531079 0.14625843
2439 -1576 -156 -0.83013976 0.15257302 -0.53627384 0.13492619
2440 -1562 -111 -0.98454213 -0.051652789 0.16735794 0.14328307
2436 -1587 -152 -0.87332678 0.028934892 -0.48627484 0.11593319
2430 -1595 -148 -0.87806779 -0.066642135 -0.47387326 0.093933925
2433 -1570 -107 -0.93531185 -0.23670022 0.26299185 0.12354612
2426 -1604 -144 -0.89248168 -0.16736731 -0.41888511 0.084604293
2434 -1549 -76 -0.54725486 -0.57498938 0.60819364 0.098768733
2436 -1553 -97 -0.87506455 -0.16692454 0.4543108 0.15638812
2451 -1620 -174 -0.82965386 -0.49006048 -0.26742327 0.13048145
2456 -1612 -178 -0.84741253 -0.39873052 -0.35057953 0.15097529
2430 -1561 -140 -0.96351904 0.066083975 -0.25935304 0.13607016
2456 -1601 -182 -0.8117373 -0.51271129 -0.27966011 0.17659336
2432 -1550 -144 -0.91877431 0.091262743 -0.38408977 0.1528285
2421 -1578 -132 -0.98727214 -0.09191636 -0.12978892 0.099729866
2425 -1570 -136 -0.98298204 -0.038245514 -0.17967641 0.11795005
2445 -1626 -169 -0.83014435 -0.53042138 -0.17179489 0.11405851
2415 -1574 -121 -0.99593115 -0.089271389 -0.01232364 0.10346204
2420 -1555 -119 -0.97755623 -0.18885338 0.093371324 0.1320952
2423 -1535 -117 -0.90072244 -0.37270427 0.2231382 0.15944514
2428 -1571 -131 -0.99166465 -0.072751828 -0.10634078 0.11646811
2434 -1553 -89 -0.6856426 -0.43571034 0.58313864 0.13974716
2430 -1548 -138 -0.98140585 0.036056284 -0.18852739 0.14757758
2436 -1542 -93 -0.75942421 -0.35678211 0.54404175 0.14960562
2430 -1560 -135 -0.98389 0.035482019 -0.17521822 0.13123551
2455 -1590 -180 -0.87207192 -0.38816202 -0.29802802 0.20738375
2450 -1598 -177 -0.88779259 -0.37285036 -0.26982766 0.15362065
2459 -1637 -165 -0.72968835 -0.67967069 -0.07485079 0.11717547
2455 -1613 -173 -0.83594006 -0.4159154 -0.35807624 0.13798812
2449 -1620 -169 -0.85057378 -0.48786575 -0.19624296 0.11480537
2424 -1580 -127 -0.98952985 -0.13662164 -0.046531618 0.10660694
2417 -1582 -139 -0.96506143 -0.079115301 -0.24979438 0.10223415
2422 -1562 -140 -0.98214716 -0.06725239 -0.17568162 0.11732837
2426 -1546 -92 -0.75396091 -0.39419302 0.52550435 0.14982738
2424 -1551 -141 -0.97241712 0.027242351 -0.23165235 0.14460859
2436 -1551 -93 -0.75898409 -0.34718221 0.55082452 0.14733118
2428 -1573 -144 -0.91928816 0.081492007 -0.38505623 0.1231586
2426 -1592 -147 -0.87810379 -0.020450344 -0.47803292 0.093637481
2424 -1564 -95 -0.86549258 -0.25286859 0.43241194 0.1224949
2409 -1544 -87 -0.7183069 -0.44072381 0.53832865 0.15819581
2424 -1533 -90 -0.75529736 -0.38680431 0.52906358 0.13987453
2419 -1554 -99 -0.86084688 -0.31602204 0.39883924 0.14456567
2422 -1552 -146 -0.92518872 0.067405544 -0.37347338 0.14315724
2422 -1576 -146 -0.94986802 -0.006807758 -0.3125771 0.11494332
2415 -1596 -145 -0.91715103 -0.11901814 -0.38035345 0.090994693
2436 -1574 -90 -0.6698733 -0.43763599 0.59978712 0.12702835
2421 -1542 -88 -0.74887437 -0.36347556 0.55414134 0.14061345
2432 -1552 -115 -0.97097582 -0.15562746 0.18162075 0.15539908
2430 -1567 -161 -0.88909161 0.093489125 -0.44808033 0.15354322
2443 -1624 -161 -0.85754454 -0.47042897 -0.20811968 0.11933763
2448 -1603 -162 -0.90771347 -0.29273784 -0.30060083 0.12953399
2415 -1564 -114 -0.96865702 -0.19712648 0.15114473 0.11872534
2422 -1594 -133 -0.97081381 -0.19608386 -0.13810004 0.10855772
2428 -1559 -144 -0.94846052 0.052765824 -0.31247148 0.13375366
2434 -1590 -137 -0.9663645 -0.1593639 -0.20184833 0.11853132
2437 -1579 -141 -0.94363803 0.024810579 -0.33004802 0.13060635
2416 -1564 -102 -0.90517527 -0.27770168 0.3217757 0.13379358
2432 -1588 -106 -0.90828663 -0.34151068 0.24163181 0.1004406
2418 -1551 -98 -0.82168263 -0.3724013 0.43145674 0.13939521
2422 -1540 -94 -0.79827625 -0.34490737 0.49375489 0.1526278
2444 -1604 -170 -0.88272148 -0.42830467 -0.19328178 0.12732767
2442 -1627 -169 -0.81774408 -0.56397241 -0.11502079 0.12473832
2419 -1568 -120 -0.98503333 -0.1637198 0.053899813 0.1135556
2431 -1572 -170 -0.98621529 -0.13295755 -0.098496914 0.15794168
2432 -1537 -76 -0.59614527 -0.53719717 0.59668249 0.10291447
2416 -1543 -120 -0.91969484 -0.34729439 0.18316118 0.15038894
2424 -1597 -144 -0.92103046 -0.13467655 -0.3654657 0.096649505
2422 -1576 -101 -0.90822774 -0.25961384 0.32821178 0.10876647
2440 -1585 -152 -0.80929196 0.13341853 -0.57205433 0.11304857
2439 -1549 -65 -0.55717129 -0.58784503 0.58651388 0.087896481
2425 -1566 -105 -0.93486834 -0.21353146 0.28359383 0.12007764
2431 -1591 -148 -0.87910098 -0.016780792 -0.47634 0.10336268
2437 -1572 -156 -0.8252902 0.164248 -0.54029495 0.13708945
2432 -1558 -109 -0.94293106 -0.17179596 0.28524944 0.1429586
2425 -1541 -112 -0.88895577 -0.34241748 0.30415106 0.14607376
2437 -1617 -146 -0.87169981 -0.35592648 -0.33683217 0.11176001
2416 -1557 -134 -0.98998445 -0.1171421 -0.078793772 0.12890668
2418 -1574 -138 -0.97511917 -0.049290877 -0.21613187 0.1054185
2426 -1594 -142 -0.93453282 -0.11713598 -0.33604684 0.1047465
2417 -1525 -127 -0.80130053 -0.575831 0.16228388 0.15252814
2431 -1560 -85 -0.66968435 -0.42997491 0.60551167 0.13185941
2433 -1551 -131 -0.99670774 -0.020366877 -0.078478299 0.14325394
2446 -1598 -160 -0.90574867 -0.157268 -0.39355564 0.13155399
2440 -1559 -74 -0.54302531 -0.55956423 0.62610811 0.092127047
2427 -1561 -117 -0.98009193 -0.16739528 0.1067644 0.12809582
2427 -1573 -113 -0.99108523 -0.10395796 0.08332371 0.11324565
2425 -1584 -109 -0.9473508 -0.26000243 0.18688244 0.10288076
2435 -1578 -163 -0.96252912 -0.039847914 -0.26823479 0.14266661
2426 -1548 -120 -0.96048355 -0.25035641 0.121627 0.14876188
2423 -1536 -77 -0.59575289 -0.53253359 0.60123742 0.1212866
2436 -1603 -156 -0.92543763 -0.26937291 -0.26646477 0.10602909
2425 -1607 -151 -0.92008168 -0.23056147 -0.31668782 0.10176162
2411 -1563 -100 -0.86914527 -0.33569115 0.36317742 0.14005224
2418 -1552 -103 -0.88705981 -0.31247282 0.33983195 0.13355458
2416 -1536 -106 -0.8408466 -0.4169322 0.34517321 0.14236338
2421 -1538 -83 -0.70571601 -0.40143177 0.58379573 0.13197538
2414 -1574 -129 -0.99030298 -0.076278672 -0.11611035 0.10461988
2413 -1551 -130 -0.96489322 -0.25811657 0.048548661 0.13845089
2438 -1596 -161 -0.93737805 -0.26702985 -0.22364576 0.10982567
2422 -1569 -111 -0.96516472 -0.20673776 0.16036393 0.11967415
2429 -1548 -111 -0.92182285 -0.23278286 0.30992728 0.14887117
2430 -1566 -160 -0.89359552 0.088225059 -0.44011757 0.15383881
2439 -1622 -161 -0.88955462 -0.40087676 -0.21906686 0.11982972
2430 -1576 -151 -0.83824462 0.13611244 -0.52803355 0.12981346
2432 -1581 -104 -0.930861 -0.23988217 0.27559814 0.099993989
2420 -1593 -150 -0.93252426 -0.13967146 -0.33300197 0.11417697
2428 -1553 -104 -0.92443413 -0.1846309 0.33366597 0.15074225
2413 -1577 -129 -0.98947382 -0.087162539 -0.11551695 0.10183588
2416 -1559 -127 -0.99458307 -0.098392084 -0.033519115 0.11929496
2419 -1540 -125 -0.932428 -0.33829722 0.12701578 0.15757382
2429 -1539 -76 -0.60976142 -0.51709282 0.60067123 0.10596926
2441 -1580 -161 -0.88361746 0.09447249 -0.45857945 0.13032064
2447 -1597 -158 -0.87873542 -0.031064177 -0.47629738 0.1341165
2441 -1606 -154 -0.90524834 -0.28458422 -0.31549531 0.10243059
2443 -1621 -151 -0.87346721 -0.3556473 -0.33252066 0.1140191
2413 -1568 -111 -0.96184039 -0.20735726 0.17851076 0.11145922
2429 -1550 -105 -0.91125339 -0.2237881 0.34574002 0.15440252
2416 -1556 -108 -0.92049533 -0.27439272 0.27820298 0.13606863
2430 -1579 -156 -0.93286729 -0.032451387 -0.3587555 0.12598071
2421 -1555 -107 -0.92906463 -0.22122249 0.29647842 0.13303138
2433 -1558 -157 -0.70629668 0.22012511 -0.67282242 0.13997924
2416 -1594 -154 -0.95770359 -0.26801014 -0.10475887 0.13420744
2428 -1553 -82 -0.62144011 -0.4658148 0.62994343 0.12962012
2437 -1549 -128 -0.99733174 0.024630686 -0.068721645 0.1500079
2417 -1568 -134 -0.98633522 -0.039692853 -0.15989818 0.10980663
2423 -1603 -142 -0.89806557 -0.15533951 -0.41151896 0.079628631
2418 -1552 -131 -0.98845631 -0.14888513 -0.028059106 0.12914111
2416 -1583 -138 -0.96677411 -0.075572044 -0.24420612 0.101321
2425 -1550 -103 -0.86031032 -0.34632334 0.37406722 0.14673688
2417 -1560 -99 -0.84771025 -0.35645562 0.39284444 0.13913091
2445 -1541 -78 -0.54730219 -0.57907289 0.60426384 0.098743401
2401 -1539 -119 -0.83965951 -0.50697684 0.19479838 0.14544439
2407 -1570 -112 -0.98152864 -0.14309001 0.12699126 0.11494476
2411 -1559 -116 -0.96446157 -0.22336921 0.14113832 0.13449956
2437 -1550 -74 -0.52279532 -0.59137708 0.61396915 0.10041185
2438 -1576 -154 -0.80631489 0.16759695 -0.56724572 0.12360146
2445 -1632 -155 -0.83914709 -0.52603304 -0.13828032 0.1041653
2445 -1606 -155 -0.89414245 -0.33549353 -0.29656935 0.12278744
2415 -1562 -109 -0.94606036 -0.21311359 0.24403371 0.13120744
2408 -1579 -110 -0.97454983 -0.17317452 0.14234877 0.10406909
2452 -1557 -59 -0.64114738 -0.5111869 0.57237917 0.10217702
2422 -1607 -145 -0.88320345 -0.1488243 -0.44475058 0.078231052
2420 -1565 -139 -0.98368996 -0.059982207 -0.16957663 0.11491672
2431 -1592 -143 -0.94083583 -0.12961388 -0.31309462 0.11595201
2423 -1576 -104 -0.93424898 -0.23504795 0.26820028 0.1091833
2433 -1571 -150 -0.84662133 0.13053124 -0.51593983 0.11918448
2449 -1637 -162 -0.74345708 -0.66268903 -0.090082973 0.11835643
2444 -1596 -155 -0.87727636 -0.039967764 -0.47831884 0.11936826
2447 -1617 -158 -0.87403238 -0.42392483 -0.23739237 0.11512699
2433 -1587 -148 -0.88908929 0.019439936 -0.45732087 0.11327895
2425 -1603 -139 -0.94077563 -0.25646466 -0.22173682 0.09670727
2426 -1571 -104 -0.9323737 -0.2280179 0.28051221 0.10650077
2433 -1554 -61 -0.60379177 -0.53835958 0.58788121 0.087013975
2428 -1595 -143 -0.91861469 -0.099955022 -0.38230366 0.10097055
2431 -1574 -151 -0.81462169 0.15255615 -0.55956966 0.12582128
2419 -1546 -129 -0.97476423 -0.2231859 0.0047689355 0.14478196
2415 -1570 -122 -0.99355334 -0.11335312 0.0016796039 0.10606377
2418 -1559 -126 -0.99426913 -0.10306627 -0.028395765 0.1180817
2421 -1549 -80 -0.63836306 -0.45304808 0.62228608 0.13080648
2411 -1581 -119 -0.98938531 -0.14530183 -0.0020108277 0.099946789
2444 -1600 -162 -0.91426861 -0.34341785 -0.21488851 0.11217944
2446 -1612 -159 -0.89184976 -0.37023625 -0.25986382 0.11306003
2450 -1635 -151 -0.79125589 -0.59636956 -0.13512039 0.096130013
2441 -1540 -86 -0.63114625 -0.4693296 0.61756307 0.11708815
2445 -1589 -166 -0.91683817 0.025328703 -0.39845473 0.14775121
2420 -1550 -125 -0.97158194 -0.23069629 0.052988235 0.14480072
2417 -1583 -114 -0.95707053 -0.25692764 0.13417958 0.10039207
2437 -1617 -154 -0.89692003 -0.35020405 -0.26998445 0.11501304
2426 -1578 -118 -0.99032009 -0.13421647 0.035384394 0.11038014
2430 -1568 -122 -0.99938476 -0.030295378 -0.01766856 0.120914
2416 -1591 -139 -0.95586783 -0.10918806 -0.27275407 0.089822032
2422 -1573 -140 -0.97079933 -0.022144996 -0.23886874 0.1087466
2431 -1556 -141 -0.96306205 0.075214922 -0.25856191 0.13892132
2423 -1555 -92 -0.77067393 -0.38858068 0.5050413 0.14451915
2438 -1567 -105 -0.9399491 -0.16821213 0.29698566 0.1374843
2433 -1603 -142 -0.91179198 -0.23807655 -0.33459663 0.099051379
2434 -1592 -146 -0.91293484 -0.066953748 -0.40257576 0.11327316
2437 -1569 -154 -0.75705612 0.18695389 -0.6260305 0.1118194
2436 -1581 -150 -0.80936652 0.14771447 -0.56842446 0.11412757
2426 -1572 -101 -0.90328401 -0.26286224 0.3390893 0.11306347
2422 -1545 -74 -0.59811807 -0.50716132 0.62051767 0.11337151
2446 -1615 -156 -0.89136696 -0.36532936 -0.26832706 0.11219262
2448 -1635 -160 -0.76294047 -0.63591564 -0.11633246 0.11622136
2441 -1567 -100 -0.83135414 -0.32331756 0.45201328 0.15492511
2424 -1575 -102 -0.9089694 -0.26241472 0.32390288 0.10671022
2439 -1592 -152 -0.86638391 0.013650139 -0.49919188 0.10243496
2434 -1544 -96 -0.81016308 -0.29955772 0.50388581 0.15315531
2426 -1564 -95 -0.86275405 -0.25142464 0.43868122 0.12840644
2429 -1613 -150 -0.89296943 -0.23238601 -0.38548955 0.10321785
2423 -1569 -144 -0.96177143 -0.023069384 -0.27288011 0.11279379
2428 -1592 -147 -0.88350469 -0.03230099 -0.46730727 0.10255468
2421 -1588 -142 -0.94931483 -0.068008654 -0.30688134 0.10073999
2426 -1607 -146 -0.88222253 -0.17513037 -0.43704993 0.087398201
2419 -1555 -134 -0.99186033 -0.10572725 -0.070956714 0.13346446
2421 -1572 -138 -0.97602624 -0.036799211 -0.21451935 0.11105912
2434 -1575 -89 -0.64422762 -0.44598162 0.62134624 0.12563281
2435 -1600 -147 -0.89865237 -0.19157697 -0.3946164 0.095373109
2426 -1607 -143 -0.87108117 -0.15945394 -0.46453431 0.080823474
2436 -1587 -151 -0.85971051 0.060899623 -0.50713819 0.11624072
2438 -1576 -154 -0.80631489 0.16759695 -0.56724572 0.12360146
2429 -1601 -144 -0.90572858 -0.16705878 -0.38954729 0.093670569
2439 -1573 -156 -0.8038584 0.16994905 -0.57002544 0.12663503
2435 -1594 -148 -0.87033635 -0.029527705 -0.49157175 0.10187129
2418 -1549 -108 -0.90369052 -0.30831662 0.29712692 0.14326294
2426 -1578 -101 -0.89762914 -0.28067324 0.33982992 0.10615983
2428 -1568 -105 -0.94293326 -0.19238971 0.27177769 0.12043946
2435 -1582 -152 -0.81890208 0.13250026 -0.55842912 0.12267507
2414 -1535 -87 -0.70202166 -0.49501762 0.5119797 0.14765513
2419 -1558 -133 -0.99356502 -0.057942182 -0.097320631 0.12858541
2455 -1599 -181 -0.82541436 -0.50749022 -0.24727492 0.17356026
2419 -1582 -133 -0.98179662 -0.050276969 -0.1831598 0.10360697
2440 -1611 -154 -0.90513915 -0.30856541 -0.29242176 0.10385232
2448 -1599 -151 -0.87932318 -0.13681583 -0.45614934 0.13424544
2456 -1638 -159 -0.72196746 -0.68391436 -0.10499614 0.10353153
2428 -1563 -97 -0.86502302 -0.25525457 0.43194932 0.13105154
2429 -1535 -140 -0.9327364 -0.35708606 -0.049923729 0.18488893
2428 -1569 -146 -0.924972 0.074480586 -0.37266538 0.13090003
2425 -1577 -100 -0.89589596 -0.27245837 0.35090861 0.10794263
2431 -1595 -153 -0.93374223 -0.14990246 -0.32504556 0.1036609
2440 -1558 -97 -0.84881818 -0.22662064 0.47765127 0.16000563
2428 -1575 -149 -0.86909056 0.10880835 -0.48253745 0.13205607
2437 -1538 -94 -0.76735455 -0.35471818 0.53417403 0.14852788
2426 -1609 -156 -0.90751666 -0.40340784 -0.11694276 0.11755596
2441 -1558 -77 -0.51751459 -0.57333332 0.6351909 0.096574955
2420 -1581 -133 -0.98343825 -0.066657469 -0.16854073 0.10341514
2421 -1566 -130 -0.99395669 -0.076577261 -0.078651361 0.11308198
2423 -1599 -138 -0.94782442 -0.25773355 -0.1876227 0.10135606
2426 -1554 -126 -0.99724036 -0.074018821 -0.0057321345 0.13088024
2429 -1541 -123 -0.96563911 -0.23602708 0.10877649 0.15504928
2438 -1560 -131 -0.98807853 0.086497799 -0.12735333 0.1302949
2444 -1618 -165 -0.87625074 -0.44320023 -0.18909843 0.12088055
2431 -1582 -123 -0.98677665 -0.16125619 -0.016378855 0.11525936
2424 -1590 -119 -0.95769501 -0.28107199 0.061796479 0.10546136
2450 -1610 -169 -0.88048571 -0.37666652 -0.28786662 0.11887811
2434 -1571 -127 -0.99534827 -0.048623338 -0.083171949 0.12619849
2422 -1616 -160 -0.85197538 -0.52260083 0.032038704 0.14540181
2424 -1555 -90 -0.73658139 -0.41948828 0.53054446 0.14360636
2440 -1552 -87 -0.66123205 -0.43125907 0.61383033 0.12761663
2444 -1582 -95 -0.63024396 -0.49559852 0.59764105 0.12571713
2444 -1541 -83 -0.61655831 -0.50368464 0.60510969 0.11406668
2425 -1602 -153 -0.93697435 -0.24663001 -0.24749297 0.10770365
2425 -1568 -146 -0.93787444 0.035009071 -0.34520409 0.12124638
2427 -1563 -96 -0.85052681 -0.2686044 0.45216784 0.13074344
2438 -1553 -93 -0.81090879 -0.223544 0.54079103 0.14035058
2445 -1540 -91 -0.69673318 -0.38841936 0.60306996 0.12929572
2427 -1586 -149 -0.91055834 -0.012635979 -0.41318759 0.11808105
2415 -1590 -136 -0.96095061 -0.11719223 -0.25067884 0.093149044
2412 -1564 -137 -0.9812454 -0.071528852 -0.17900011 0.1090489
2438 -1542 -93 -0.76368254 -0.35574591 0.53873354 0.14468499
2423 -1555 -92 -0.77067393 -0.38858068 0.5050413 0.14451915
2435 -1552 -100 -0.87453526 -0.23987909 0.42148075 0.15790014
2435 -1539 -103 -0.81678456 -0.40964076 0.40627262 0.17005035
2424 -1544 -149 -0.89032221 0.039783582 -0.45358974 0.1656415
2412 -1587 -134 -0.96886444 -0.074011236 -0.23627084 0.087618209
2416 -1565 -141 -0.97486782 -0.077525884 -0.20885983 0.11354146
2428 -1560 -96 -0.85962802 -0.23162274 0.45540154 0.13314678
2427 -1557 -103 -0.89783359 -0.24810982 0.36378065 0.13831893
2419 -1594 -150 -0.92955118 -0.1388777 -0.34153712 0.10473315
2431 -1537 -104 -0.81360495 -0.41834077 0.40377969 0.16440625
2422 -1573 -151 -0.92689848 0.0025974927 -0.37530339 0.12223525
2419 -1585 -120 -0.97532099 -0.21793352 0.035412125 0.10097871
2451 -1605 -173 -0.87226194 -0.38689259 -0.29912075 0.1480369
2449 -1554 -88 -0.66930646 -0.4049969 0.62290156 0.11452116
2451 -1542 -92 -0.75250381 -0.28381753 0.59429419 0.1327996
2450 -1628 -165 -0.81927037 -0.55400801 -0.14788935 0.11911044
2434 -1557 -84 -0.62983453 -0.46547112 0.62180805 0.12725207
2457 -1621 -169 -0.7983554 -0.54638159 -0.25317141 0.14097598
2447 -1590 -176 -0.92534447 -0.29019088 -0.24398102 0.17176154
2425 -1536 -119 -0.92558426 -0.3323561 0.18119922 0.1718604
2446 -1552 -97 -0.81971782 -0.24404864 0.51817256 0.15711503
2422 -1561 -148 -0.92102587 0.037119973 -0.3877286 0.12776093
2454 -1634 -161 -0.80009907 -0.5574199 -0.22164059 0.11090703
2399 -1556 -101 -0.87025893 -0.37598443 0.31825328 0.14368938
2432 -1584 -152 -0.90948522 0.00016424771 -0.41573623 0.12060907
2414 -1549 -99 -0.85666466 -0.32540581 0.40029573 0.13903964
2427 -1599 -155 -0.94405538 -0.25971389 -0.20324402 0.10868738
2415 -1563 -126 -0.99319327 -0.11572529 -0.013215712 0.11278693
2429 -1547 -84 -0.67041451 -0.42412445 0.60882092 0.13173525
2447 -1544 -88 -0.65053976 -0.45549729 0.60771728 0.11818084
2449 -1531 -91 -0.74407578 -0.34026319 0.57495403 0.12867029
2417 -1577 -122 -0.99327832 -0.1118401 -0.029830568 0.10638943
2418 -1552 -129 -0.9849754 -0.17215654 -0.013625575 0.12825799
2421 -1532 -123 -0.89692253 -0.40918085 0.16763368 0.1649965
2418 -1538 -77 -0.5926556 -0.53532106 0.60182285 0.11961022
2431 -1618 -153 -0.90431476 -0.35555348 -0.23621286 0.11239569
2425 -1594 -150 -0.9167487 -0.10952529 -0.38415632 0.10716431
2430 -1551 -95 -0.82436466 -0.29684246 0.48198283 0.14566098
2435 -1561 -144 -0.92820096 0.10703718 -0.35635102 0.12934381
2419 -1570 -146 -0.9543668 -0.015252442 -0.29824728 0.10916734
2415 -1561 -97 -0.8447808 -0.34868893 0.40590811 0.14027603
2419 -1586 -143 -0.95528001 -0.096136391 -0.27963907 0.1022627
2430 -1566 -92 -0.79772353 -0.29508793 0.52589005 0.13792998
2433 -1548 -89 -0.72415638 -0.38423103 0.57268137 0.1415239
2422 -1568 -140 -0.97143137 -0.016080799 -0.23677531 0.1100828
2439 -1531 -87 -0.62098533 -0.5299058 0.57756126 0.13392501
2419 -1546 -138 -0.97313392 -0.20270799 -0.10917807 0.1455054
2432 -1538 -97 -0.79926986 -0.34537208 0.49181882 0.15775469
2431 -1600 -156 -0.93444228 -0.28869036 -0.20850769 0.1045073
2428 -1561 -149 -0.8677153 0.13008815 -0.47973663 0.13281298
2428 -1572 -103 -0.92375547 -0.23333445 0.3036952 0.11076362
2436 -1585 -153 -0.89095175 0.028205907 -0.45322111 0.12583281
2431 -1555 -100 -0.87346262 -0.26730517 0.40695333 0.14886856
2421 -1550 -139 -0.98527229 -0.10514628 -0.1348436 0.14299214
2431 -1590 -147 -0.90378582 -0.035739046 -0.42649019 0.10815224
2428 -1572 -143 -0.93121624 0.080763265 -0.35540617 0.12435251
2436 -1554 -91 -0.74827439 -0.33910191 0.5701713 0.14009638
2435 -1609 -151 -0.90327084 -0.27167115 -0.33210912 0.10033492
2430 -1566 -94 -0.8347078 -0.2619811 0.48438489 0.13409908
2432 -1537 -128 -0.93271732 -0.35363951 0.070551679 0.17015193
2446 -1549 -81 -0.55583459 -0.57132512 0.60385054 0.10369358
2431 -1561 -128 -0.99791032 -0.0098882681 -0.063852832 0.1313059
2454 -1593 -179 -0.88854468 -0.35485768 -0.29079965 0.20048346
2460 -1622 -180 -0.74986571 -0.54060668 -0.38137349 0.1715502
2418 -1578 -127 -0.98651898 -0.14643647 -0.073051915 0.10575731
2433 -1535 -93 -0.78839016 -0.32188869 0.52424097 0.14838965
2423 -1548 -91 -0.76720732 -0.37212223 0.52241558 0.14861299
2417 -1556 -102 -0.88413072 -0.32505205 0.33563977 0.13766088
2430 -1542 -101 -0.83077991 -0.3352426 0.44431645 0.16017622
2435 -1614 -148 -0.89171755 -0.31024247 -0.32952908 0.10357683
2444 -1550 -72 -0.56383979 -0.55635953 0.61036777 0.09421628
2435 -1603 -151 -0.90960312 -0.21554855 -0.35519138 0.08994136
2436 -1581 -159 -0.92427063 0.029896345 -0.38056546 0.12848942
2435 -1568 -163 -0.9184038 0.08420109 -0.38658071 0.14562474
2437 -1593 -155 -0.92343992 -0.12955692 -0.36121157 0.10465832
2434 -1544 -120 -0.97475493 -0.18110541 0.13058978 0.16873895
2434 -1586 -136 -0.97554213 -0.097420745 -0.19704524 0.12066329
2436 -1563 -144 -0.9323011 0.09259291 -0.34963018 0.12672757
2438 -1575 -92 -0.70664895 -0.41274205 0.57470977 0.1310046
2436 -1561 -95 -0.82196194 -0.26235095 0.50552011 0.1404217
2433 -1573 -140 -0.9534201 0.056952715 -0.29622018 0.12436232
2428 -1594 -132 -0.96957499 -0.22115621 -0.10494895 0.11608909
2434 -1561 -118 -0.99525148 -0.072809786 0.064599685 0.13550971
2435 -1542 -72 -0.51426864 -0.6084941 0.60436958 0.09424182
2443 -1584 -165 -0.91100818 0.048120905 -0.40957114 0.14265911
2449 -1612 -165 -0.87935734 -0.39471292 -0.26633134 0.11415786
2414 -1572 -117 -0.9930231 -0.11411458 0.029715434 0.10600495
2433 -1549 -86 -0.68743449 -0.39189827 0.61143249 0.13509616
2423 -1570 -138 -0.9787488 -0.047911704 -0.19938742 0.1084146
2417 -1586 -140 -0.95735079 -0.073818013 -0.27933908 0.10192081
2432 -1568 -89 -0.74989414 -0.32358852 0.57701743 0.13466731
2418 -1546 -135 -0.96485335 -0.26178324 -0.022968531 0.15061924
2410 -1520 -132 -0.74670893 -0.61006081 0.26505017 0.14560398
2420 -1525 -127 -0.82361943 -0.53985035 0.17381781 0.1519253
2443 -1586 -161 -0.89055914 0.067324571 -0.44985753 0.13457048
2423 -1574 -113 -0.98199809 -0.15275444 0.11111115 0.1133589
2430 -1531 -81 -0.62377173 -0.52920854 0.57519311 0.12525389
2437 -1548 -77 -0.52261454 -0.59768653 0.60798419 0.10255279
2434 -1546 -124 -0.99698734 -0.074673668 0.020978022 0.17508233
2441 -1573 -164 -0.87989974 0.15656918 -0.44862282 0.14910136
2445 -1599 -157 -0.91150963 -0.17421868 -0.372556 0.1167998
2433 -1602 -152 -0.92114449 -0.19835709 -0.33488396 0.093769521
2438 -1572 -117 -0.99943715 -0.026742425 0.020254735 0.1273302
2440 -1562 -121 -0.99835736 0.052871227 -0.02207341 0.14355603
2441 -1544 -70 -0.56321412 -0.57062572 0.59764212 0.091909356
2434 -1558 -117 -0.98297155 -0.15171918 0.10367394 0.14035831
2413 -1566 -115 -0.98305506 -0.159095 0.091057941 0.11493491
2439 -1604 -154 -0.9064557 -0.2341997 -0.35140941 0.094094157
2421 -1565 -100 -0.89846134 -0.24508527 0.36428064 0.11964975
2442 -1586 -151 -0.74155235 0.15517622 -0.65270251 0.10898195
2430 -1560 -147 -0.88863087 0.12624341 -0.44090572 0.1392092
2435 -1556 -98 -0.87089318 -0.21567787 0.44162002 0.15465544
2431 -1587 -150 -0.9066844 -0.028222257 -0.42086437 0.11209627
2439 -1609 -154 -0.90713567 -0.29569942 -0.29944396 0.10786404
2431 -1580 -100 -0.87658858 -0.3018364 0.37481627 0.10633554
2425 -1559 -97 -0.84890103 -0.29623711 0.43773332 0.13462937
2426 -1566 -146 -0.92797649 0.063401654 -0.36720559 0.12521195
2436 -1549 -94 -0.76860201 -0.34698302 0.53745109 0.14618838
2442 -1559 -144 -0.8487075 0.24172314 -0.47038868 0.1575633
2435 -1574 -150 -0.80766159 0.16922289 -0.56484187 0.11245864
2440 -1615 -157 -0.89894181 -0.34006938 -0.27614564 0.10861586
2425 -1580 -103 -0.90500981 -0.28271568 0.3178508 0.10556392
2429 -1564 -100 -0.90324634 -0.21072783 0.37381768 0.13276179
2437 -1550 -98 -0.85779732 -0.23148094 0.45891222 0.15965356
2449 -1603 -154 -0.89400494 -0.29651657 -0.33590639 0.12293647
2436 -1559 -109 -0.95249075 -0.138809 0.27109668 0.1443629
2447 -1556 -66 -0.65159476 -0.44791129 0.61220896 0.089693405
2426 -1540 -112 -0.88375896 -0.35575801 0.30398405 0.14745
2425 -1588 -147 -0.91219842 -0.031896528 -0.40850553 0.10470212
2412 -1591 -143 -0.94260627 -0.13421698 -0.30574366 0.097282946
2429 -1580 -102 -0.89349735 -0.29109845 0.34194162 0.10559011
2433 -1582 -151 -0.84626383 0.10336477 -0.52264059 0.12321891
2431 -1567 -155 -0.83554554 0.12760681 -0.53439695 0.1427073
2422 -1563 -105 -0.93285131 -0.20126759 0.29879719 0.12922928
2410 -1540 -79 -0.59189951 -0.52914411 0.60799789 0.13958035
2463 -1632 -171 -0.77067059 -0.57989603 -0.26417309 0.14999126
2434 -1572 -132 -0.9884541 -0.024149703 -0.14958407 0.12555984
2457 -1603 -178 -0.85340309 -0.39369631 -0.34162316 0.17178324
2427 -1554 -135 -0.98533553 0.035497107 -0.1668949 0.13926439
2425 -1539 -138 -0.96794182 -0.24878174 -0.034587119 0.15540732
2451 -1636 -167 -0.75610369 -0.64359593 -0.11870764 0.1230319
2425 -1592 -124 -0.97135341 -0.2367022 -0.021085391 0.10891826
2425 -1579 -128 -0.99022222 -0.12584101 -0.060199808 0.10839799
2464 -1620 -175 -0.74735606 -0.51004761 -0.42580563 0.16471165
2419 -1571 -98 -0.883371 -0.28893897 0.36901212 0.12329693
2423 -1560 -94 -0.82631195 -0.34049657 0.44863206 0.1321625
2425 -1606 -138 -0.93113601 -0.27946317 -0.23427783 0.097886913
2438 -1590 -146 -0.90564597 -0.03093127 -0.42290506 0.12734497
2432 -1599 -142 -0.93045288 -0.21156809 -0.29915956 0.099481255
2427 -1569 -101 -0.90679443 -0.23656027 0.34894577 0.1189033
2436 -1577 -149 -0.83956677 0.13000247 -0.5274722 0.11167268
2419 -1558 -78 -0.61106604 -0.47476688 0.63339943 0.11773897
2438 -1543 -71 -0.50578624 -0.6152997 0.60463756 0.091715194
2429 -1612 -150 -0.90089566 -0.25051704 -0.35444078 0.1033036
2427 -1588 -110 -0.93862844 -0.28984731 0.18698981 0.095635273
2441 -1609 -154 -0.90807778 -0.29498705 -0.29728335 0.10528075
2425 -1576 -114 -0.98929644 -0.12549426 0.074456014 0.11146321
2422 -1550 -121 -0.96457273 -0.24487264 0.098167293 0.14326794
2445 -1601 -159 -0.91395921 -0.29095557 -0.28288409 0.110751
2431 -1568 -118 -0.99331927 -0.098942704 0.059390157 0.11907525
2440 -1586 -162 -0.91287774 0.016875718 -0.40788406 0.13679822
2448 -1545 -79 -0.5445773 -0.57685971 0.6088255 0.096771501
2449 -1610 -156 -0.89312172 -0.34197825 -0.2922062 0.12912981
2450 -1628 -159 -0.82224208 -0.53318584 -0.19907507 0.11510631
2435 -1583 -151 -0.82882053 0.11389833 -0.54779893 0.12234894
2447 -1555 -145 -0.61369145 0.39971679 -0.68088865 0.17279069
2423 -1586 -104 -0.88663012 -0.34419736 0.30889359 0.097730622
2427 -1571 -101 -0.89742053 -0.25774845 0.35805336 0.11586663
2420 -1570 -90 -0.82355034 -0.29511097 0.48443198 0.12716247
2432 -1537 -95 -0.787516 -0.33540609 0.51703131 0.15138534
2439 -1586 -153 -0.84910482 0.085824206 -0.52120543 0.11500669
2433 -1594 -149 -0.88178664 -0.040134773 -0.46993777 0.10139028
2447 -1556 -66 -0.65159476 -0.44791129 0.61220896 0.089693405
2423 -1610 -141 -0.88945746 -0.20443645 -0.40874341 0.07827989
2434 -1606 -145 -0.87756246 -0.223249 -0.42431587 0.092478842
2390 -1556 -101 -0.79258913 -0.47427538 0.38323012 0.162761
2433 -1551 -83 -0.63969314 -0.45144543 0.62208498 0.12641738
2437 -1583 -136 -0.98202235 -0.088642672 -0.16665727 0.12505668
2436 -1609 -136 -0.87687314 -0.47779071 -0.053005621 0.11173594
2436 -1557 -136 -0.97172499 0.10526656 -0.21135171 0.1265465
