# .PCD v0.7 - Point Cloud Data file format
VERSION 0.7
FIELDS x y z normal_x normal_y normal_z curvature
SIZE 4 4 4 4 4 4 4
TYPE F F F F F F F
COUNT 1 1 1 1 1 1 1
WIDTH 788
HEIGHT 1
VIEWPOINT 0 0 0 1 0 0 0
POINTS 788
DATA ascii
2687 228 -294 -0.9970873 -0.032169577 0.069152541 0.093323834
2707 118 -342 -0.53798091 -0.44454885 0.71620733 0.071697019
2661 -27 -291 -0.995902 -0.0068312562 0.090181164 0.093972072
2674 2 -292 -0.96953416 0.23446636 0.070915677 0.090242207
2785 64 -304 -0.57216531 -0.59782118 0.56145948 0.096578382
2696 -46 -210 -0.79253781 -0.19930564 0.57633412 0.062064674
2661 6 -249 -0.92699963 0.023385275 0.37433243 0.084780283
2669 -8 -250 -0.91183132 0.026137119 0.40973231 0.079221256
2663 -19 -337 -0.99264145 -0.0081571601 -0.12081604 0.064361505
2668 17 -292 -0.9801982 0.18957454 0.057209451 0.103283
2667 -4 -338 -0.98506618 0.11820471 -0.1251888 0.06808725
2770 95 -302 -0.50061435 -0.16240256 0.85030031 0.098898962
2711 103 -342 -0.55899495 -0.34562874 0.75370109 0.074513152
2748 110 -300 -0.53419894 0.035041511 0.84463221 0.099752203
2659 146 -336 -0.98857081 0.14963914 -0.018325567 0.10270429
2693 -1 -209 -0.75455451 0.14426148 0.6401844 0.070273615
2771 80 -302 -0.57266694 -0.39402279 0.71888709 0.076306604
2671 -38 -251 -0.893529 -0.19457105 0.40465778 0.070682466
2700 -31 -210 -0.78066999 -0.08443512 0.61921322 0.062527955
2663 11 -337 -0.98438841 0.14706996 -0.096694469 0.073692627
2672 -23 -250 -0.90374416 -0.128875 0.40821275 0.076150902
2672 -12 -292 -0.99484032 0.07597395 0.067236573 0.094325714
2702 -16 -210 -0.75633705 0.07128384 0.65028679 0.066320166
2691 68 -476 -0.89302611 -0.34227169 -0.29215482 0.0927843
2730 18 -439 -0.77010286 -0.4621349 -0.43974179 0.21219739
2664 165 -296 -0.96211767 0.2684435 0.047620267 0.10917916
2660 12 -339 -0.98301613 0.15328139 -0.1009161 0.076734871
2675 176 -341 -0.9760291 0.21710111 -0.015306528 0.079665698
2708 123 -345 -0.56192535 -0.41586247 0.71505129 0.073034033
2669 153 -386 -0.99611598 0.077659599 -0.041496534 0.086943157
2674 8 -386 -0.91257548 0.10377939 -0.39551961 0.068686083
2784 60 -309 -0.58866298 -0.58475757 0.55815285 0.11745965
2659 98 -384 -0.98572838 0.012957604 -0.16784425 0.13680439
2711 -37 -437 -0.79740828 -0.21571757 -0.56356531 0.0699246
2717 12 -481 -0.84474415 -0.47979674 -0.23707072 0.084144302
2677 -14 -297 -0.99652272 0.068334982 0.04767501 0.097490594
2672 -5 -340 -0.9863987 0.092281267 -0.13602117 0.072172321
2710 105 -345 -0.54714698 -0.42354187 0.72197121 0.080345139
2676 158 -341 -0.99647409 0.083728112 -0.0053901938 0.10679998
2687 -10 -388 -0.90028536 0.0075014951 -0.43523562 0.081992023
2717 0 -437 -0.86979997 -0.15369818 -0.46885493 0.10953303
2682 -28 -388 -0.8729623 -0.21467611 -0.43800795 0.064609453
2671 55 -430 -0.93738091 -0.11463226 -0.32890198 0.046203814
2766 78 -307 -0.58729422 -0.47100538 0.65820926 0.070820741
2669 128 -430 -0.98880661 -0.095506787 -0.11462948 0.063851848
2755 -25 -488 -0.69268548 -0.62200004 -0.36510658 0.0902519
2723 -5 -483 -0.80584544 -0.46613628 -0.36514378 0.071407028
2676 136 -387 -0.99991524 0.01218604 0.0045793969 0.1142749
2676 21 -297 -0.95032567 0.30652297 0.054081094 0.12887588
2672 194 -341 -0.9852795 0.16816102 0.030760607 0.075231999
2670 117 -386 -0.99993265 -0.0082188286 -0.0081871953 0.12668914
2713 -18 -437 -0.84338433 -0.15732732 -0.51376164 0.083210684
2662 -32 -296 -0.99750239 0.017330658 0.068472765 0.10538706
2679 92 -431 -0.97393352 -0.09376578 -0.2065464 0.041564465
2673 81 -386 -0.99318647 -0.026391845 -0.11350846 0.16193099
2717 31 -481 -0.84741181 -0.49345338 -0.19595146 0.083415821
2671 86 -473 -0.91406053 -0.40537873 0.01270591 0.092763178
2678 73 -431 -0.95815098 -0.14440501 -0.24717176 0.042260468
2673 3 -296 -0.97840804 0.20059411 0.049797889 0.078581616
2682 110 -432 -0.98056763 -0.076556325 -0.18062741 0.061561208
2676 139 -341 -0.88808227 -0.33842954 0.31108725 0.15088445
2668 -23 -340 -0.98701125 -0.077174574 -0.14090054 0.076627828
2680 184 -298 -0.97170252 0.1935135 0.13545005 0.11369441
2711 50 -480 -0.86152238 -0.35913816 -0.35888571 0.06790249
2712 302 -350 -0.78940594 0.31466296 -0.52709156 0.086404622
2697 282 -347 -0.85416371 0.19190978 -0.48329604 0.069751307
2740 324 -354 -0.62007761 0.69948417 -0.3552826 0.094336629
2672 120 -432 -0.98824602 -0.077592187 -0.13171652 0.059290387
2681 170 -343 -0.98846906 0.1514135 0.0017177287 0.095955156
2705 98 -345 -0.5391199 -0.47567475 0.69504189 0.076477051
2719 39 -484 -0.85684305 -0.44815478 -0.25490662 0.073166065
2708 58 -482 -0.86494857 -0.33204836 -0.37630817 0.073910497
2685 65 -433 -0.95009011 -0.15504614 -0.27072039 0.040489815
2687 -21 -387 -0.8919605 -0.10917824 -0.43873283 0.081110761
2705 116 -345 -0.55605268 -0.42013252 0.71714306 0.074236386
2716 -8 -438 -0.86051434 -0.13921268 -0.49003556 0.09393692
2706 -27 -437 -0.83348411 -0.19677903 -0.51631606 0.054765437
2678 143 -387 -0.9997915 0.017601132 -0.010350198 0.10562316
2720 10 -439 -0.85133278 -0.25627291 -0.45777366 0.14507501
2675 188 -342 -0.98421013 0.17556298 0.022542713 0.076227374
2677 125 -386 -0.99804276 -0.020121757 0.059209734 0.13426362
2755 -36 -490 -0.62873733 -0.74978542 -0.20618221 0.126802
2678 133 -342 -0.78375328 -0.44696656 0.43122125 0.15275204
2660 88 -383 -0.97255498 0.012177006 -0.23235434 0.1448068
2662 161 -384 -0.99654984 0.077521756 -0.0296434 0.091300637
2677 152 -342 -0.99338192 -0.080757946 0.081673041 0.13684385
2666 106 -384 -0.99870056 -0.040751271 -0.030602938 0.13672359
2721 1 -484 -0.81654286 -0.48696929 -0.31003019 0.074741937
2686 84 -434 -0.96579897 -0.14619379 -0.21414891 0.046090316
2691 -3 -388 -0.89582813 0.067204244 -0.43928981 0.086612441
2677 47 -432 -0.92512637 -0.19360536 -0.32658559 0.043250836
2690 76 -479 -0.91703612 -0.31598958 -0.2433009 0.10959451
2673 -12 -341 -0.98817348 0.029512476 -0.15047283 0.076067649
2719 20 -484 -0.8449769 -0.50240427 -0.18331388 0.089775391
2682 102 -433 -0.97713012 -0.099084094 -0.1881464 0.046986971
2782 -17 -495 -0.61544871 -0.54010242 -0.57403159 0.097928233
2664 -30 -340 -0.98631328 -0.081583247 -0.14328349 0.074485689
2666 6 -340 -0.97848594 0.16819622 -0.11947902 0.072313488
2690 300 -308 -0.91494983 0.32898206 -0.23374689 0.10727043
2734 314 -359 -0.65980071 0.62057775 -0.42372906 0.099310227
2706 320 -311 -0.74781179 0.63684851 -0.18762062 0.13865945
2712 45 -483 -0.85811305 -0.38570562 -0.3389293 0.059143711
2667 169 -301 -0.97350693 0.22366886 0.047503222 0.097000457
2747 118 -309 -0.5236904 0.051676136 0.85033989 0.10781815
2682 89 -435 -0.97262025 -0.11667451 -0.20098975 0.041381951
2662 98 -388 -0.9853282 -0.018774107 -0.16963451 0.11956772
2668 6 -298 -0.98201686 0.18619137 0.031237461 0.076464765
2679 108 -435 -0.98133361 -0.092498146 -0.16860761 0.054556854
2725 27 -485 -0.8386907 -0.51892275 -0.16527879 0.099025942
2680 82 -478 -0.91902691 -0.38475153 -0.085765854 0.11276882
2682 71 -435 -0.95625788 -0.15669474 -0.24701728 0.043771327
2679 52 -434 -0.92959172 -0.20016615 -0.30950403 0.043701988
2703 292 -354 -0.80928367 0.24821024 -0.53240174 0.076197572
2683 188 -303 -0.97996926 0.17990942 0.085398272 0.11099855
2696 64 -481 -0.86603779 -0.36815563 -0.33828986 0.088337488
2730 15 -442 -0.79781771 -0.46410802 -0.38482553 0.1972875
2679 206 -304 -0.98920327 0.099961646 0.10716624 0.082845517
2692 282 -308 -0.94974875 0.18816094 -0.25014547 0.11167809
2670 141 -345 -0.96618319 -0.19328181 0.17068183 0.14767671
2672 178 -346 -0.97755075 0.21069913 -0.0006597162 0.086243317
2750 81 -308 -0.62272644 -0.36920664 0.68985379 0.072550215
2664 24 -298 -0.98407233 0.17475072 0.032615922 0.1087705
2701 106 -348 -0.53566223 -0.47688591 0.69688296 0.082639538
2657 80 -387 -0.90841615 0.065688558 -0.41287422 0.10030658
2675 261 -305 -0.98275048 0.056331526 -0.17614868 0.09065219
2665 126 -433 -0.98728359 -0.10802185 -0.11662872 0.063977055
2673 160 -346 -0.99256372 0.12125568 -0.010694958 0.098241925
2661 14 -341 -0.9818545 0.1555635 -0.10845152 0.077877298
2674 117 -390 -0.99935001 -0.0091917897 -0.034857921 0.12620816
2668 153 -390 -0.99458909 0.075718582 -0.071127594 0.088156827
2674 7 -388 -0.90923882 0.10090004 -0.40386137 0.068254694
2673 135 -391 -0.99269283 0.069307506 -0.098779999 0.098670647
2681 123 -346 -0.61617327 -0.43343073 0.65762323 0.16132988
2720 8 -484 -0.82306123 -0.51633227 -0.23658226 0.084396191
2760 -29 -491 -0.66738421 -0.67088175 -0.32328945 0.11774861
2687 -29 -390 -0.86331671 -0.23618592 -0.44598264 0.067180261
2718 -21 -439 -0.81743598 -0.18242542 -0.54636937 0.086216934
2671 -11 -298 -0.99641901 0.077001646 0.034926184 0.088322945
2672 -3 -342 -0.98499101 0.10419503 -0.13760823 0.073444635
2686 -10 -390 -0.8955189 -0.010502622 -0.44489953 0.081473894
2661 -29 -297 -0.99846596 -0.01105088 0.0542554 0.10201077
2714 -40 -438 -0.77201837 -0.2885049 -0.56635028 0.081833065
2666 -22 -341 -0.98765647 -0.053281352 -0.14729524 0.072071984
2717 -2 -439 -0.85832322 -0.184726 -0.47870398 0.10975873
2702 294 -347 -0.82343715 0.28006238 -0.49347365 0.074227758
2687 253 -253 -0.9500466 0.0089492928 0.31197974 0.11414785
2684 261 -297 -0.99345428 0.03208502 -0.10963158 0.10425434
2691 244 -297 -0.99869567 -0.04072734 -0.030792344 0.093621589
2696 219 -253 -0.91549683 -0.25896117 0.30790371 0.099631026
2717 313 -350 -0.69261831 0.51024324 -0.509835 0.088963874
2679 296 -298 -0.93928677 0.33145392 -0.088761948 0.092214711
2682 279 -298 -0.97728276 0.1773181 -0.11608975 0.11254278
2693 236 -253 -0.93859619 -0.19329791 0.2857849 0.11041647
2685 233 -243 -0.91579121 -0.22080274 0.3355183 0.092977002
2684 248 -243 -0.91894472 -0.030876469 0.39317575 0.11280647
2692 219 -243 -0.90217042 -0.2526454 0.34965524 0.10144611
2673 255 -288 -0.99974418 0.004752669 -0.022115465 0.089905925
2670 284 -289 -0.96615034 0.25711212 -0.021139564 0.092929982
2686 227 -289 -0.99414587 -0.059269667 0.090339229 0.09109354
2678 270 -290 -0.99099183 0.11446915 -0.069513418 0.09852346
2667 240 -287 -0.99633718 -0.085049003 0.0088841785 0.070336416
2685 168 -287 -0.94958043 0.24724741 0.19278391 0.15539601
2764 98 -293 -0.54317772 -0.21750824 0.81095505 0.077724755
2668 2 -236 -0.89229268 0.02098139 0.45096946 0.074814126
2676 211 -287 -0.98194492 -0.022416614 0.18783425 0.086907759
2773 83 -293 -0.55376536 -0.35633847 0.75257343 0.072410546
2723 8 -198 -0.51471585 0.47492307 0.71380371 0.12120205
2657 -5 -280 -0.98657155 0.11014351 0.12060259 0.073280491
2676 182 -286 -0.96290153 0.16613251 0.21265134 0.10777739
2788 69 -295 -0.55995166 -0.36028364 0.74608964 0.10474324
2697 205 -243 -0.83537364 -0.38457993 0.39274567 0.11749666
2702 -6 -196 -0.69977558 0.16054527 0.69608861 0.071091264
2656 8 -280 -0.98762327 0.13112703 0.086057305 0.078349672
2675 197 -286 -0.97452134 0.077861361 0.21034664 0.09356676
2685 -11 -237 -0.89058661 -0.026847422 0.45402065 0.071436182
2713 -20 -197 -0.63733363 0.019332083 0.77034539 0.07347355
2662 -19 -280 -0.98864782 0.0028719036 0.15022346 0.08253181
2683 -40 -236 -0.86787343 -0.28702593 0.40547729 0.073181458
2712 -34 -197 -0.61544198 -0.15678963 0.77243006 0.069327168
2646 -33 -278 -0.97731519 -0.0098310867 0.21156207 0.093463898
2684 -26 -237 -0.88881814 -0.15665324 0.43065304 0.064179234
2726 319 -345 -0.64851516 0.61113918 -0.45380285 0.09538205
2686 277 -338 -0.88817251 0.14454974 -0.43618226 0.064588048
2707 298 -342 -0.81868047 0.31826413 -0.47798562 0.08268252
2678 137 -377 -0.98960751 -0.079669341 0.11970664 0.13442767
2711 11 -471 -0.85015124 -0.42218038 -0.31465316 0.076729521
2683 85 -467 -0.94444484 -0.24628663 -0.21763939 0.08408352
2677 166 -333 -0.98657954 0.16310228 -0.0076538692 0.085890509
2699 2 -424 -0.85826808 -0.19193576 -0.47595856 0.079541668
2714 49 -472 -0.86128426 -0.41546857 -0.2925325 0.080282137
2678 113 -423 -0.98309141 -0.046582218 -0.17709136 0.056368079
2727 22 -518 -0.62203503 -0.76020521 0.18751113 0.15475422
2697 67 -469 -0.89543819 -0.31026888 -0.3192549 0.068086199
2678 95 -422 -0.9775089 -0.078515716 -0.19573356 0.05320704
2670 118 -375 -0.98636174 -0.057408147 0.15425579 0.14893922
2675 1 -330 -0.98178619 0.1626244 -0.098230623 0.075725079
2652 100 -372 -0.96926212 0.14033978 -0.20207827 0.18114306
2702 -15 -424 -0.85938078 -0.06394247 -0.50732231 0.060966734
2696 204 -337 -0.95878595 0.27939582 -0.051648419 0.15516414
2719 112 -337 -0.58168066 -0.21083663 0.78561801 0.07003969
2665 131 -421 -0.9936679 -0.043827623 -0.10345682 0.063521989
2694 175 -380 -0.97761506 0.20925422 -0.021943074 0.14369419
2676 76 -422 -0.96644562 -0.093008555 -0.23944156 0.050389476
2676 184 -334 -0.97930503 0.2018787 0.014374522 0.081224859
2669 57 -420 -0.93652934 -0.073160969 -0.34287065 0.0596251
2667 155 -376 -0.99186414 0.11803534 -0.047678046 0.089299202
2672 -16 -330 -0.99261355 0.012639719 -0.12065933 0.082724504
2660 146 -331 -0.98769057 0.15407525 -0.026985735 0.096022531
2677 9 -375 -0.89333802 0.20551889 -0.39963624 0.084470339
2656 19 -328 -0.99390435 0.085412949 -0.069705173 0.091807306
2685 -8 -376 -0.92129749 0.043471087 -0.38642094 0.08235497
2746 95 -340 -0.56031913 -0.65658134 0.50491923 0.15478295
2745 -7 -477 -0.7755211 -0.48023632 -0.40980479 0.11358495
2713 29 -471 -0.85078847 -0.49084914 -0.18768625 0.079439752
2751 -26 -478 -0.64456946 -0.64638299 -0.40831286 0.086059868
2715 -34 -426 -0.80573511 -0.29702961 -0.51241028 0.080275185
2676 -27 -374 -0.91471165 -0.1015525 -0.39113894 0.071201779
2667 129 -375 -0.99534953 -0.027371068 0.092358626 0.13645004
2651 110 -372 -0.99115539 0.089657128 -0.097840056 0.14582887
2667 138 -419 -0.99575919 -0.045818362 -0.079776406 0.06933219
2670 120 -419 -0.98909831 -0.04366257 -0.1406346 0.0543193
2659 165 -374 -0.99129969 0.13149051 -0.0059238574 0.087596849
2669 147 -375 -0.99670142 0.080292374 -0.011808303 0.10524253
2697 9 -423 -0.8215282 -0.30147398 -0.48394725 0.08046592
2697 60 -470 -0.88386339 -0.33357593 -0.32789111 0.068422005
2696 -27 -423 -0.86187422 -0.15201594 -0.4838016 0.043979086
2712 22 -472 -0.8496877 -0.47690314 -0.22493164 0.08246769
2668 -35 -374 -0.91034418 -0.14197893 -0.38873589 0.083335377
2766 -15 -481 -0.74724191 -0.53313679 -0.3967301 0.1315363
2660 1 -373 -0.93647748 0.053507928 -0.34662208 0.06031324
2665 -17 -373 -0.93388915 -0.048986986 -0.35419104 0.067322128
2677 83 -420 -0.97282851 -0.098895513 -0.20934293 0.05824798
2749 -34 -478 -0.6113686 -0.66553664 -0.42812312 0.087335624
2676 65 -420 -0.94577879 -0.074571803 -0.31613529 0.052979067
2714 3 -472 -0.83986908 -0.37632498 -0.39115155 0.08062844
2705 41 -471 -0.86299723 -0.43718523 -0.25318944 0.059813108
2672 102 -419 -0.97795427 -0.053494025 -0.20185094 0.049375717
2693 78 -469 -0.92177588 -0.25384736 -0.29307124 0.085595064
2677 97 -467 -0.94609934 -0.31561741 -0.072675489 0.09549772
2681 46 -420 -0.92993772 -0.20791867 -0.30329135 0.053579967
2657 92 -373 -0.99598205 -0.0091425367 -0.089085005 0.191302
2697 -9 -423 -0.86668098 -0.07584925 -0.49306279 0.060862251
2681 289 -293 -0.9452194 0.3261492 -0.013677476 0.10617834
2685 249 -248 -0.9456979 -0.024728481 0.32410499 0.11179852
2682 273 -293 -0.98373598 0.17039184 -0.056833908 0.11501532
2693 217 -248 -0.91117394 -0.25855562 0.3207975 0.10189632
2682 256 -292 -0.99709105 0.01268951 -0.075155951 0.10044704
2727 322 -343 -0.62344521 0.63153458 -0.46095571 0.094299577
2675 240 -291 -0.99808216 -0.061290827 -0.0086776307 0.077356108
2703 286 -339 -0.85347658 0.20811158 -0.47777346 0.087637432
2710 303 -340 -0.80718648 0.37660232 -0.45455548 0.091215663
2700 269 -338 -0.88091552 0.14487712 -0.4505536 0.081903264
2690 233 -248 -0.92648113 -0.1979616 0.32006845 0.10172507
2680 224 -291 -0.99337423 -0.034787506 0.10953233 0.079674259
2693 180 -380 -0.94630098 0.30607948 -0.10406654 0.14162301
2686 203 -333 -0.97467768 0.22312208 -0.014830408 0.11089852
2682 -21 -242 -0.90070182 -0.10742066 0.42094764 0.073360339
2653 -30 -282 -0.98370463 0.02045642 0.17862445 0.086761214
2784 83 -297 -0.54121828 -0.31973845 0.77772111 0.084372103
2723 107 -335 -0.56752831 -0.25308061 0.7834934 0.080219097
2721 123 -335 -0.54495054 -0.1875619 0.81722057 0.084486164
2667 10 -326 -0.98584676 0.14501466 -0.084124207 0.077901967
2679 186 -332 -0.98052657 0.19608977 0.010787902 0.085469969
2714 0 -199 -0.63211155 0.26578265 0.72786987 0.093105957
2664 1 -283 -0.98275793 0.16471723 0.083994485 0.080470182
2663 162 -375 -0.99278975 0.11736558 -0.024368079 0.088650107
2676 -5 -327 -0.99015296 0.096872024 -0.10105896 0.086395115
2656 113 -373 -0.99891698 0.046436626 -0.0029224572 0.15011892
2768 99 -296 -0.50019985 -0.10699183 0.85927463 0.087463014
2681 170 -331 -0.97616738 0.21559609 -0.02481192 0.10158448
2678 -5 -241 -0.89711213 0.025677005 0.44105616 0.070459783
2673 -30 -372 -0.92184114 -0.12022926 -0.36844778 0.072207861
2673 153 -330 -0.99594676 0.08985085 -0.0041137869 0.10151631
2669 16 -284 -0.97673512 0.20082894 0.075208589 0.10875605
2748 92 -337 -0.58442032 -0.71403658 0.3854928 0.16569836
2672 146 -376 -0.99941874 0.03068669 0.01484874 0.11376386
2696 -15 -198 -0.73784798 0.041251469 0.67370516 0.052723181
2670 175 -288 -0.9612729 0.24274312 0.1305 0.10071781
2682 208 -290 -0.98519915 0.033943631 0.16801926 0.091327175
2680 -14 -373 -0.92384589 0.0039487341 -0.38274449 0.078051224
2674 2 -373 -0.92146939 0.09027493 -0.37781554 0.071311146
2673 130 -376 -0.98690844 -0.067823537 0.14632718 0.15121894
2680 192 -289 -0.97045225 0.13553898 0.19962855 0.10871416
2669 -21 -326 -0.99442869 -0.0029850055 -0.10536911 0.075647458
2696 10 -243 -0.76360202 0.43255547 0.47938266 0.12269417
2648 97 -371 -0.85478914 0.30312949 -0.42124581 0.16106467
2712 -30 -198 -0.63107669 -0.10358901 0.76877272 0.065120921
2668 -14 -283 -0.99153471 0.011562848 0.12932631 0.083171196
2675 -36 -241 -0.88479018 -0.20016478 0.42080915 0.06381955
2690 -46 -374 -0.73669839 -0.53755778 -0.41025266 0.12185729
2711 -46 -198 -0.6080808 -0.37917146 0.69747168 0.075941101
2677 229 -271 -0.97921133 -0.14613466 0.14067641 0.075886093
2673 244 -271 -0.99386382 -0.080605857 0.075745188 0.090867683
2666 187 -312 -0.97470504 0.22342052 0.0057846457 0.078568876
2674 252 -315 -0.96696019 0.039485816 -0.25185087 0.071808219
2689 234 -227 -0.84162402 -0.16296498 0.51488978 0.10545541
2684 197 -270 -0.96165276 -0.049812458 0.26970845 0.10482187
2664 142 -399 -0.98858351 0.072501406 -0.132084 0.082451001
2691 303 -319 -0.87716407 0.31897318 -0.35894179 0.086116835
2700 321 -321 -0.80886596 0.43836573 -0.3918817 0.089427128
2730 319 -368 -0.64175814 0.62117988 -0.44975773 0.082744494
2657 93 -396 -0.94774574 0.0086100865 -0.31891048 0.07545092
2660 155 -310 -0.96723449 0.24553588 -0.064572625 0.094029769
2649 116 -350 -0.79508722 -0.26174897 0.54710495 0.20476912
2745 94 -318 -0.60294974 -0.26771381 0.75151908 0.1278421
2677 204 -314 -0.98717439 0.15853713 0.018782958 0.084406428
2696 203 -226 -0.71129602 -0.48785877 0.50601554 0.1047555
2674 166 -355 -0.9928174 0.11496238 0.033126339 0.094977222
2709 300 -365 -0.75296783 0.31487173 -0.57783675 0.1070668
2693 183 -358 -0.96615511 0.2555038 0.035527419 0.14461172
2676 212 -270 -0.9722116 -0.12500757 0.19793341 0.089527234
2693 287 -319 -0.90640765 0.23014566 -0.35420072 0.087517515
2670 171 -312 -0.97365397 0.22801353 -0.0027954115 0.080648847
2672 260 -272 -0.99861306 0.028401047 0.044332061 0.10652031
2666 133 -352 -0.96172291 -0.14631858 0.2316893 0.16573597
2679 180 -269 -0.94348931 0.029879969 0.33005303 0.12225062
2691 219 -226 -0.83286029 -0.30088228 0.46455747 0.10560416
2677 126 -400 -0.99571896 0.0039148098 -0.092349432 0.078589924
2669 110 -398 -0.98404604 -0.014652973 -0.17730965 0.095522188
2676 150 -354 -0.98563135 -0.090189151 0.14281762 0.1450747
2665 77 -397 -0.93004245 0.020335594 -0.366889 0.083191216
2683 270 -317 -0.93860412 0.097215325 -0.33101588 0.092092901
2673 -41 -264 -0.92968553 -0.1988754 0.31005397 0.091882981
2659 6 -263 -0.97090185 0.098097764 0.21846399 0.084187172
2659 12 -306 -0.98596615 0.16676481 -0.007762529 0.081707045
2687 -3 -221 -0.81031144 0.11141299 0.57531077 0.064403862
2663 -3 -307 -0.98467332 0.17301677 -0.021989083 0.069994725
2696 -50 -221 -0.7600227 -0.38953418 0.52021974 0.097591199
2693 -35 -221 -0.83019364 -0.18306942 0.52655882 0.068704896
2676 -26 -351 -0.96812207 -0.078737818 -0.23778154 0.080736145
2653 -34 -305 -0.99090767 0.13329463 -0.018292891 0.093195163
2665 -9 -264 -0.96887004 0.027734164 0.24601136 0.074034758
2663 -19 -307 -0.99864399 0.037175592 -0.036443997 0.076791488
2696 -19 -221 -0.80616355 0.0063010249 0.59165925 0.070623145
2685 -18 -398 -0.86576426 -0.075765744 -0.49468344 0.059369989
2668 5 -350 -0.96940714 0.15360698 -0.19145411 0.075898126
2706 -35 -401 -0.86041123 -0.31431222 -0.40112382 0.075733587
2670 61 -398 -0.9465456 -0.017786345 -0.32207915 0.093593061
2669 -25 -264 -0.95197511 -0.12795319 0.2781572 0.081480525
2689 -2 -399 -0.87088764 0.026829535 -0.49074942 0.071413666
2679 -10 -351 -0.97248936 0.016558213 -0.23235816 0.083681762
2674 60 -414 -0.94282007 -0.04933992 -0.32962978 0.063963778
2660 161 -370 -0.9907741 0.13404417 -0.019969657 0.092056401
2647 106 -367 -0.92660433 0.24723507 -0.28333586 0.14792828
2673 134 -415 -0.9941296 -0.016992114 -0.10685363 0.063306943
2676 97 -415 -0.9804517 -0.07732296 -0.18092984 0.062267151
2700 55 -465 -0.87619179 -0.37100396 -0.30764261 0.04890617
2678 116 -416 -0.98644686 -0.028201059 -0.16163941 0.055978008
2672 125 -371 -0.97412902 -0.089003958 0.20772776 0.15779726
2677 79 -415 -0.96785372 -0.063773274 -0.24329437 0.064894289
2672 144 -371 -0.99745727 -0.017378535 0.069116399 0.12763157
2695 73 -464 -0.91877508 -0.25084168 -0.30484542 0.074238785
2699 36 -464 -0.85483038 -0.44320932 -0.26987144 0.052500501
2676 92 -461 -0.95887297 -0.25312838 -0.12840828 0.0619113
2735 27 -516 -0.64669943 -0.74825066 0.1479895 0.17080487
2673 -2 -369 -0.93332618 0.046097588 -0.35605779 0.077097632
2717 0 -467 -0.83431774 -0.34161121 -0.43268439 0.093532838
2665 -39 -368 -0.93027848 -0.11510555 -0.34832847 0.09946923
2743 -20 -472 -0.70380604 -0.52811301 -0.47513545 0.092684321
2706 17 -465 -0.84784943 -0.41975462 -0.3239713 0.070229985
2761 -30 -521 -0.50219655 0.86323935 -0.051150277 0.19605592
2697 -13 -417 -0.86897439 -0.03741103 -0.49344099 0.061935429
2700 -31 -418 -0.86221367 -0.192727 -0.46844837 0.049407188
2746 -39 -472 -0.54490125 -0.67969978 -0.49100995 0.084541745
2667 -20 -368 -0.9440251 -0.063264892 -0.32375017 0.073825724
2694 5 -417 -0.85501063 -0.2121363 -0.47323895 0.080799393
2679 298 -301 -0.93930089 0.32095757 -0.12124398 0.10234915
2671 253 -298 -0.99386543 -0.008282342 -0.11028501 0.084574081
2671 194 -296 -0.97995687 0.16866565 0.10600183 0.084727608
2708 209 -211 -0.50830877 -0.44728625 0.73590571 0.11843541
2676 245 -252 -0.96383399 -0.13484283 0.22987273 0.098874301
2678 268 -299 -0.98531604 0.089186065 -0.14559563 0.099946417
2672 180 -295 -0.96790975 0.22481792 0.11228355 0.098126672
2685 217 -252 -0.9299711 -0.22722052 0.28900611 0.087583922
2674 259 -253 -0.95489466 0.063647546 0.29004332 0.11106278
2694 240 -300 -0.99946827 -0.019636048 -0.026031122 0.097958498
2695 203 -252 -0.89878047 -0.27503192 0.34139594 0.1138832
2704 237 -212 -0.63360536 -0.15348813 0.75827813 0.092472129
2667 208 -296 -0.9901641 0.05562482 0.12837788 0.081529252
2661 164 -294 -0.96395725 0.25345433 0.080915421 0.1165478
2685 231 -252 -0.94292545 -0.19452161 0.27028313 0.091530234
2676 283 -300 -0.96982533 0.18050101 -0.16388449 0.096503489
2652 20 -289 -0.99402618 0.10601068 0.025956174 0.093011454
2652 -22 -288 -0.99208492 0.063282393 0.10845598 0.080215082
2742 110 -301 -0.57607496 -0.02267866 0.81708223 0.094495863
2659 14 -244 -0.9218117 -0.035485592 0.38601038 0.097748235
2697 -22 -205 -0.76284391 0.0024970847 0.64657784 0.053332165
2784 51 -304 -0.5959987 -0.56063461 0.57486904 0.14331292
2660 6 -290 -0.9774211 0.20377699 0.055882942 0.081310205
2760 96 -302 -0.52354145 -0.10464184 0.84554982 0.096956648
2766 81 -303 -0.57785743 -0.4101592 0.705585 0.069481321
2684 5 -204 -0.74826825 0.12055477 0.65235043 0.064593099
2684 -43 -246 -0.86376303 -0.32359293 0.38626561 0.094381712
2677 -14 -246 -0.89762533 -0.04143833 0.43880704 0.075738847
2698 -8 -205 -0.74901128 0.12760669 0.65015268 0.062336769
2687 -37 -204 -0.79151928 -0.15918377 0.59004897 0.051788196
2661 -7 -290 -0.9874593 0.13621546 0.079808705 0.072119109
2667 0 -245 -0.9024781 0.061404649 0.42633638 0.077177271
2646 -36 -288 -0.97931427 0.13529377 0.15046291 0.097467355
2773 66 -303 -0.60270435 -0.48862591 0.63086629 0.090735532
2672 -28 -245 -0.88935089 -0.1705429 0.42422879 0.066102646
2712 6 -180 -0.55351031 0.2323447 0.79977638 0.089793131
2719 -34 -181 -0.51468921 -0.15952744 0.8424049 0.057176124
2665 94 -388 -0.98229343 -0.00013379179 -0.18734914 0.13536957
2680 131 -390 -0.9970575 -0.05408895 0.054320175 0.11625303
2668 149 -389 -0.99229914 0.087918043 -0.087251037 0.088675089
2668 134 -343 -0.88150483 -0.28251684 0.37832978 0.17117389
2679 81 -478 -0.92437696 -0.36531037 -0.10988871 0.11226148
2740 324 -355 -0.61405545 0.7092945 -0.34617507 0.093135364
2690 270 -303 -0.97854376 0.10639741 -0.17644183 0.11166613
2678 153 -344 -0.99667722 -0.062079277 0.052733604 0.13634916
2696 63 -481 -0.86021388 -0.37249959 -0.34824705 0.087447301
2687 288 -303 -0.95055199 0.24806191 -0.18685904 0.099801607
2712 302 -351 -0.78366119 0.32627338 -0.52860272 0.089505352
2659 75 -387 -0.90874338 0.056121826 -0.4135648 0.11821955
2686 179 -301 -0.97692519 0.18681088 0.10353146 0.14056475
2666 160 -299 -0.95825487 0.28573805 -0.010064366 0.11482112
2681 197 -301 -0.97877073 0.17344879 0.10919382 0.081554502
2768 92 -310 -0.54042763 -0.24546368 0.80478919 0.1227674
2689 117 -345 -0.55895925 -0.54908329 0.62134689 0.12590243
2696 190 -347 -0.96564358 0.25985542 0.0027478281 0.14381891
2715 100 -349 -0.50939465 -0.5753628 0.63990211 0.094304614
2704 283 -349 -0.82729274 0.19491012 -0.52687448 0.078804195
2685 87 -435 -0.96857518 -0.14076084 -0.20505728 0.043121397
2686 306 -303 -0.90560639 0.41694432 -0.077682272 0.11794242
2685 68 -435 -0.95209038 -0.16879848 -0.25501177 0.041268229
2682 105 -435 -0.97593826 -0.094528586 -0.19649109 0.056478791
2676 251 -301 -0.99366486 -0.0033891315 -0.11233319 0.080515094
2677 171 -344 -0.98391759 0.17826782 -0.011255637 0.09197025
2666 123 -432 -0.98780525 -0.087003686 -0.12911718 0.058080543
2677 113 -390 -0.99903375 -0.040832147 0.016259521 0.13409506
2781 73 -311 -0.57754999 -0.50023067 0.64513975 0.10001481
2727 13 -442 -0.83770746 -0.34820905 -0.42070967 0.17338678
2720 7 -485 -0.81922728 -0.52493578 -0.23088765 0.080568843
2675 -37 -300 -0.99599648 -0.0018714004 0.089372382 0.13273917
2719 45 -485 -0.85590822 -0.39547142 -0.33320183 0.071200795
2726 26 -486 -0.84004003 -0.51999134 -0.15473108 0.1057419
2678 50 -434 -0.92838377 -0.20010449 -0.31314823 0.04470934
2675 -1 -300 -0.98310542 0.18040118 0.030969482 0.084679991
2666 16 -299 -0.98729259 0.15643334 0.027963644 0.087215208
2688 3 -391 -0.88429946 0.12388546 -0.45018539 0.080467001
2704 -33 -394 -0.84449631 -0.29855686 -0.44462308 0.103321
2674 -28 -344 -0.98088205 -0.089922003 -0.17258146 0.078528494
2670 7 -343 -0.9771539 0.16708931 -0.13134427 0.079266615
2719 -5 -441 -0.85867631 -0.18593487 -0.47760147 0.11266056
2666 -19 -299 -0.99935454 0.0006982942 0.035918076 0.083579384
2762 -30 -493 -0.6477747 -0.68925554 -0.3245222 0.12553282
2671 -10 -343 -0.98692518 0.037350375 -0.15679182 0.070886537
2692 -15 -392 -0.87989223 -0.077297442 -0.468844 0.084426008
2717 -23 -441 -0.81757528 -0.18989471 -0.5436089 0.08283975
2693 315 -321 -0.83961117 0.3910355 -0.37702045 0.088107154
2693 296 -320 -0.89117533 0.27901733 -0.3577092 0.084700346
2683 166 -314 -0.96876216 0.24648932 -0.027255995 0.12569645
2686 184 -315 -0.97543013 0.22028232 -0.0034218547 0.11096377
2689 277 -319 -0.9246763 0.147194 -0.35115179 0.087372348
2683 258 -317 -0.95296711 0.067317292 -0.2955029 0.082957283
2685 203 -316 -0.98291504 0.18327306 0.017000431 0.09412311
2665 173 -357 -0.98864448 0.14997494 -0.0094601018 0.085599914
2719 309 -369 -0.69867116 0.47379741 -0.53607333 0.09276323
2665 -26 -353 -0.9673329 -0.064532578 -0.24515851 0.070616826
2715 41 -496 -0.87711585 -0.40695131 -0.25506553 0.094357915
2669 94 -401 -0.97228271 -0.051689867 -0.2280229 0.087614
2664 20 -309 -0.98954755 0.1435727 -0.013511508 0.098895319
2736 3 -499 -0.74615222 -0.59765345 -0.29337221 0.088974185
2670 -15 -310 -0.996732 0.067808457 -0.043900616 0.078151062
2681 113 -403 -0.99478203 -0.039993163 -0.093857922 0.081653737
2660 146 -311 -0.93380165 0.31644765 -0.16695903 0.10472137
2678 57 -401 -0.96111387 -0.072183743 -0.26655143 0.11614124
2697 59 -493 -0.88228178 -0.42341605 -0.20566431 0.13180336
2703 -34 -404 -0.87532502 -0.22402933 -0.42850542 0.052580778
2673 131 -402 -0.99334496 0.026097119 -0.11218227 0.07958968
2696 29 -448 -0.8186506 -0.41072902 -0.4013887 0.055464767
2671 9 -354 -0.95887768 0.17032085 -0.22703375 0.082100987
2669 75 -401 -0.94943756 0.011816832 -0.31373331 0.079598188
2674 137 -357 -0.93929994 -0.19217408 0.2842268 0.15967809
2654 -33 -308 -0.98980623 0.13116083 -0.055501726 0.088767476
2743 95 -320 -0.59496355 -0.25633791 0.76178026 0.129392
2675 2 -310 -0.98903233 0.14376707 -0.033853546 0.083320275
2654 118 -354 -0.96497715 -0.094234146 0.2448245 0.19369212
2694 -15 -403 -0.86561358 -0.057116009 -0.49744436 0.066037409
2746 22 -501 -0.7060008 -0.55277771 -0.44271854 0.10292455
2720 -26 -452 -0.78841865 -0.31509805 -0.52830791 0.083020732
2687 2 -402 -0.8720271 -0.056078322 -0.48623449 0.071225271
2731 -7 -454 -0.8450169 -0.26018548 -0.46717229 0.13672575
2686 85 -448 -0.96476471 -0.13777979 -0.22415563 0.045888342
2735 113 -319 -0.55141586 0.061942201 0.83192772 0.076170787
2692 66 -448 -0.93184561 -0.22934096 -0.28118765 0.048420906
2752 -15 -502 -0.75462514 -0.53296286 -0.38274205 0.14171898
2675 103 -446 -0.97509164 -0.17768756 -0.13275339 0.051942527
2685 47 -447 -0.89493197 -0.31029817 -0.32064286 0.039384313
2717 11 -452 -0.85676283 -0.32053396 -0.40399927 0.11311369
2677 -8 -355 -0.96387011 0.01656455 -0.26585725 0.081713974
2675 155 -357 -0.99814862 0.024703614 0.055579338 0.12441128
2692 281 -270 -0.81758487 0.49706659 0.29065385 0.13547741
2686 271 -313 -0.95201355 0.10488693 -0.28752196 0.094317265
2673 199 -309 -0.98501682 0.16351365 0.054818142 0.081184015
2678 164 -308 -0.97277987 0.23161848 0.0072228573 0.10267141
2680 262 -268 -0.99713063 0.014469612 0.074304231 0.11137963
2689 245 -268 -0.99026793 -0.11072535 0.084317282 0.10801829
2709 304 -364 -0.74109995 0.31931689 -0.59059936 0.10072167
2694 228 -268 -0.97236204 -0.17699507 0.15226583 0.10194483
2690 193 -266 -0.90900874 -0.23017202 0.34745353 0.12778214
2696 308 -316 -0.85804284 0.37331796 -0.35269845 0.091133252
2675 158 -354 -0.99601281 0.086965635 0.019883294 0.10998487
2694 210 -267 -0.96822035 -0.13450962 0.21084714 0.10346572
2668 175 -353 -0.98474741 0.1738237 -0.007602348 0.087575436
2685 253 -312 -0.977045 0.041097388 -0.20903112 0.083407089
2687 289 -314 -0.91659939 0.22819112 -0.32828996 0.093333438
2681 182 -309 -0.97595543 0.21346153 0.044104107 0.10246903
2681 174 -265 -0.92559385 0.039321199 0.37647021 0.13283111
2724 288 -365 -0.61417186 -0.028020503 -0.78867465 0.16575579
2686 106 -354 -0.51583397 -0.53792983 0.6667434 0.15442346
2669 -16 -349 -0.9792676 -0.022629013 -0.20130332 0.071518004
2681 36 -439 -0.87167335 -0.30606252 -0.38276806 0.040976353
2678 25 -305 -0.94891626 0.31347284 0.035954226 0.14357767
2672 149 -397 -0.99543983 0.056710444 -0.076703757 0.089143187
2724 -16 -445 -0.81993127 -0.24634559 -0.5167461 0.091850452
2753 -26 -498 -0.72119373 -0.63102078 -0.28581876 0.137959
2692 -26 -396 -0.85814822 -0.19039236 -0.47679397 0.073232405
2675 132 -397 -0.99653095 0.023823362 -0.079739898 0.090189882
2727 28 -494 -0.86065257 -0.45699555 -0.22457148 0.10310461
2676 61 -395 -0.95130551 0.0070733628 -0.3081685 0.11792023
2666 146 -306 -0.91191787 0.36959177 -0.17834727 0.10731497
2666 -9 -303 -0.99179864 0.12718813 0.01259555 0.076457702
2716 -34 -444 -0.77403051 -0.28458434 -0.56558686 0.066638298
2744 115 -315 -0.52552766 0.088767976 0.84613287 0.10350624
2748 97 -315 -0.63028634 -0.28393945 0.72257704 0.13473523
2689 -8 -396 -0.87009811 -0.001110977 -0.49287724 0.074591324
2723 -7 -493 -0.78148955 -0.55304843 -0.28881052 0.086139135
2662 -26 -303 -0.99998349 -0.0057428987 -0.00033870953 0.090239778
2693 9 -397 -0.8831591 0.036536437 -0.46764851 0.10512444
2694 72 -441 -0.9528119 -0.18535878 -0.2403989 0.045675442
2676 18 -261 -0.8177833 0.50057977 0.28399003 0.1146483
2733 1 -447 -0.87085617 -0.19946186 -0.44924882 0.15943739
2663 -32 -259 -0.92641956 -0.19028895 0.32486451 0.074710511
2679 1 -261 -0.94477999 0.11749364 0.30591816 0.088893369
2670 96 -395 -0.98778158 -0.043478094 -0.14965688 0.11129955
2666 7 -304 -0.98399156 0.1780639 0.0073349327 0.075807542
2695 64 -489 -0.85197484 -0.40264103 -0.33469236 0.12151925
2736 19 -447 -0.89022386 -0.42264107 -0.16992961 0.19885975
2675 81 -486 -0.81999308 -0.54686195 0.16897751 0.12802725
2683 54 -439 -0.93154103 -0.21154658 -0.29576927 0.040993281
2686 -33 -351 -0.96320647 -0.13999984 -0.22941966 0.10602263
2690 90 -441 -0.96516603 -0.1355745 -0.22377229 0.045502074
2669 1 -349 -0.97486085 0.12576646 -0.1839266 0.072935387
2679 141 -354 -0.94422728 -0.22207962 0.24313672 0.14509909
2675 114 -396 -0.99298859 -0.018337814 -0.1167792 0.1079912
2678 108 -440 -0.97873002 -0.11847273 -0.16748643 0.059395906
2656 122 -350 -0.93127888 -0.13421367 0.33868322 0.18704215
2662 79 -393 -0.92857862 0.022134067 -0.37047502 0.095650434
2727 10 -494 -0.80377692 -0.5714764 -0.16540056 0.096941903
2683 -15 -261 -0.94286901 -0.043836378 0.33026704 0.094617508
2713 46 -492 -0.86836004 -0.35180196 -0.34955147 0.072352208
2728 317 -348 -0.64412022 0.59618771 -0.47923821 0.10015927
2691 127 -336 -0.54391664 -0.52925587 0.65118581 0.1248522
2722 110 -340 -0.57540518 -0.26187849 0.7748087 0.081820607
2682 191 -293 -0.97339892 0.14829221 0.17465371 0.10601296
2684 173 -293 -0.96073645 0.20863198 0.18291551 0.14447409
2708 49 -472 -0.86191952 -0.38674825 -0.32790324 0.059903637
2681 163 -336 -0.98970509 0.143094 0.0028191132 0.10774857
2681 74 -424 -0.96275771 -0.10867185 -0.2475643 0.054404736
2665 154 -290 -0.90181935 0.43075076 -0.034287676 0.12526813
2716 30 -473 -0.84371817 -0.50194323 -0.19024371 0.084425144
2771 85 -300 -0.554111 -0.35466507 0.75310934 0.075578272
2774 66 -300 -0.60457677 -0.48397979 0.63265359 0.087713614
2686 210 -294 -0.98746789 0.032915074 0.15434958 0.098469764
2674 55 -423 -0.93798381 -0.092747666 -0.33404225 0.058474693
2736 19 -432 -0.71078873 0.67475498 -0.19870837 0.25636855
2700 276 -342 -0.8545028 0.10495999 -0.50873208 0.079106733
2663 83 -377 -0.96533263 -0.25897256 0.032653343 0.17574503
2686 265 -296 -0.99314123 0.071765929 -0.092305012 0.1168232
2673 10 -288 -0.96790272 0.23883009 0.078259237 0.10212668
2719 11 -473 -0.83526993 -0.44442281 -0.32374743 0.093374722
2791 48 -301 -0.52651536 -0.68834609 0.49896011 0.15049444
2674 85 -466 -0.9549771 -0.27142215 -0.11978637 0.086021334
2676 10 -378 -0.90143639 0.17372577 -0.39652467 0.080371313
2672 138 -380 -0.99936134 0.034884658 0.0077418257 0.12171891
2668 129 -423 -0.99040371 -0.044708204 -0.13077308 0.064059928
2694 67 -470 -0.89688307 -0.32197651 -0.3032029 0.080216631
2670 181 -335 -0.97711015 0.21272144 0.002305334 0.07285405
2661 17 -331 -0.98828393 0.13687485 -0.067529544 0.082246862
2675 120 -380 -0.99193972 -0.054792464 0.11425117 0.1494205
2677 92 -424 -0.97596979 -0.08479245 -0.20073166 0.050325282
2676 145 -335 -0.9612661 -0.22796914 0.15491161 0.14796375
2662 101 -378 -0.9991492 -0.020943228 -0.035525464 0.16016573
2669 157 -380 -0.99441934 0.09874256 -0.037147935 0.088920102
2712 296 -345 -0.80614018 0.29439288 -0.5132941 0.087396458
2678 111 -424 -0.98250717 -0.045842644 -0.18049406 0.053495236
2684 247 -295 -0.9988637 -0.022205546 -0.042168703 0.093320526
2683 284 -296 -0.96570653 0.24802558 -0.076773301 0.10859422
2671 -35 -249 -0.8912552 -0.2096363 0.40214029 0.067147069
2713 -18 -434 -0.83754086 -0.12432189 -0.53204256 0.082869835
2657 -26 -293 -0.99532443 0.031023363 0.091470309 0.086976551
2704 -25 -208 -0.75379193 -0.0055284938 0.65708995 0.067585953
2670 -2 -338 -0.98670328 0.11181588 -0.11795714 0.068010114
2652 13 -336 -0.99393666 0.07977403 -0.075671285 0.074644409
2676 -19 -250 -0.90707058 -0.0804355 0.41322285 0.080090865
2702 7 -209 -0.69293058 0.34180453 0.63483608 0.095707759
2663 -19 -337 -0.99264145 -0.0081571601 -0.12081604 0.064361505
2714 15 -435 -0.78623772 -0.38620391 -0.48236573 0.12855774
2694 -9 -208 -0.76959074 0.092173778 0.63184977 0.061895374
2695 -42 -208 -0.78669727 -0.20081364 0.58376485 0.059466954
2715 -36 -434 -0.79244232 -0.25488418 -0.55413824 0.073579371
2684 -26 -383 -0.89079183 -0.17861801 -0.41783419 0.068581894
2667 7 -381 -0.92162597 0.086195081 -0.37838593 0.05753395
2692 -9 -384 -0.90791321 0.001874932 -0.41915393 0.09053421
2666 6 -295 -0.97831297 0.20293224 0.041499741 0.076072052
2671 -2 -250 -0.91034925 0.073250093 0.40730661 0.07964088
2666 -9 -294 -0.99074411 0.12242387 0.058638174 0.081414387
2716 -1 -435 -0.87435108 -0.12128802 -0.46989304 0.10941648
2686 188 -271 -0.94956815 -0.037700493 0.31128594 0.12573789
2684 204 -271 -0.96934187 -0.097580485 0.22550917 0.094687745
2688 307 -318 -0.87557948 0.344129 -0.33902201 0.088330403
2681 182 -312 -0.97436798 0.22414321 0.019156491 0.10551739
2672 144 -356 -0.97835726 -0.12107895 0.16780041 0.14438878
2691 242 -229 -0.84338325 -0.054887202 0.53450173 0.10035526
2681 234 -272 -0.98709226 -0.12679549 0.097835004 0.087367035
2686 276 -317 -0.9291417 0.13999827 -0.34219322 0.089494251
2664 151 -309 -0.95526987 0.27819151 -0.1003441 0.10496785
2673 172 -269 -0.94713575 0.24348913 0.20891838 0.11930317
2671 159 -357 -0.9922145 0.12454038 -0.00014405207 0.10107733
2704 325 -321 -0.76092887 0.54853046 -0.34655693 0.10648441
2664 174 -356 -0.9847973 0.17347988 -0.008884443 0.085644312
2674 218 -270 -0.97548062 -0.13190004 0.17618136 0.074079297
2677 249 -272 -0.99632907 -0.070412904 0.048687521 0.090104684
2681 167 -312 -0.9708268 0.23972982 -0.0050016167 0.11654606
2733 322 -371 -0.64067781 0.63816112 -0.42694545 0.084383346
2683 260 -316 -0.95412242 0.082050808 -0.28795511 0.088857315
2705 213 -230 -0.71383667 -0.43967143 0.54509288 0.11785541
2697 292 -319 -0.89722848 0.25409752 -0.3611308 0.090881281
2674 264 -272 -0.99958229 0.01908179 0.021702958 0.11102101
2694 282 -275 -0.86633193 0.44614431 0.22455332 0.13464437
2691 227 -229 -0.84698242 -0.22430636 0.48198277 0.1120799
2680 198 -313 -0.97837949 0.20645317 0.012276029 0.087983608
2710 303 -368 -0.7417984 0.34251747 -0.57655597 0.10203102
2673 0 -307 -0.99015403 0.1395614 -0.010848078 0.0805711
2742 92 -317 -0.59927714 -0.31502694 0.73595178 0.11264186
2690 -30 -223 -0.84570014 -0.11369579 0.52140641 0.059734814
2684 0 -223 -0.82208782 0.10486431 0.55962038 0.066308454
2666 -23 -352 -0.9693076 -0.065923572 -0.23684774 0.072072849
2673 -8 -353 -0.97068864 0.0046250592 -0.24029574 0.074226633
2657 6 -263 -0.97664434 0.071713202 0.20254137 0.083180979
2668 -15 -306 -0.9986465 0.050931208 -0.010542121 0.080560505
2663 6 -352 -0.97742343 0.10312606 -0.1844136 0.069542512
2658 -30 -305 -0.99862909 0.051186383 -0.010948777 0.095597096
2686 -45 -222 -0.83484125 -0.22645675 0.50175434 0.06710875
2671 14 -307 -0.98778665 0.15537961 -0.011610501 0.085490912
2663 -23 -264 -0.95908749 -0.11295951 0.25959846 0.077690288
2688 -15 -223 -0.83784127 -0.026123445 0.54528844 0.057228912
2661 128 -354 -0.97508556 -0.080783702 0.20659636 0.16392691
2667 -8 -264 -0.96286374 0.061056141 0.26299351 0.081472278
2667 -38 -264 -0.93158275 -0.19044624 0.30965105 0.082872249
2742 108 -317 -0.51581407 0.1263932 0.84732556 0.10979325
2679 240 -234 -0.90343803 -0.16537306 0.39553955 0.090422705
2684 226 -235 -0.8898375 -0.25326222 0.37953588 0.094573803
2709 201 -237 -0.58618426 -0.68254584 0.43648493 0.13624264
2688 213 -235 -0.88052756 -0.29405379 0.37175742 0.09661077
2681 -31 -235 -0.8820889 -0.1850642 0.43320951 0.064066984
2714 -25 -192 -0.60607678 -0.074771151 0.79188395 0.06249816
2679 -3 -234 -0.88724619 0.048792191 0.45870864 0.069246791
2685 -44 -235 -0.85656071 -0.29722434 0.42185485 0.080476895
2712 15 -191 -0.57504147 0.51243252 0.63776177 0.10900865
2704 1 -191 -0.67098087 0.19897038 0.71427965 0.075796351
2662 9 -233 -0.8876372 -0.033721466 0.4593071 0.079844534
2701 -11 -191 -0.69385296 0.084883772 0.71509635 0.055741262
2680 -17 -234 -0.88932753 -0.080160506 0.45018986 0.058428034
2709 -39 -191 -0.62309027 -0.19248793 0.75809431 0.064267986
2693 318 -313 -0.85790062 0.39909524 -0.32361943 0.11388378
2683 208 -310 -0.99290735 0.099210389 0.065515913 0.088702239
2669 181 -352 -0.98226386 0.1871731 0.011131731 0.08443594
2668 141 -397 -0.98986065 0.077432871 -0.11907976 0.081862725
2758 83 -317 -0.6462782 -0.54072648 0.5384602 0.11196664
2732 316 -363 -0.65458584 0.60780144 -0.44954953 0.095398821
2686 172 -310 -0.96831691 0.24710105 0.036104392 0.13145933
2678 123 -398 -0.99812794 -0.015847506 -0.059070535 0.09247981
2675 104 -398 -0.9902193 -0.032127693 -0.13576987 0.10082921
2687 60 -444 -0.9376955 -0.23942329 -0.25180054 0.044371575
2742 120 -316 -0.52685827 0.13210449 0.83962417 0.10290772
2683 42 -443 -0.88852882 -0.30377346 -0.34385788 0.039193284
2694 282 -312 -0.93163121 0.16290361 -0.3248471 0.10072348
2751 102 -317 -0.55284512 -0.052171949 0.83164918 0.14305396
2680 262 -310 -0.96766776 0.069720402 -0.24240091 0.08983434
2685 109 -353 -0.53293687 -0.48303676 0.69473284 0.15084136
2688 73 -488 -0.88230079 -0.42317897 -0.2060699 0.13001503
2682 78 -443 -0.96065527 -0.15813918 -0.22832762 0.041213624
2682 97 -443 -0.97425455 -0.11511338 -0.19384766 0.046522278
2658 152 -306 -0.95207089 0.2939935 -0.08443176 0.1023699
2673 163 -352 -0.99107981 0.13315491 0.005527311 0.092574239
2688 299 -312 -0.91449708 0.25948349 -0.31042466 0.092012599
2678 27 -308 -0.90654522 0.42085803 0.032469772 0.14452949
2708 294 -359 -0.78156918 0.29242659 -0.55103207 0.09732423
2722 37 -494 -0.86661237 -0.40048912 -0.2976433 0.083479099
2667 68 -397 -0.94192767 -0.002716556 -0.33580488 0.084758826
2666 115 -440 -0.98373032 -0.156498 -0.088221863 0.059804462
2666 86 -396 -0.95564246 0.0086708684 -0.29440165 0.10186026
2702 55 -490 -0.8684203 -0.35204065 -0.34916109 0.09016937
2660 126 -350 -0.94168746 -0.13134177 0.30979687 0.18156321
2674 145 -352 -0.96774852 -0.17702632 0.17923293 0.14212404
2688 190 -310 -0.9774316 0.2067069 0.04358625 0.12255947
2740 18 -497 -0.75991213 -0.54998523 -0.34648189 0.09768679
2733 0 -496 -0.76002634 -0.58308065 -0.2870138 0.083372578
2729 5 -451 -0.86521459 -0.29718381 -0.4038384 0.15504593
2690 -23 -400 -0.86178261 -0.12895672 -0.49061263 0.060908094
2672 -9 -308 -0.99347037 0.11087053 -0.026912712 0.083740845
2718 -32 -449 -0.76767731 -0.31825531 -0.55622393 0.071572796
2681 18 -353 -0.84420532 0.46617529 -0.26457122 0.11702343
2753 -19 -500 -0.77027392 -0.5100159 -0.38283405 0.13744542
2697 -36 -355 -0.63302159 -0.76301438 -0.13073881 0.17286256
2674 0 -352 -0.97067744 0.10632514 -0.21559273 0.08004047
2694 -4 -401 -0.86557496 0.0099959997 -0.50067967 0.072323367
2735 24 -452 -0.86518157 -0.48043612 -0.14367326 0.18059295
2660 -27 -306 -0.99968237 0.0013953557 -0.025161516 0.087189443
2673 -18 -352 -0.96919072 -0.042676691 -0.24258623 0.080936901
2674 8 -308 -0.98653007 0.16297235 -0.014086341 0.080158167
2725 -13 -450 -0.81379431 -0.25555804 -0.52194715 0.11108514
2674 118 -421 -0.98562247 -0.042618547 -0.16349962 0.056269754
2676 100 -421 -0.97901547 -0.076282784 -0.18897015 0.055544436
2659 164 -375 -0.99318254 0.11575976 -0.013717118 0.092509739
2676 146 -377 -0.99910158 -0.004429691 0.042147402 0.11827836
2644 90 -372 -0.80373991 0.29195881 -0.51842278 0.12231684
2673 128 -377 -0.98725253 -0.074324541 0.14074202 0.1496658
2679 95 -468 -0.94741035 -0.30724579 -0.089519106 0.09800633
2651 108 -373 -0.98777479 0.10266639 -0.1173055 0.14862442
2684 137 -423 -0.96804452 0.092107639 -0.23325083 0.11524782
2677 81 -421 -0.97162849 -0.089507498 -0.21892112 0.05785162
2710 39 -473 -0.85492122 -0.47447363 -0.20972455 0.067731254
2712 1 -473 -0.83134812 -0.37902024 -0.40645289 0.08065097
2751 -36 -480 -0.60585243 -0.68576956 -0.40331492 0.087573789
2663 -18 -374 -0.93494225 -0.031749558 -0.35337666 0.062811024
2692 76 -470 -0.91949612 -0.25387815 -0.30012146 0.084495477
2667 -37 -375 -0.9011088 -0.14469637 -0.40873688 0.088973366
2698 58 -471 -0.87781936 -0.34473142 -0.33255601 0.06533125
2674 63 -420 -0.94502544 -0.074459545 -0.31840637 0.055079825
2712 20 -473 -0.8513636 -0.47247469 -0.22792059 0.079199985
2697 -29 -424 -0.86046314 -0.16845235 -0.48086071 0.04634992
2665 0 -374 -0.93024337 0.059701677 -0.36205399 0.061076626
2702 -10 -424 -0.86784679 -0.029961692 -0.4959276 0.066785917
2699 7 -424 -0.83256245 -0.26873401 -0.48437765 0.08113464
2760 -17 -481 -0.68928874 -0.61588311 -0.38153517 0.089513756
2677 44 -421 -0.92663771 -0.20579058 -0.31463116 0.042719908
2677 258 -265 -0.99287081 -0.052728198 0.10689884 0.10749725
2738 320 -360 -0.62085253 0.68355548 -0.38378909 0.091909938
2680 205 -308 -0.98732615 0.13183181 0.088360302 0.088769153
2660 148 -394 -0.98937535 0.090146571 -0.11406108 0.087173723
2691 285 -310 -0.93774086 0.19207549 -0.28939423 0.10448783
2671 100 -395 -0.98961526 -0.041006174 -0.13776812 0.10664338
2672 132 -395 -0.9908939 0.05767921 -0.12166568 0.094729953
2680 252 -308 -0.98452175 0.026365787 -0.17326805 0.084893756
2706 284 -355 -0.80952626 0.18191355 -0.55818874 0.098125167
2673 173 -307 -0.97184753 0.23344567 0.03186715 0.087021179
2702 247 -221 -0.74875498 0.019434089 0.66256195 0.10936473
2742 112 -314 -0.54514873 0.039901551 0.83738923 0.088111863
2681 154 -350 -0.9890793 -0.097093739 0.11088239 0.13812441
2712 301 -356 -0.76305211 0.34847945 -0.54434693 0.094061323
2753 97 -316 -0.57723397 -0.17806672 0.79692733 0.14658514
2690 196 -265 -0.9396342 -0.16713262 0.29858705 0.10999583
2693 212 -266 -0.96124643 -0.17192124 0.21551909 0.10493117
2678 116 -396 -0.99738199 -0.02965894 -0.065950215 0.10465644
2687 227 -265 -0.9666577 -0.1811635 0.18097675 0.091706537
2693 275 -266 -0.81854653 0.46773842 0.33347023 0.13596578
2707 200 -221 -0.56874472 -0.57778031 0.58540523 0.12359028
2678 138 -350 -0.89719319 -0.30846751 0.31605732 0.15116231
2704 216 -221 -0.66348064 -0.38042334 0.64426047 0.12489731
2665 157 -306 -0.9719488 0.23300593 -0.031997107 0.10284737
2674 189 -307 -0.9726699 0.22426523 0.0601537 0.089241065
2684 243 -265 -0.9831658 -0.095707275 0.15564409 0.097250111
2676 179 -264 -0.92915821 0.012568674 0.3694686 0.11555779
2665 84 -394 -0.94791871 0.028913269 -0.31719717 0.11010124
2687 269 -309 -0.96545959 0.096128777 -0.24217176 0.10015833
2673 169 -349 -0.98843896 0.15140539 -0.0080465069 0.089352667
2688 301 -310 -0.90769899 0.30347976 -0.28979737 0.099890366
2652 121 -346 -0.89606744 -0.16354506 0.41269365 0.19818544
2701 231 -221 -0.74057603 -0.16656828 0.65100086 0.11872399
2668 -8 -263 -0.9585219 0.0674081 0.27693298 0.083359987
2655 -31 -305 -0.99573851 0.089557968 -0.022005936 0.091310151
2697 -20 -221 -0.80515128 0.004614363 0.59305149 0.072067447
2664 0 -306 -0.98051548 0.19635516 -0.0058291131 0.06978102
2666 68 -394 -0.92718732 0.0054872665 -0.37455779 0.094118729
2690 -11 -398 -0.86815387 -0.012822262 -0.49612951 0.070655026
2691 -37 -352 -0.91536814 -0.33489454 -0.22348768 0.13601723
2679 -5 -350 -0.97008938 0.095357105 -0.22323437 0.088548444
2660 6 -262 -0.96263021 0.13002923 0.23756152 0.085423507
2665 -16 -306 -0.99812335 0.058199476 -0.019044662 0.077221006
2674 -21 -350 -0.97230148 -0.054723836 -0.22723383 0.077033743
2689 -36 -220 -0.84123433 -0.15671134 0.5174616 0.058905598
2693 -27 -399 -0.85105789 -0.19841424 -0.48614013 0.065166838
2671 -24 -264 -0.95249361 -0.12325007 0.27850568 0.080035053
2678 -40 -265 -0.88584918 -0.37417534 0.27434292 0.10470622
