# .PCD v0.7 - Point Cloud Data file format
VERSION 0.7
FIELDS x y z normal_x normal_y normal_z curvature
SIZE 4 4 4 4 4 4 4
TYPE F F F F F F F
COUNT 1 1 1 1 1 1 1
WIDTH 577
HEIGHT 1
VIEWPOINT 0 0 0 1 0 0 0
POINTS 577
DATA ascii
2444 -1808 -239 -0.53909552 0.78168094 -0.31360957 0.12200987
2445 -1810 -245 -0.53516519 0.77014142 -0.34710267 0.100439
2436 -1893 -192 -0.90017694 -0.16975242 0.40108043 0.10119361
2453 -1967 -192 -0.88515812 -0.46516106 0.010966166 0.11530948
2429 -1829 -243 -0.78701782 0.50725007 -0.35114148 0.080594316
2418 -1849 -242 -0.92862713 0.25731698 -0.26728189 0.090462938
2428 -1858 -192 -0.90264457 0.18207644 0.38997549 0.095113732
2447 -1931 -192 -0.90610307 -0.36553586 0.21298094 0.08075992
2430 -1908 -197 -0.91774994 -0.28772476 0.27376899 0.078689277
2451 -1883 -189 -0.66194308 0.060413789 0.74711555 0.15733433
2427 -1885 -192 -0.91282225 -0.10589195 0.39438865 0.090347819
2444 -1874 -205 -0.92418951 0.10189291 0.36809179 0.16050594
2433 -1896 -204 -0.93939269 -0.22048098 0.26254416 0.096583553
2432 -1865 -256 -0.76336819 -0.02410836 -0.64551353 0.11902794
2441 -1842 -257 -0.7282815 0.36387399 -0.58069086 0.093524665
2450 -1939 -205 -0.89230382 -0.4483487 -0.052700769 0.074744053
2409 -1877 -233 -0.98598284 -0.11849605 -0.11745873 0.10230986
2409 -1862 -227 -0.99585038 0.090165198 0.012336607 0.076563321
2423 -1841 -218 -0.91946417 0.38773614 0.065163769 0.090069525
2430 -1883 -181 -0.86300892 -0.076952077 0.49929348 0.096413545
2447 -1940 -200 -0.90037215 -0.42074928 0.11090564 0.064197429
2427 -1860 -223 -0.98884416 0.13900346 0.053528342 0.099211141
2423 -1825 -212 -0.83549434 0.52952677 0.14680114 0.099517927
2435 -1902 -187 -0.89843553 -0.23054078 0.37371701 0.098544069
2438 -1919 -193 -0.9073137 -0.32661399 0.26477394 0.077406384
2434 -1824 -222 -0.7457453 0.66570818 0.026392279 0.12175039
2450 -1825 -263 -0.54140627 0.63608831 -0.54979175 0.088202968
2449 -1825 -268 -0.55318373 0.60247862 -0.57533234 0.080134436
2444 -1820 -251 -0.58058518 0.70106089 -0.4140465 0.093209729
2442 -1816 -245 -0.58508289 0.74025375 -0.3312135 0.10044052
2441 -1811 -233 -0.57818723 0.78629649 -0.217801 0.14428565
2439 -1812 -239 -0.60367835 0.73442531 -0.31014821 0.10893318
2447 -1823 -257 -0.55444741 0.67146415 -0.49165422 0.087505177
2440 -1835 -267 -0.65294027 0.42386189 -0.62770218 0.092270449
2459 -1964 -180 -0.87532485 -0.47748137 0.076275893 0.13622233
2451 -1935 -175 -0.91937172 -0.34310335 0.19244687 0.11716595
2435 -1900 -170 -0.95500112 -0.19758584 0.22120754 0.14746077
2460 -1945 -168 -0.90460271 -0.42110762 0.066048108 0.16179386
2462 -1966 -173 -0.85667515 -0.50742191 0.092901297 0.16598389
2429 -1854 -199 -0.89986694 0.23600094 0.36680099 0.097874314
2424 -1888 -208 -0.97323883 -0.16455267 0.16040179 0.084148809
2429 -1834 -194 -0.75367659 0.46416166 0.46532309 0.11171031
2419 -1865 -203 -0.96331584 0.079239428 0.25640547 0.080447614
2463 -1938 -217 -0.77202427 -0.46429983 -0.43405545 0.087122604
2444 -1914 -162 -0.92707348 -0.34788296 -0.1396862 0.14567362
2424 -1841 -232 -0.91674548 0.37378281 -0.14093998 0.086789437
2451 -1892 -235 -0.68647766 -0.52148634 -0.50675482 0.17493595
2437 -1822 -233 -0.6892606 0.70454824 -0.1689129 0.12578946
2424 -1829 -188 -0.75740629 0.45353252 0.46972764 0.090402834
2427 -1886 -186 -0.89179122 -0.10303757 0.44055825 0.095002651
2441 -1813 -243 -0.58081681 0.73653972 -0.34664258 0.10535608
2423 -1855 -187 -0.87942076 0.17874697 0.44121262 0.09463989
2450 -1961 -185 -0.89656746 -0.44071448 0.044018209 0.1151356
2449 -1931 -186 -0.90253967 -0.35683566 0.24101968 0.094756506
2426 -1829 -241 -0.81522822 0.47820598 -0.32668355 0.077257141
2424 -1838 -204 -0.89284235 0.38750011 0.22951308 0.097996764
2420 -1862 -202 -0.96222585 0.092582919 0.2560271 0.077678435
2480 -1963 -205 -0.8115145 -0.5330925 -0.23928343 0.17313758
2421 -1890 -201 -0.95094573 -0.19434877 0.24068779 0.073206991
2428 -1815 -205 -0.82402802 0.53962702 0.17257017 0.12636253
2439 -1806 -216 -0.63802367 0.76002502 -0.12364409 0.18505111
2441 -1807 -221 -0.59040844 0.79038882 -0.16341163 0.17913008
2446 -1818 -247 -0.5347237 0.77902502 -0.32739985 0.11384352
2443 -1805 -224 -0.57080466 0.79030943 -0.22269472 0.18881768
2445 -1815 -241 -0.53453982 0.80103582 -0.26946032 0.13206436
2439 -1807 -210 -0.57136524 0.77853894 0.25965148 0.19124235
2418 -1864 -218 -0.99407446 0.070432663 0.082795627 0.078563549
2427 -1841 -219 -0.90619123 0.41438487 0.084277183 0.10255168
2440 -1822 -220 -0.59336662 0.77975148 0.19975936 0.14738041
2451 -1874 -242 -0.57889962 -0.32699645 -0.74695945 0.22198035
2438 -1829 -208 -0.58934075 0.65938807 0.46678138 0.14401788
2428 -1892 -195 -0.92112672 -0.17800866 0.34617692 0.089033365
2420 -1872 -217 -0.99459302 -0.014134108 0.10288348 0.086753696
2418 -1866 -223 -0.99740303 0.057912353 0.042817548 0.086375654
2417 -1878 -206 -0.97837299 -0.076986186 0.19198784 0.077915788
2425 -1887 -201 -0.94993913 -0.15202148 0.27295634 0.089506023
2435 -1851 -192 -0.81329942 0.30168629 0.49752322 0.10987242
2440 -1903 -184 -0.88202304 -0.21899827 0.41722313 0.110899
2431 -1855 -187 -0.83343792 0.23832335 0.49858111 0.10063145
2420 -1877 -212 -0.99085206 -0.047496594 0.12631774 0.083762489
2438 -1877 -171 -0.77691507 -0.002861341 0.62959892 0.11554413
2438 -1837 -203 -0.63754588 0.56715524 0.52141166 0.13773867
2437 -1870 -236 -0.96881735 -0.031392299 -0.24577941 0.14001665
2424 -1866 -229 -0.99710786 0.070963733 -0.027202265 0.094389603
2430 -1866 -176 -0.77866918 0.10061163 0.61931539 0.11138882
2428 -1859 -181 -0.8413747 0.15413983 0.51800531 0.097480059
2436 -1899 -190 -0.90252656 -0.21566044 0.37274176 0.09817335
2436 -1844 -197 -0.75990266 0.42231417 0.49416462 0.10992502
2421 -1862 -206 -0.96903056 0.10670697 0.22269568 0.07991828
2430 -1888 -186 -0.89368647 -0.11504755 0.43369183 0.096618161
2409 -1865 -217 -0.99243504 0.051353104 0.11151398 0.06744501
2427 -1851 -195 -0.87379038 0.267768 0.40594414 0.10196189
2427 -1876 -174 -0.85166752 -0.0051526236 0.52405703 0.1134946
2438 -1901 -172 -0.93481207 -0.17738777 0.30766863 0.14921623
2424 -1856 -200 -0.93050373 0.18379694 0.31683055 0.089801669
2413 -1862 -211 -0.98372859 0.090938717 0.15494584 0.066044949
2432 -1846 -189 -0.79747456 0.32308647 0.50955802 0.10150495
2425 -1895 -204 -0.94690788 -0.2100023 0.24344315 0.079437882
2433 -1838 -183 -0.65177697 0.42051971 0.63114965 0.10274286
2419 -1892 -209 -0.96243668 -0.21206598 0.16953941 0.07083305
2428 -1894 -198 -0.92614329 -0.19950947 0.32008532 0.089076981
2415 -1832 -235 -0.89513946 0.3968268 -0.2031104 0.072710335
2431 -1892 -192 -0.9128505 -0.18369937 0.36463475 0.092177011
2437 -1900 -166 -0.96328276 -0.25453466 0.085430928 0.16304713
2442 -1905 -178 -0.92186123 -0.19943814 0.33225933 0.12388261
2434 -1886 -181 -0.86304069 -0.090855472 0.49689642 0.1024489
2425 -1898 -216 -0.959508 -0.27395704 0.065513633 0.084620558
2433 -1874 -168 -0.84376836 0.03985782 0.53522545 0.13220403
2435 -1891 -225 -0.94852453 -0.3026824 -0.093191288 0.12484863
2433 -1815 -219 -0.72210109 0.69019383 0.046932217 0.14665544
2429 -1823 -225 -0.79451954 0.60679227 -0.023277486 0.11782227
2434 -1806 -214 -0.72192216 0.67914021 -0.13265352 0.20435616
2424 -1829 -230 -0.86436492 0.48749006 -0.12339663 0.092475548
2434 -1831 -208 -0.73866981 0.58721155 0.33098248 0.12805106
2429 -1855 -207 -0.93613613 0.23533668 0.26127744 0.10047232
2421 -1878 -206 -0.97968364 -0.06993828 0.18795931 0.08463496
2433 -1916 -206 -0.91184247 -0.36590528 0.18616281 0.061601769
2444 -1922 -192 -0.90467578 -0.32541347 0.2750777 0.084431171
2428 -1853 -246 -0.88775945 0.23012021 -0.39865765 0.099015713
2434 -1829 -247 -0.73748535 0.54759127 -0.39529616 0.088914186
2452 -1956 -191 -0.89278448 -0.41769287 0.16872637 0.096032999
2434 -1886 -192 -0.90511125 -0.11784595 0.40851682 0.10418157
2427 -1853 -193 -0.88716543 0.22238003 0.40433228 0.095554456
2448 -1949 -192 -0.90093875 -0.41762227 0.11790249 0.087436035
2440 -1921 -186 -0.90545815 -0.3093105 0.29064158 0.087483726
2437 -1897 -181 -0.87295866 -0.16111028 0.46042007 0.10126275
2425 -1865 -176 -0.83396035 0.074057177 0.54683232 0.10461208
2437 -1826 -227 -0.72319633 0.69023538 -0.023709526 0.13152109
2438 -1823 -244 -0.67387491 0.65215725 -0.34725133 0.099318869
2437 -1826 -233 -0.74344301 0.6435734 -0.18195014 0.12729351
2440 -1826 -239 -0.68685138 0.6768375 -0.26481342 0.12486095
2442 -1813 -223 -0.54506081 0.83839369 0.002193115 0.16958871
2439 -1827 -246 -0.68520367 0.62310761 -0.37713784 0.10305654
2440 -1828 -216 -0.5676102 0.73610479 0.36873883 0.14668453
2438 -1825 -205 -0.54582143 0.67590296 0.49521115 0.13647005
2440 -1816 -229 -0.60413617 0.79070443 -0.099024691 0.15124546
2441 -1822 -235 -0.61654359 0.77315015 -0.1487036 0.14172377
2440 -1829 -222 -0.64875388 0.73282337 0.20515403 0.15026803
2438 -1826 -210 -0.57534736 0.69229442 0.43555006 0.13940763
2438 -1824 -240 -0.69946653 0.65555662 -0.28459114 0.11579821
2421 -1855 -230 -0.97869807 0.19547904 -0.06275373 0.094007149
2430 -1842 -247 -0.84214175 0.35887435 -0.40250015 0.083627284
2419 -1859 -225 -0.99394196 0.10954857 0.0088564698 0.088763237
2423 -1850 -235 -0.94372106 0.27286077 -0.18691592 0.09212584
2439 -1832 -258 -0.68413496 0.47094351 -0.55693054 0.085348159
2425 -1874 -214 -0.98982149 -0.012381448 0.14177473 0.09326911
2429 -1848 -242 -0.89982522 0.29554856 -0.32088277 0.093005009
2435 -1837 -252 -0.76991636 0.41761804 -0.48251835 0.08707884
2422 -1875 -208 -0.9847908 -0.01847505 0.17275921 0.088137567
2450 -1830 -264 -0.55196202 0.59598559 -0.58321458 0.094233535
2424 -1868 -219 -0.99650484 0.030726524 0.077678986 0.089281209
2425 -1894 -212 -0.96535784 -0.22365758 0.13439319 0.079658754
2430 -1887 -188 -0.8986609 -0.11768081 0.42256334 0.097013079
2428 -1882 -182 -0.86813855 -0.059851833 0.49269986 0.096248291
2417 -1890 -223 -0.98146075 -0.18906312 0.031460579 0.084650882
2405 -1869 -224 -0.99911135 -0.0015769026 0.042119693 0.076301701
2422 -1879 -202 -0.96595335 -0.069012552 0.24934165 0.088606782
2437 -1897 -180 -0.88193679 -0.16401224 0.44191343 0.10839088
2437 -1897 -186 -0.88646579 -0.19449916 0.41993859 0.096925676
2429 -1889 -191 -0.90007758 -0.12499038 0.41741794 0.089417495
2431 -1892 -194 -0.91920865 -0.1829477 0.34869131 0.090304218
2420 -1863 -208 -0.97632968 0.093035243 0.19525588 0.078485318
2409 -1867 -219 -0.99439782 0.032241449 0.10066549 0.068998203
2430 -1894 -200 -0.92777091 -0.18975666 0.32129994 0.094187781
2424 -1883 -197 -0.93942916 -0.10624386 0.32586056 0.096932597
2415 -1866 -213 -0.98976815 0.05176257 0.13296509 0.069219664
2417 -1889 -217 -0.98050505 -0.184541 0.067486852 0.086373381
2431 -1880 -176 -0.83696264 -0.048873115 0.54507333 0.10082588
2433 -1894 -174 -0.90313995 -0.14351885 0.40464881 0.11877924
2427 -1894 -206 -0.95290422 -0.21048708 0.21833184 0.086624511
2428 -1892 -233 -0.93500149 -0.30928904 -0.17352939 0.1072582
2422 -1858 -202 -0.94868988 0.15672745 0.27463448 0.087244898
2424 -1852 -196 -0.9069851 0.23072566 0.35234022 0.091536857
2411 -1843 -242 -0.91689932 0.30960247 -0.2518768 0.084984854
2441 -1817 -216 -0.52669317 0.80487555 0.27344027 0.16254115
2414 -1836 -237 -0.91040665 0.35971659 -0.20436172 0.074140787
2421 -1822 -226 -0.84808654 0.52688408 -0.056056913 0.09860146
2421 -1832 -231 -0.88757557 0.44538528 -0.11765044 0.083407298
2427 -1817 -221 -0.78992915 0.61184424 0.040725626 0.12911314
2431 -1849 -191 -0.82365638 0.29620147 0.48358539 0.10491809
2444 -1911 -204 -0.90733057 -0.35639137 0.22301687 0.11061212
2433 -1872 -203 -0.95339543 0.057974018 0.29610172 0.11482707
2472 -1963 -206 -0.8206678 -0.52318883 -0.22973418 0.1366619
2478 -1976 -165 -0.80028081 -0.56824231 0.19144508 0.16439779
2424 -1853 -192 -0.89165539 0.20859693 0.40179342 0.088577129
2431 -1918 -208 -0.91316909 -0.37959534 0.14842352 0.060513984
2426 -1895 -202 -0.94298834 -0.20336409 0.26346925 0.081114791
2425 -1874 -197 -0.94279712 -0.025945716 0.33235586 0.10037085
2426 -1834 -188 -0.7625075 0.42220309 0.49023151 0.096916437
2475 -1982 -167 -0.78699732 -0.60187262 0.13558924 0.15188144
2463 -1954 -161 -0.81976408 -0.56485885 -0.09445212 0.18824086
2468 -1960 -203 -0.83655757 -0.52567744 -0.15438488 0.1347772
2480 -1970 -159 0.60294694 0.79266268 -0.090227164 0.20599422
2421 -1858 -224 -0.99193144 0.12517609 0.020074442 0.087913461
2427 -1831 -214 -0.85946327 0.49797255 0.11552601 0.10574353
2441 -1924 -195 -0.91259676 -0.34117305 0.22531745 0.076564364
2423 -1844 -219 -0.93698555 0.34658733 0.043992277 0.08983919
2434 -1904 -189 -0.90255272 -0.24857669 0.35157943 0.091158554
2432 -1888 -183 -0.86305273 -0.10386867 0.49431917 0.093742199
2432 -1873 -178 -0.84960973 -0.0049723694 0.52738839 0.10137591
2438 -1887 -231 -0.9198826 -0.32172301 -0.22429976 0.13435774
2429 -1816 -209 -0.81483364 0.56363761 0.13549453 0.12935723
2425 -1848 -206 -0.92135924 0.28441176 0.26496616 0.094975397
2420 -1873 -205 -0.98157853 -0.008406139 0.19087432 0.079231717
2439 -1830 -208 -0.54594564 0.66354477 0.51151896 0.14112559
2428 -1910 -206 -0.9237631 -0.33051911 0.19343954 0.060781915
2443 -1814 -228 -0.53375083 0.84429651 -0.047680862 0.16373035
2433 -1836 -227 -0.86223525 0.5010621 -0.074075058 0.10974571
2417 -1853 -225 -0.98048633 0.19652037 0.0051314929 0.085183538
2418 -1883 -225 -0.98741108 -0.15477812 -0.032604903 0.097481735
2438 -1836 -238 -0.79862052 0.53860086 -0.26854116 0.11935211
2426 -1856 -237 -0.95279747 0.21649589 -0.21285316 0.098362565
2428 -1888 -185 -0.88836807 -0.11038991 0.44566372 0.09407147
2447 -1933 -186 -0.9041723 -0.36296922 0.22522379 0.088581547
2453 -1968 -185 -0.87613142 -0.48197368 0.0097573828 0.12118343
2425 -1856 -185 -0.85686737 0.17350408 0.48546323 0.093285181
2444 -1922 -186 -0.90058601 -0.30115229 0.31345218 0.083916157
2449 -1942 -192 -0.90142906 -0.42526379 0.081094317 0.090688258
2429 -1879 -174 -0.873963 -0.04579166 0.48383033 0.11484208
2415 -1878 -226 -0.99384147 -0.11079232 0.0020544622 0.09119416
2438 -1902 -180 -0.89865965 -0.2056672 0.38744262 0.12144644
2414 -1861 -220 -0.99105704 0.10246249 0.085483946 0.072044492
2422 -1834 -210 -0.89173901 0.42875424 0.14481471 0.086391225
2429 -1822 -206 -0.77881396 0.5827812 0.2319802 0.11365162
2418 -1847 -215 -0.95913446 0.25832894 0.11544403 0.08731094
2472 -1955 -168 -0.86940128 -0.43021345 0.243018 0.21239601
2432 -1875 -203 -0.96428978 -0.021960793 0.26393738 0.10664143
2469 -1971 -173 -0.83710623 -0.52513558 0.15325068 0.16713545
2433 -1836 -194 -0.74591672 0.46976924 0.47214949 0.11022407
2428 -1891 -208 -0.96233362 -0.18856324 0.19585159 0.097098805
2464 -1938 -216 -0.76900363 -0.48963451 -0.41096404 0.11556248
2429 -1853 -198 -0.8918941 0.24822953 0.37803051 0.10093931
2441 -1825 -219 -0.54461688 0.77989399 0.3084766 0.14717939
2436 -1830 -214 -0.71274376 0.63337475 0.30138445 0.13896444
2433 -1837 -208 -0.82951432 0.48473755 0.27737248 0.11938335
2435 -1855 -198 -0.8805539 0.26048473 0.39594498 0.11543934
2417 -1884 -212 -0.98436254 -0.12677884 0.12230106 0.075260103
2440 -1911 -184 -0.91053134 -0.25509951 0.32535672 0.10671854
2430 -1865 -187 -0.86704195 0.10385215 0.48729151 0.10196509
2427 -1874 -176 -0.82914948 0.0055369646 0.55899954 0.10121169
2425 -1905 -216 -0.94404972 -0.31546897 0.09617348 0.074381843
2440 -1909 -196 -0.90009898 -0.31270462 0.30337706 0.096085027
2423 -1865 -181 -0.86666834 0.076189138 0.4930326 0.091589689
2428 -1842 -203 -0.86472434 0.38613757 0.32116929 0.10532948
2440 -1911 -190 -0.88329309 -0.28737858 0.3704145 0.09416949
2417 -1887 -206 -0.97118145 -0.16365343 0.17327489 0.073788218
2441 -1912 -178 -0.91331357 -0.27824381 0.29738638 0.1126661
2427 -1878 -230 -0.98702437 -0.13359794 -0.089075603 0.10186746
2445 -1887 -237 -0.77272028 -0.44910377 -0.44856346 0.14864671
2434 -1884 -171 -0.88147968 -0.063909866 0.46787727 0.12961698
2426 -1897 -201 -0.93750763 -0.23133194 0.2599324 0.075656466
2435 -1906 -172 -0.94763428 -0.2346676 0.2166113 0.1398541
2420 -1882 -218 -0.9902851 -0.11968964 0.070779748 0.086662613
2417 -1876 -223 -0.99777472 -0.060520019 0.027979393 0.087245762
2430 -1858 -192 -0.89392942 0.19513343 0.40350109 0.097994313
2446 -1898 -166 -0.90843612 -0.08915019 0.40840685 0.19110367
2440 -1909 -166 -0.93795264 -0.3456592 -0.027650554 0.1518418
2419 -1863 -206 -0.97259474 0.089485146 0.21459678 0.076375127
2428 -1886 -180 -0.86871201 -0.093996748 0.48631683 0.09588673
2425 -1900 -204 -0.9389801 -0.25809512 0.2273837 0.070881873
2415 -1868 -211 -0.9879083 0.02758804 0.15256524 0.070755005
2424 -1859 -200 -0.93853968 0.15488318 0.30847108 0.091519929
2414 -1833 -235 -0.90190834 0.38144076 -0.20264351 0.074067801
2431 -1882 -174 -0.89058602 -0.068512641 0.44962481 0.12021901
2424 -1821 -224 -0.83592278 0.54881299 -0.0061219777 0.11296227
2429 -1896 -192 -0.91090786 -0.1950599 0.36359116 0.082075618
2442 -1885 -169 -0.85157698 -0.066863641 0.51994807 0.13868749
2419 -1827 -229 -0.87339634 0.4735136 -0.11385836 0.0875884
2434 -1850 -189 -0.8101269 0.29418963 0.50709647 0.10302345
2435 -1818 -219 -0.70012403 0.70952994 0.079959877 0.14338569
2421 -1900 -210 -0.95052963 -0.26905409 0.15525207 0.072019927
2424 -1851 -194 -0.88734692 0.24174011 0.39265412 0.093776993
2427 -1899 -198 -0.92199492 -0.24425174 0.30044386 0.074648909
2408 -1868 -216 -0.99341178 0.025498502 0.11172636 0.069236837
2438 -1861 -243 -0.90093994 0.1711259 -0.39877701 0.13034123
2439 -1844 -184 -0.55663508 0.43428826 0.70820266 0.1133879
2430 -1892 -186 -0.89814878 -0.15928446 0.40982595 0.088150084
2423 -1887 -224 -0.97708184 -0.2091936 -0.039359313 0.097185947
2437 -1808 -214 -0.67329586 0.73936611 -0.0032254762 0.18107653
2424 -1879 -195 -0.93788153 -0.060207665 0.34169179 0.094258584
2426 -1870 -201 -0.9664883 0.022713555 0.25570399 0.092292711
2437 -1898 -191 -0.89896274 -0.21181716 0.38340515 0.094390616
2425 -1859 -206 -0.95925838 0.14897019 0.24006529 0.087946631
2427 -1838 -216 -0.89309072 0.43305174 0.12188167 0.10502058
2428 -1850 -211 -0.93303108 0.28848898 0.21500485 0.10323868
2434 -1832 -221 -0.84552383 0.53352839 0.020902304 0.12297075
2438 -1822 -226 -0.67950463 0.73366958 0.0015473932 0.13942197
2449 -1932 -176 -0.92103291 -0.329961 0.20693992 0.12395381
2475 -1967 -166 -0.82535887 -0.49693835 0.26802045 0.18681349
2437 -1907 -186 -0.89827102 -0.25429645 0.35838869 0.10133366
2443 -1920 -181 -0.91287154 -0.31409568 0.26078621 0.097270772
2458 -1947 -171 -0.90994751 -0.41352427 0.031514209 0.13737603
2486 -1982 -161 -0.76157159 -0.44311827 0.47292164 0.18255912
2449 -1922 -169 -0.93978047 -0.33160961 0.082751296 0.13033529
2450 -1949 -187 -0.89529401 -0.43501872 0.095955394 0.092131279
2450 -1958 -193 -0.89232767 -0.44003198 0.10061435 0.094948001
2460 -1949 -181 -0.88256687 -0.43279028 0.18376176 0.13614883
2451 -1933 -175 -0.91757613 -0.34456626 0.1983133 0.12211489
2420 -1880 -199 -0.95957106 -0.078475669 0.27030513 0.084558249
2448 -1912 -162 -0.94191849 -0.33266568 -0.04607784 0.1653202
2423 -1871 -194 -0.93504512 0.029036896 0.35333765 0.094172247
2421 -1902 -211 -0.94640517 -0.28620496 0.14967951 0.068616144
2416 -1888 -205 -0.96756881 -0.1787758 0.17846483 0.06757535
2446 -1874 -237 -0.84076631 -0.18316042 -0.50947446 0.1890208
2437 -1813 -214 -0.66901797 0.73506904 0.10994776 0.17178772
2424 -1860 -188 -0.89558864 0.13696109 0.42327619 0.093350761
2417 -1839 -229 -0.93121892 0.35641247 -0.07616774 0.0771024
2424 -1831 -224 -0.88589907 0.4633832 -0.021419547 0.089030296
2426 -1849 -182 -0.80950671 0.26862079 0.52205539 0.099631526
2429 -1821 -219 -0.80066055 0.59461296 0.073335402 0.12011682
2432 -1901 -196 -0.91231894 -0.24802856 0.32581589 0.075099953
2439 -1920 -202 -0.89804381 -0.3597562 0.25316566 0.073238984
2478 -1973 -172 -0.76979518 -0.57571673 0.27561867 0.15591322
2469 -1955 -165 -0.856354 -0.51535648 0.032641508 0.19457459
2473 -1979 -178 -0.78879875 -0.59319091 0.16100016 0.14324306
2431 -1888 -190 -0.9027822 -0.12437505 0.41172212 0.098224834
2420 -1875 -237 -0.97796279 -0.096820943 -0.18497168 0.10833228
2430 -1826 -215 -0.79585463 0.58974838 0.13715759 0.11468253
2435 -1878 -185 -0.86397457 -0.043572977 0.50164658 0.10164423
2425 -1866 -231 -0.99635398 0.077037513 -0.036661431 0.095813364
2423 -1836 -220 -0.90250075 0.42975155 0.028390603 0.086404458
2421 -1848 -225 -0.96074688 0.27605411 -0.027559295 0.085879713
2456 -1832 -247 -0.51653737 0.78596568 -0.33977506 0.16877918
2449 -1835 -242 -0.64174169 0.66794467 -0.37685221 0.16630641
2448 -1842 -236 -0.76016873 0.61785173 -0.20100451 0.17222165
2425 -1875 -236 -0.98403579 -0.091124557 -0.15287243 0.11621383
2434 -1869 -197 -0.92009294 0.093831323 0.38029557 0.11583048
2437 -1868 -203 -0.94559604 0.10644362 0.30743775 0.12603727
2424 -1869 -247 -0.9254567 -0.022899374 -0.37816086 0.11859649
2414 -1876 -244 -0.94707727 -0.11367688 -0.30020359 0.11336015
2432 -1884 -219 -0.9843713 -0.16862437 0.05078363 0.11429734
2433 -1863 -265 -0.6728639 -0.01601753 -0.73959291 0.1126501
2442 -1851 -225 -0.89031076 0.45320886 0.044141714 0.16344924
2439 -1865 -209 -0.94850707 0.16769306 0.26872572 0.14004269
2443 -1845 -231 -0.85728556 0.50915647 -0.076296762 0.16783136
2426 -1873 -241 -0.95538414 -0.089162409 -0.28158697 0.11579727
2426 -1878 -230 -0.98741895 -0.123395 -0.098880775 0.10376129
2432 -1884 -207 -0.96987379 -0.11323014 0.21569377 0.11408059
2423 -1865 -252 -0.86059374 0.018608838 -0.50895208 0.11814173
2438 -1860 -214 -0.94354671 0.24516587 0.22274047 0.13402633
2430 -1879 -195 -0.93545467 -0.064057603 0.34759343 0.10811383
2424 -1861 -258 -0.79137021 0.022732778 -0.61091435 0.12020398
2426 -1879 -224 -0.99419761 -0.10745133 -0.0050311512 0.10188521
2445 -1881 -192 -0.85338992 -0.0062474348 0.52123564 0.13872589
2430 -1883 -213 -0.98536402 -0.10463594 0.13457017 0.10372742
2439 -1887 -201 -0.93770653 -0.13861735 0.31857768 0.1222291
2414 -1874 -238 -0.9768616 -0.081234656 -0.19784436 0.10539798
2440 -1856 -220 -0.91748595 0.35511309 0.17920443 0.15114605
2427 -1868 -215 -0.99280709 0.021391977 0.11779799 0.095566295
2429 -1864 -209 -0.9717958 0.099111304 0.21398574 0.10158263
2435 -1862 -204 -0.92408901 0.17257993 0.34099206 0.11790144
2436 -1881 -189 -0.87630177 -0.054289591 0.4786939 0.10919954
2439 -1835 -228 -0.79251325 0.60818481 -0.04509924 0.14336245
2418 -1873 -232 -0.99339676 -0.061736066 -0.096703686 0.099222131
2427 -1850 -244 -0.89195085 0.28128046 -0.3539845 0.088019744
2434 -1840 -233 -0.86958915 0.46539527 -0.16499048 0.11427461
2424 -1870 -221 -0.99706835 0.023630302 0.072776198 0.094018802
2422 -1854 -250 -0.88234675 0.18736525 -0.43169263 0.10487081
2429 -1844 -239 -0.89710313 0.35296783 -0.26574385 0.099300556
2424 -1874 -227 -0.99839145 -0.05602923 -0.008680719 0.094850644
2418 -1858 -256 -0.84392196 0.11733462 -0.52347714 0.11177757
2456 -1942 -217 -0.77584749 -0.48778075 -0.40016332 0.080159128
2455 -1928 -170 -0.90341043 -0.28776571 0.3178685 0.15326734
2453 -1873 -201 -0.52073973 0.39306548 0.7578454 0.20549804
2460 -1958 -205 -0.84189177 -0.51927972 -0.14685661 0.10336272
2449 -1930 -163 -0.93496525 -0.34051389 -0.09945035 0.13825087
2427 -1880 -241 -0.94122118 -0.18942222 -0.27968159 0.11682521
2438 -1858 -257 -0.75080121 0.1332965 -0.64693856 0.10664941
2452 -1892 -191 -0.76074284 -0.090594664 0.64269978 0.14459343
2456 -1949 -211 -0.8099162 -0.50473803 -0.29878983 0.083777845
2429 -1872 -246 -0.91263121 -0.061379161 -0.40414941 0.11764418
2462 -1965 -200 -0.85821164 -0.50789237 -0.074283347 0.12328724
2434 -1866 -252 -0.80162495 0.012257799 -0.59770149 0.11979239
2426 -1888 -236 -0.93049496 -0.28777999 -0.22663146 0.10800532
2450 -1880 -196 -0.80252731 0.13368195 0.58144557 0.18391359
2455 -1965 -206 -0.83599252 -0.52499908 -0.15966371 0.088866517
2461 -1950 -188 -0.88363677 -0.44905561 0.13242048 0.13004947
2457 -1954 -194 -0.88720649 -0.43371972 0.1573271 0.10273787
2463 -1974 -168 -0.81516486 -0.57362175 0.080400653 0.16378678
2467 -1947 -182 -0.85964125 -0.35431072 0.36807728 0.17950901
2459 -1979 -163 -0.77915078 -0.61806178 -0.10451679 0.14325732
2455 -1959 -200 -0.86936021 -0.49329421 -0.029557031 0.099605195
2440 -1879 -195 -0.9196952 -0.052320395 0.38913167 0.12247465
2439 -1889 -201 -0.93550432 -0.14371997 0.32276338 0.11809444
2426 -1877 -247 -0.90343505 -0.15114909 -0.40119705 0.12722728
2427 -1867 -241 -0.95583224 0.023783341 -0.29294908 0.11023568
2442 -1853 -231 -0.89894235 0.43750936 -0.02209389 0.1586363
2436 -1897 -206 -0.94606513 -0.251627 0.20407018 0.10899977
2448 -1846 -226 -0.72995514 0.63746488 0.24658461 0.19026066
2435 -1906 -212 -0.92678124 -0.37072307 0.060340267 0.10352118
2435 -1860 -236 -0.95407844 0.21898234 -0.20440403 0.13131574
2462 -1935 -176 -0.89051807 -0.31829774 0.32506019 0.15607862
2473 -1959 -175 -0.85841793 -0.46026051 0.22644861 0.17648104
2432 -1847 -240 -0.89844602 0.32759178 -0.29236692 0.10621729
2446 -1829 -242 -0.63132828 0.70021236 -0.33335781 0.15282559
2421 -1869 -239 -0.98139411 0.011080523 -0.19168399 0.10602353
2447 -1839 -246 -0.69318014 0.54568428 -0.47088215 0.14809102
2456 -1832 -251 -0.52228755 0.73853761 -0.42635426 0.15803823
2434 -1912 -211 -0.92472392 -0.37751693 0.048648011 0.078038573
2453 -1946 -202 -0.88369137 -0.46778315 -0.016384287 0.087614529
2427 -1874 -225 -0.99884611 -0.044580396 0.017861469 0.10024736
2425 -1894 -216 -0.96887577 -0.24094056 0.056811441 0.082821704
2433 -1890 -221 -0.97155899 -0.23631513 0.015112299 0.11279711
2434 -1867 -231 -0.99264884 0.11870528 -0.023609966 0.12985413
2437 -1845 -240 -0.85782892 0.40377426 -0.31795567 0.1203768
2437 -1857 -236 -0.94127446 0.26691025 -0.20678826 0.1269047
2456 -1958 -197 -0.87647492 -0.48055729 0.029265031 0.098376296
2458 -1967 -191 -0.88416135 -0.46272463 0.064378589 0.12115328
2442 -1837 -221 -0.70016903 0.67822546 0.22309969 0.16062903
2433 -1876 -189 -0.89027703 -0.034260008 0.45412901 0.10049241
2418 -1875 -241 -0.95914274 -0.11679062 -0.25769195 0.11127551
2439 -1919 -207 -0.90236765 -0.3992607 0.16224539 0.083086595
2467 -1951 -170 -0.87104791 -0.47941628 0.10693697 0.18261564
2470 -1964 -176 -0.86164117 -0.44539091 0.24331336 0.18126765
2441 -1908 -201 -0.9084909 -0.31703603 0.27227262 0.10174707
2436 -1892 -195 -0.91743231 -0.17140028 0.35908195 0.099633902
2430 -1871 -237 -0.98052168 -0.018885449 -0.19550095 0.11318053
2449 -1967 -187 -0.88006109 -0.47415394 -0.025895195 0.105887
2461 -1967 -182 -0.87232345 -0.48076326 0.088986285 0.1448238
2431 -1858 -231 -0.97284126 0.21058366 -0.096096456 0.11198962
2440 -1850 -226 -0.90388596 0.42680493 0.0287687 0.15128599
2444 -1912 -156 -0.85363531 -0.41180393 -0.31894225 0.14150855
2418 -1844 -204 -0.93359101 0.27426475 0.23062246 0.087452188
2424 -1821 -206 -0.79716963 0.5654583 0.21160683 0.098871879
2429 -1909 -203 -0.92294556 -0.31719989 0.21807253 0.064811118
2419 -1873 -204 -0.98048383 -0.011617217 0.19625643 0.07616064
2461 -1945 -172 -0.90285474 -0.41939616 0.09465827 0.16106163
2441 -1911 -165 -0.93116003 -0.3499043 -0.10250858 0.15037385
2462 -1965 -177 -0.86640763 -0.49091709 0.091314152 0.1607834
2415 -1881 -211 -0.98444927 -0.10457915 0.14114834 0.072439581
2426 -1852 -202 -0.91724235 0.24799603 0.31171221 0.09604124
2434 -1839 -197 -0.75738651 0.45545062 0.46789992 0.11260322
2444 -1894 -160 -0.94144773 -0.32201049 -0.099926792 0.19689557
2419 -1866 -206 -0.97567916 0.052377321 0.21285401 0.078566834
2480 -1968 -164 -0.71653938 -0.60122776 0.35368979 0.20178898
2437 -1865 -194 -0.88025904 0.14812455 0.45078072 0.11572696
2439 -1906 -204 -0.91684204 -0.32400492 0.23328401 0.10669421
2439 -1887 -199 -0.9338426 -0.1307071 0.33294705 0.11943918
2432 -1866 -223 -0.99107128 0.1053517 0.081723519 0.11281228
2451 -1919 -188 -0.87677443 -0.31809181 0.36067191 0.108222
2421 -1874 -227 -0.99838895 -0.055411205 -0.012208956 0.093551382
2439 -1838 -213 -0.6858685 0.59744579 0.41550317 0.15140885
2458 -1954 -200 -0.87280566 -0.48634538 -0.040968366 0.10003652
2441 -1879 -176 -0.76413745 0.013394276 0.64491433 0.12619513
2441 -1896 -181 -0.85084599 -0.12678075 0.50988996 0.11552326
2434 -1851 -218 -0.93423158 0.32598504 0.14472435 0.1222201
2460 -1941 -194 -0.8880654 -0.40676153 0.21420778 0.12480401
2424 -1851 -236 -0.94103998 0.26240489 -0.21351206 0.09403713
2454 -1830 -258 -0.51178932 0.62761283 -0.58666331 0.11305079
2445 -1835 -253 -0.66046721 0.5318746 -0.529993 0.11126337
2433 -1838 -247 -0.80467081 0.42797458 -0.41151273 0.08626458
2427 -1843 -241 -0.88528621 0.34053379 -0.31670973 0.085677266
2471 -1967 -167 -0.8352831 -0.52593958 0.16028008 0.18687397
2415 -1879 -215 -0.99129403 -0.085752264 0.099913873 0.080158904
2453 -1962 -196 -0.87455809 -0.48478019 0.011674469 0.10358699
2418 -1856 -231 -0.98148155 0.17666851 -0.074041493 0.09141276
2451 -1942 -184 -0.90620035 -0.37718114 0.19114232 0.097187117
2481 -1977 -161 -0.75285363 -0.55856371 0.34816381 0.19964501
2420 -1890 -210 -0.97038627 -0.19671182 0.14019638 0.081851333
2421 -1867 -226 -0.99887592 0.04731578 0.0028481595 0.090401813
2429 -1903 -205 -0.93531758 -0.27072191 0.22779508 0.071634218
2433 -1913 -200 -0.90780419 -0.34191006 0.24287647 0.075412609
2464 -1959 -173 -0.85212779 -0.51527631 0.091479927 0.16515961
2441 -1930 -189 -0.90858448 -0.36091816 0.21026748 0.067283474
2482 -1978 -155 -0.74620515 -0.65513551 0.11821768 0.22420928
2420 -1875 -220 -0.9960745 -0.046242792 0.075479448 0.087300241
2435 -1920 -194 -0.90281528 -0.33867756 0.26499453 0.076912597
2455 -1949 -178 -0.89443958 -0.44091129 0.074665688 0.11432705
2446 -1940 -197 -0.90420687 -0.41388467 0.10540162 0.071876407
2412 -1879 -208 -0.98074448 -0.083414063 0.17658511 0.074436679
2456 -1963 -190 -0.87275344 -0.46320596 0.15408331 0.10629267
2479 -1971 -167 -0.70596439 -0.66148913 0.25307387 0.18335609
2451 -1958 -184 -0.88410443 -0.46532029 0.042853449 0.11810461
2417 -1864 -197 -0.95459086 0.073274806 0.28876826 0.079476684
2415 -1898 -221 -0.96031153 -0.27015451 0.069413126 0.074724883
2409 -1885 -214 -0.97867763 -0.17284663 0.11096949 0.069628648
2413 -1871 -203 -0.97800696 -0.013810502 0.20811437 0.070579961
2460 -1963 -178 -0.87737143 -0.47668028 0.054729179 0.14046012
2418 -1854 -191 -0.91107738 0.17054166 0.37530473 0.087215126
2440 -1915 -178 -0.91625744 -0.31202161 0.25122654 0.11200688
2450 -1907 -167 -0.88861072 -0.20629764 0.40964895 0.17507036
2472 -1961 -160 -0.80533588 -0.58999425 0.057799727 0.19513722
2441 -1941 -203 -0.89878088 -0.43702233 0.034704302 0.059241958
2468 -1966 -172 -0.85517859 -0.4997136 0.13767995 0.17840625
2423 -1867 -245 -0.94257545 0.022489585 -0.33323526 0.11446315
2442 -1930 -191 -0.91089636 -0.35893288 0.20355608 0.071826912
2429 -1898 -171 -0.95086265 -0.18906392 0.2451838 0.13962005
2497 -1977 -155 -0.71792376 -0.26651266 0.64308357 0.19229424
2445 -1925 -185 -0.90858334 -0.31777996 0.27109429 0.085110754
2427 -1824 -222 -0.8103379 0.58317429 0.057098735 0.11288617
2418 -1829 -227 -0.88931793 0.44944635 -0.084330179 0.084280446
2441 -1822 -218 -0.53915918 0.79613626 0.27472603 0.14499798
2434 -1856 -187 -0.81222141 0.24287502 0.5303849 0.10532791
2409 -1834 -232 -0.92618263 0.34718311 -0.14713828 0.07162597
2408 -1844 -237 -0.94799411 0.28297499 -0.14571312 0.076728798
2446 -1915 -175 -0.91659373 -0.29596141 0.26881742 0.12442674
2421 -1865 -225 -0.99600238 0.085735969 0.025070978 0.086851433
2427 -1872 -174 -0.8222245 0.019188514 0.56883979 0.10144632
2441 -1823 -227 -0.60479897 0.79506838 0.045657258 0.15267812
2474 -1968 -176 -0.85399282 -0.45733294 0.24807842 0.18045248
2428 -1842 -226 -0.91497004 0.39946297 -0.057089094 0.10239078
2489 -1982 -156 -0.811122 -0.36607867 0.45614427 0.209333
2430 -1827 -208 -0.79048914 0.56392252 0.2389947 0.11624758
2429 -1880 -206 -0.96244931 -0.064346708 0.26372507 0.11030949
2423 -1848 -207 -0.93473572 0.27026045 0.23071273 0.088884957
2437 -1913 -205 -0.90883708 -0.34952444 0.22770108 0.08395236
2434 -1888 -195 -0.91843575 -0.14664422 0.36738425 0.10165801
2436 -1848 -186 -0.72262114 0.35644051 0.59225738 0.11008938
2432 -1906 -200 -0.91150743 -0.28814822 0.29347026 0.079926938
2426 -1861 -190 -0.90210921 0.15566474 0.40245175 0.096124373
2454 -1930 -183 -0.89496559 -0.3490082 0.27790254 0.12561069
2457 -1948 -189 -0.8946768 -0.42430776 0.13970087 0.11360477
2438 -1901 -177 -0.90667301 -0.18455084 0.37932184 0.12525521
2428 -1835 -208 -0.84528333 0.46957293 0.25494564 0.11230686
2432 -1855 -213 -0.94598311 0.2616491 0.19145674 0.11878048
2412 -1857 -217 -0.98552722 0.13101232 0.10757249 0.064104341
2430 -1819 -203 -0.78024209 0.5767532 0.24202913 0.11997514
2429 -1878 -171 -0.89031124 -0.034597255 0.45403627 0.11996948
2428 -1865 -206 -0.96774745 0.080674015 0.23865585 0.095457405
2429 -1832 -220 -0.86789781 0.49598283 0.027466124 0.10437818
2439 -1827 -226 -0.69054127 0.72282833 0.025922995 0.14423639
2423 -1871 -200 -0.96530783 0.008350295 0.26098102 0.09072949
2427 -1842 -215 -0.90720963 0.40306205 0.1204643 0.09937153
2464 -1955 -171 -0.86809534 -0.49074197 0.074717768 0.17934769
2430 -1886 -196 -0.92898065 -0.1288618 0.34697199 0.10471731
2440 -1904 -192 -0.88642114 -0.22553372 0.40421793 0.10040894
2426 -1852 -211 -0.95101374 0.2395049 0.19547473 0.095823564
2476 -1971 -166 -0.73601395 -0.64663953 0.20035177 0.17838101
2445 -1916 -186 -0.89971739 -0.30824384 0.30902153 0.10083173
2453 -1931 -182 -0.89181155 -0.35675481 0.27820525 0.12734085
2458 -1943 -176 -0.9073984 -0.38059708 0.17825221 0.12965266
2448 -1921 -168 -0.93976021 -0.33288184 0.077720582 0.13308282
2464 -1953 -181 -0.84907645 -0.47244522 0.2363569 0.15330736
2425 -1873 -193 -0.92017424 -0.002373016 0.39150178 0.098069236
2459 -1965 -194 -0.87580901 -0.48229799 0.018633427 0.11649783
2428 -1863 -188 -0.88409775 0.12448908 0.45041513 0.095988482
2426 -1832 -224 -0.87819976 0.47785863 -0.020403972 0.093008645
2451 -1951 -187 -0.88574755 -0.45457008 0.093900949 0.099714458
2421 -1881 -199 -0.9582929 -0.075916186 0.27552021 0.085356764
2447 -1911 -162 -0.9463504 -0.32310849 -0.0046655294 0.17534664
2430 -1822 -219 -0.77716231 0.62247366 0.092440985 0.11855232
2455 -1936 -175 -0.91610575 -0.35231423 0.1913766 0.13402064
2421 -1841 -229 -0.92949545 0.35995248 -0.080451697 0.080904506
2434 -1842 -177 -0.51909268 0.40980935 0.7500661 0.1041655
2425 -1848 -182 -0.79987431 0.27470195 0.53361034 0.1016169
2418 -1889 -204 -0.96188879 -0.19777659 0.18882388 0.072707564
2437 -1813 -214 -0.66901797 0.73506904 0.10994776 0.17178772
2451 -1945 -195 -0.90170366 -0.41278818 0.12859391 0.081514388
2435 -1902 -182 -0.89017427 -0.20666264 0.40605459 0.1084572
2419 -1834 -212 -0.90047956 0.41614968 0.1263165 0.085910551
2429 -1825 -208 -0.80116332 0.56069267 0.20919141 0.11293821
2435 -1870 -171 -0.76354903 0.065639682 0.64240515 0.11080571
2418 -1866 -223 -0.99740303 0.057912353 0.042817548 0.086375654
2442 -1922 -188 -0.89767337 -0.30378604 0.31921226 0.080752566
2420 -1852 -217 -0.97244418 0.20745522 0.10636996 0.087425105
2431 -1883 -176 -0.8805781 -0.069145717 0.46882951 0.11129891
2436 -1813 -203 -0.62894475 0.6814298 0.37427527 0.16381565
2445 -1802 -220 -0.53296292 0.82893354 -0.16976368 0.21542323
2430 -1832 -237 -0.83334517 0.50216639 -0.23100793 0.10354028
2448 -1928 -161 -0.92210692 -0.3553955 -0.1530122 0.13766667
2429 -1913 -204 -0.91771615 -0.34244737 0.20131278 0.060597584
2464 -1952 -168 -0.86692989 -0.49524987 0.056214534 0.17344089
2430 -1901 -198 -0.92110902 -0.2467037 0.30115694 0.076593138
2424 -1884 -192 -0.91788155 -0.10481642 0.38276222 0.086745434
2464 -1962 -174 -0.8568573 -0.51013851 0.074527688 0.16470033
2458 -1968 -180 -0.87310225 -0.48616374 0.036568116 0.13093875
2437 -1818 -213 -0.65708417 0.72146678 0.21846277 0.14947994
2429 -1847 -176 -0.68723887 0.31308508 0.65550017 0.10902946
2426 -1859 -181 -0.84515357 0.14647681 0.51406229 0.094985314
2426 -1872 -186 -0.88950336 -0.0031602285 0.45691755 0.095749468
2428 -1827 -217 -0.83386087 0.54479325 0.088748559 0.11216316
2421 -1836 -222 -0.9131878 0.40731615 0.013472182 0.079781063
2416 -1846 -227 -0.96182585 0.27022374 -0.043245576 0.080282569
2434 -1852 -184 -0.77507746 0.28456026 0.56416345 0.10906764
2442 -1916 -184 -0.90824759 -0.31806651 0.27188256 0.1014844
2462 -1963 -185 -0.89016247 -0.42812318 0.15595248 0.13699812
2428 -1876 -183 -0.88440734 -0.02889768 0.4658204 0.09354943
