# .PCD v0.7 - Point Cloud Data file format
VERSION 0.7
FIELDS x y z normal_x normal_y normal_z curvature
SIZE 4 4 4 4 4 4 4
TYPE F F F F F F F
COUNT 1 1 1 1 1 1 1
WIDTH 532
HEIGHT 1
VIEWPOINT 0 0 0 1 0 0 0
POINTS 532
DATA ascii
2651 -1144 4 -0.53240323 0.52970588 -0.66027153 0.10582504
2596 -1179 54 -0.99747431 -0.054021761 -0.046114586 0.12791203
2602 -1163 53 -0.92170644 0.38780096 0.0082324352 0.12520146
2618 -1166 6 -0.63356054 0.48169622 -0.60545003 0.062201392
2596 -1197 55 -0.92497587 -0.37996471 -0.0068139504 0.11189821
2631 -1153 5 -0.55858827 0.49707487 -0.6639998 0.061987318
2601 -1145 51 -0.80784804 0.5886144 -0.030243501 0.10593341
2624 -1158 27 -0.67802513 0.48049811 -0.55624044 0.10511076
2604 -1181 73 -0.93516278 -0.050383043 0.35061681 0.12323188
2611 -1170 26 -0.79575843 0.29379982 -0.52957535 0.10113354
2621 -1139 29 -0.56523901 0.721982 -0.39905751 0.074515551
2609 -1201 72 -0.86220133 -0.33281741 0.38189194 0.13161251
2609 -1186 25 -0.90427119 0.14195195 -0.4026702 0.095504574
2604 -1184 80 -0.84817684 -0.090368129 0.52194792 0.12521641
2606 -1169 34 -0.89672345 0.28248897 -0.34071544 0.12106372
2604 -1148 34 -0.75751102 0.54090649 -0.36550966 0.086824834
2602 -1189 34 -0.95362687 -0.12177701 -0.27525654 0.11180748
2658 -1161 -10 -0.53710908 0.50845391 -0.67304415 0.11916344
2661 -1184 -10 -0.50267887 0.52411121 -0.68747467 0.15518907
2607 -1169 25 -0.81590462 0.27413291 -0.50906867 0.10197628
2594 -1174 69 -0.97044486 0.023113146 0.24021371 0.12004346
2658 -1133 -23 -0.78393149 0.24128675 -0.57204199 0.23242261
2681 -1165 -23 -0.56867731 0.4490371 -0.68918192 0.13683175
2619 -1153 25 -0.67634612 0.48807326 -0.55167055 0.09538953
2619 -1206 71 -0.80862522 -0.45736712 0.37005472 0.14233528
2605 -1175 44 -0.97719866 0.068787619 -0.2008756 0.14104548
2600 -1190 43 -0.96517378 -0.17550513 -0.19400366 0.12061483
2605 -1157 45 -0.86271042 0.49019265 -0.12426489 0.12113131
2651 -1200 -15 -0.54978627 0.82520628 -0.12949754 0.19054608
2590 -1186 29 -0.91948307 -0.060684133 -0.38841778 0.10159177
2627 -1142 30 -0.56153578 0.71438688 -0.41752729 0.07461828
2662 -1184 -15 -0.53953844 0.5967955 -0.59391361 0.16257074
2658 -1162 -14 -0.51629555 0.48881653 -0.70320493 0.12424389
2602 -1151 30 -0.76762354 0.49163336 -0.41115779 0.089146957
2593 -1167 30 -0.90565711 0.20427038 -0.37156269 0.097273141
2669 -1126 -14 -0.71556878 0.67387277 -0.18400203 0.23199233
2645 -1148 -12 -0.53990811 0.51641434 -0.66469198 0.10894158
2587 -1174 30 -0.92939395 0.09072005 -0.3577663 0.09615209
2672 -1140 -12 -0.56138438 0.54455405 -0.62314403 0.17766631
2601 -1142 31 -0.71977246 0.57517338 -0.38871986 0.080846593
2605 -1163 31 -0.85132438 0.32524073 -0.41166157 0.11206483
2612 -1162 14 -0.6996935 0.38791722 -0.59995764 0.078500621
2633 -1150 14 -0.5288403 0.5506531 -0.64583981 0.071957849
2615 -1157 59 -0.76705986 0.60524714 0.21282634 0.1343966
2632 -1192 14 -0.60185695 0.47108692 -0.64486068 0.11074486
2669 -1156 -30 -0.5710668 0.46459612 -0.67678148 0.1602426
2612 -1176 59 -0.99635208 0.05123293 0.068248831 0.15629801
2617 -1165 14 -0.68649304 0.41418737 -0.59764212 0.073081091
2597 -1169 58 -0.9855631 0.1591499 0.057764202 0.12730947
2607 -1192 58 -0.94507223 -0.32149839 0.058969483 0.12756626
2634 -1191 13 -0.58302104 0.47749424 -0.65733224 0.10820629
2667 -1159 -28 -0.58812875 0.44010696 -0.67853558 0.15563546
2631 -1152 15 -0.53015286 0.52701443 -0.66422415 0.077431068
2669 -1141 -27 -0.84519511 0.35582164 -0.39879346 0.2231617
2651 -1190 1 -0.5210802 0.46248424 -0.71734488 0.17982458
2606 -1142 48 -0.73853296 0.67104357 -0.065341949 0.10213646
2635 -1140 0 -0.55893445 0.65612191 -0.50704658 0.11247929
2618 -1154 0 -0.59121102 0.50568753 -0.62829101 0.056342259
2590 -1157 49 -0.94142944 0.32891181 -0.074348845 0.10475062
2604 -1198 42 -0.91222113 -0.3730402 -0.16939214 0.11701266
2601 -1162 44 -0.91772431 0.37126642 -0.14122093 0.12486051
2611 -1149 45 -0.76548839 0.63540536 -0.10142753 0.11689924
2604 -1181 43 -0.97214633 -0.069834948 -0.22372881 0.13263029
2615 -1153 18 -0.65847683 0.44979385 -0.60340184 0.080285631
2674 -1173 -27 -0.54722977 0.48062959 -0.68522608 0.16586387
2640 -1144 17 -0.50503385 0.63148558 -0.58835942 0.076341256
2604 -1168 18 -0.7892558 0.28160369 -0.54568738 0.088952042
2594 -1173 66 -0.98589939 0.021188235 0.16599211 0.11782148
2619 -1194 19 -0.82113409 0.24201462 -0.51688278 0.11293528
2604 -1198 67 -0.88868117 -0.40135446 0.22172165 0.13025537
2611 -1174 41 -0.94974548 0.22428977 -0.21835208 0.14833657
2635 -1153 -4 -0.58146822 0.5075317 -0.63585085 0.080565289
2654 -1144 -3 -0.52019733 0.53154969 -0.66846818 0.11037382
2645 -1176 -5 -0.50341552 0.55047339 -0.66599685 0.10701062
2606 -1154 42 -0.81315327 0.56446964 -0.14197129 0.11568763
2605 -1189 40 -0.96699494 -0.1460342 -0.2087938 0.12504838
2597 -1186 43 -0.97397888 -0.1285162 -0.18667789 0.1196771
2640 -1174 0 -0.51260054 0.55239427 -0.6573441 0.085860603
2606 -1147 43 -0.77524006 0.61706924 -0.13501287 0.10583773
2601 -1166 43 -0.94449723 0.28013122 -0.17161423 0.12968515
2640 -1152 0 -0.56210113 0.50620043 -0.6540668 0.080434956
2649 -1147 8 -0.55208951 0.50130057 -0.6662544 0.093003474
2607 -1195 58 -0.93036973 -0.36389145 0.044667128 0.13226414
2594 -1170 57 -0.98967576 0.14109971 0.025157878 0.12319271
2611 -1168 9 -0.68964541 0.4468008 -0.56987566 0.0668073
2600 -1154 56 -0.89217627 0.45123082 0.020301066 0.11784267
2622 -1154 8 -0.59600979 0.46117231 -0.65733731 0.063841321
2608 -1150 40 -0.78654492 0.58966327 -0.18342386 0.11266524
2597 -1166 40 -0.94051623 0.25687099 -0.22236574 0.11546544
2662 -1181 -4 -0.50497741 0.51288313 -0.69422531 0.12719637
2590 -1184 40 -0.97617406 -0.063738853 -0.20741662 0.10174911
2649 -1154 -4 -0.54813731 0.49760982 -0.6722573 0.095254809
2675 -1149 -17 -0.52497882 0.51233572 -0.6796391 0.15473968
2672 -1127 -17 -0.80585974 0.46874627 -0.3617554 0.25052497
2657 -1183 -17 -0.50465679 0.62595731 -0.59455782 0.14483081
2602 -1169 30 -0.87954539 0.23379037 -0.41441759 0.10669441
2609 -1178 76 -0.89566779 0.029679976 0.44373223 0.1264023
2627 -1139 30 -0.53426397 0.74273217 -0.40362236 0.070988297
2611 -1152 30 -0.73181838 0.47202244 -0.49156553 0.088838592
2613 -1195 30 -0.9293251 -0.17812406 -0.32346025 0.10967233
2616 -1151 20 -0.6571421 0.50119036 -0.56300306 0.079599097
2599 -1181 69 -0.9618302 -0.058001678 0.26742926 0.12017466
2603 -1160 69 -0.92509949 0.31377763 0.21385621 0.13892135
2608 -1169 21 -0.78197467 0.29340619 -0.54993498 0.097845532
2616 -1210 70 -0.80382168 -0.46554562 0.37032139 0.13352428
2599 -1163 27 -0.83885163 0.25902042 -0.47878635 0.10413484
2668 -1180 -18 -0.52198017 0.55631286 -0.64656997 0.15418233
2616 -1151 27 -0.69295102 0.48245165 -0.53577912 0.095609345
2605 -1177 74 -0.91950637 0.02243354 0.39243454 0.12513027
2620 -1192 26 -0.89549685 -0.021376245 -0.44455421 0.11086567
2620 -1204 74 -0.80446213 -0.40765935 0.43203527 0.13592657
2609 -1202 47 -0.83165556 -0.53971916 -0.13058406 0.11936073
2603 -1182 48 -0.98533231 -0.086029075 -0.14737436 0.13832861
2611 -1150 51 -0.77268404 0.63476729 -0.0054740827 0.11359416
2612 -1169 49 -0.94694573 0.30468968 -0.10226418 0.15944321
2614 -1201 67 -0.84507895 -0.48934677 0.21536317 0.13088459
2602 -1166 18 -0.78442544 0.26900414 -0.55885023 0.088596061
2673 -1151 -28 -0.69103682 0.41776359 -0.5898658 0.18986195
2617 -1153 18 -0.65179974 0.46441698 -0.59956145 0.078668877
2599 -1175 66 -0.98495221 0.044895586 0.16689365 0.12720624
2620 -1164 65 -0.58440816 0.62450808 0.51812816 0.14728832
2660 -1172 -8 -0.50501686 0.50454932 -0.70027709 0.11615316
2655 -1148 -8 -0.52601457 0.53998649 -0.65705645 0.11751395
2657 -1192 -9 -0.55545187 0.60699636 -0.5683561 0.19320786
2598 -1183 63 -0.98254812 -0.11340949 0.14743628 0.12134948
2623 -1159 18 -0.62806624 0.43605405 -0.64450729 0.091678776
2645 -1148 18 -0.51365429 0.59119672 -0.62180841 0.07992772
2622 -1179 18 -0.70863956 0.39228186 -0.58646816 0.088056713
2589 -1158 63 -0.95172322 0.27921149 0.12752983 0.10702101
2674 -1171 -26 -0.55785114 0.49004102 -0.66982234 0.15378065
2626 -1158 19 -0.60985249 0.45964003 -0.64560902 0.089306235
2617 -1175 18 -0.73842883 0.38571471 -0.55312467 0.083784722
2666 -1170 -27 -0.52587306 0.4885594 -0.69625241 0.15504074
2606 -1172 39 -0.936279 0.22865488 -0.26664308 0.13621236
2610 -1153 39 -0.80079752 0.56004512 -0.21230367 0.11727133
2625 -1138 39 -0.54603678 0.79425871 -0.2664524 0.087718464
2651 -1161 -5 -0.54007304 0.51626307 -0.66467553 0.096591994
2612 -1196 39 -0.90634269 -0.34785926 -0.23986842 0.12761101
2624 -1195 85 -0.51678687 -0.00181639 0.85611212 0.13506064
2612 -1189 62 -0.9579649 -0.27591431 0.078578159 0.14409046
2604 -1203 61 -0.87609369 -0.46305066 0.13432771 0.11949985
2628 -1150 21 -0.57423937 0.56403863 -0.59338826 0.083487868
2637 -1190 18 -0.65720004 0.31304261 -0.68563294 0.098345637
2617 -1164 19 -0.70241666 0.36397758 -0.61166275 0.085649617
2608 -1169 63 -0.94336593 0.25101301 0.21691732 0.14193285
2672 -1156 -26 -0.55416203 0.45674157 -0.69591063 0.16061804
2608 -1148 53 -0.76464278 0.64359546 0.033261221 0.11376906
2602 -1187 53 -0.99035597 -0.13277793 -0.039561749 0.13550578
2621 -1169 7 -0.61120373 0.50152469 -0.61229306 0.065482289
2683 -1165 -41 -0.52159059 0.43840837 -0.73194349 0.1672816
2599 -1165 53 -0.95813751 0.28454047 -0.031770039 0.12248651
2637 -1155 7 -0.54115582 0.51141495 -0.66753662 0.064772457
2618 -1150 31 -0.6871326 0.53774363 -0.48854947 0.099319361
2612 -1183 28 -0.88741589 0.084928617 -0.4530786 0.10340326
2624 -1135 32 -0.53125274 0.75636166 -0.38169038 0.071320079
2616 -1167 30 -0.80338103 0.38719824 -0.45238972 0.11840363
2603 -1176 77 -0.8814646 0.02401356 0.47163922 0.12247101
2610 -1214 75 -0.76904625 -0.4525913 0.45136347 0.090451576
2609 -1196 76 -0.84677285 -0.27567416 0.45495 0.12994386
2599 -1201 59 -0.90702021 -0.41616464 0.064197622 0.11069156
2605 -1185 59 -0.98832768 -0.14202218 0.055119175 0.13839568
2677 -1131 -13 -0.65998185 0.59257716 -0.46181852 0.23109044
2670 -1165 -11 -0.51378989 0.46522695 -0.72082168 0.12640224
2603 -1186 67 -0.96434212 -0.18052362 0.19353439 0.13058782
2669 -1165 -29 -0.56805563 0.45897728 -0.68311983 0.15711668
2606 -1183 21 -0.8828792 0.21892489 -0.41544691 0.086358167
2623 -1153 19 -0.61229396 0.50895286 -0.60503149 0.090147682
2610 -1166 20 -0.75349939 0.32358935 -0.57230115 0.09802305
2622 -1213 69 -0.77785242 -0.52816403 0.34057072 0.13198861
2601 -1167 66 -0.9672218 0.18655442 0.17227727 0.1349171
2599 -1168 37 -0.9347744 0.23780748 -0.26390252 0.1155347
2638 -1154 -9 -0.57692069 0.50670737 -0.64063269 0.08711198
2589 -1184 38 -0.97426355 -0.029318102 -0.22349718 0.1013013
2673 -1148 -9 -0.55347824 0.54901832 -0.62629122 0.14439096
2600 -1148 37 -0.79506844 0.53710479 -0.28175297 0.089582108
2670 -1192 -13 -0.56190175 0.4638744 -0.68489921 0.21559134
2673 -1149 -12 -0.54004014 0.53918964 -0.64624387 0.14690398
2676 -1129 -12 -0.65296096 0.6575864 -0.37579525 0.24267074
2665 -1168 -12 -0.53109914 0.48679414 -0.69351649 0.12648934
2594 -1166 68 -0.96800905 0.15133262 0.20014217 0.12218911
2587 -1185 69 -0.96109313 -0.15993357 0.22521389 0.099005356
2616 -1147 35 -0.68275684 0.65061516 -0.33248016 0.097380474
2668 -1177 -9 -0.5415954 0.49151599 -0.6819725 0.13680175
2655 -1191 -10 -0.50477779 0.61105525 -0.60976291 0.18287311
2669 -1156 -9 -0.5585348 0.48580086 -0.67233646 0.13257995
2626 -1204 83 -0.51721662 -0.14879127 0.84282148 0.12606177
2612 -1177 83 -0.79010904 0.011115158 0.61286551 0.12872267
2591 -1176 34 -0.95209497 0.082711883 -0.29440424 0.10077134
2602 -1161 35 -0.87217999 0.37394413 -0.31538513 0.11236247
2618 -1158 22 -0.68911046 0.418926 -0.59129333 0.095421411
2622 -1197 25 -0.89971912 -0.056693979 -0.4327715 0.11756359
2602 -1169 23 -0.82801217 0.25017232 -0.50180644 0.09866225
2674 -1174 -25 -0.50932229 0.48398957 -0.71157914 0.15569231
2676 -1137 -27 -0.85371327 0.47064954 -0.22285117 0.23715033
2683 -1159 -26 -0.52624094 0.46524572 -0.71177018 0.14841588
2631 -1145 21 -0.52899063 0.63725126 -0.56042814 0.075117722
2629 -1167 -1 -0.52896059 0.55526298 -0.64178175 0.069280058
2601 -1177 46 -0.98521352 0.0012654006 -0.17132626 0.13597217
2614 -1146 44 -0.68877137 0.7229706 -0.053920373 0.11091461
2599 -1194 47 -0.95719999 -0.26876524 -0.10739348 0.11896679
2665 -1146 -3 -0.51690048 0.54992199 -0.6560486 0.12407892
2645 -1156 -2 -0.53535134 0.52082622 -0.66493529 0.082376651
2608 -1162 45 -0.89046311 0.43054569 -0.14732872 0.13350378
2598 -1149 56 -0.87270164 0.48824567 -0.0028236816 0.10576043
2593 -1169 56 -0.98804009 0.15409265 0.0056830891 0.11868332
2588 -1189 57 -0.98534942 -0.15845519 0.063075826 0.10418329
2590 -1187 48 -0.9905411 -0.12162761 -0.063521862 0.11047468
2602 -1151 48 -0.8507179 0.52023095 -0.075091705 0.10774231
2643 -1156 3 -0.54861802 0.50512177 -0.66623598 0.079449221
2591 -1167 48 -0.97154588 0.22301315 -0.079773478 0.11474355
2640 -1175 3 -0.51860619 0.53561026 -0.66646034 0.082246006
2592 -1171 28 -0.9045803 0.15893827 -0.39556694 0.097167097
2615 -1214 76 -0.73043627 -0.43697408 0.52489656 0.10110283
2680 -1177 -16 -0.50928396 0.43948403 -0.73992133 0.15750143
2629 -1148 29 -0.59025055 0.64559102 -0.48457876 0.094139464
2604 -1188 75 -0.89778143 -0.16528456 0.40825179 0.12433766
2674 -1134 -15 -0.65282792 0.54170239 -0.5295037 0.2298554
2611 -1160 28 -0.77769399 0.38049546 -0.50041503 0.10825247
2619 -1175 76 -0.67163688 0.24303231 0.69988507 0.15718558
2626 -1206 78 -0.63510704 -0.26664811 0.72493988 0.13604403
2608 -1179 77 -0.85748953 0.054445669 0.51161247 0.12735292
2598 -1182 29 -0.92487735 0.019230049 -0.37977904 0.097008318
2607 -1167 30 -0.85151583 0.3131654 -0.42053327 0.11498527
2671 -1182 -14 -0.54858726 0.49285686 -0.6753844 0.17454067
2676 -1164 -13 -0.54256141 0.46100974 -0.70220882 0.13262646
2617 -1152 31 -0.70115173 0.51823968 -0.48970795 0.10454816
2608 -1179 71 -0.95739001 -0.043579068 0.28549105 0.13317527
2605 -1195 69 -0.89700437 -0.37592128 0.23252177 0.13119476
2605 -1212 68 -0.82223785 -0.46388727 0.32974759 0.090538055
2613 -1181 36 -0.93973678 0.0348619 -0.34011695 0.13795401
2618 -1165 35 -0.82049978 0.44295135 -0.36135063 0.12723982
2666 -1182 -11 -0.53960091 0.50871027 -0.67085373 0.15362272
2627 -1151 34 -0.64017653 0.60296619 -0.47603124 0.10572549
2603 -1195 37 -0.94132781 -0.24567671 -0.23139779 0.11668488
2662 -1162 -12 -0.50596035 0.48846617 -0.71091831 0.12887529
2667 -1128 -14 -0.74082947 0.51779807 -0.42785138 0.22445355
2674 -1136 -17 -0.66566801 0.45518959 -0.59134465 0.23267236
2668 -1155 -17 -0.58575457 0.46958265 -0.66059345 0.13867828
2610 -1161 30 -0.8019309 0.38525283 -0.45660374 0.11229446
2669 -1177 -17 -0.52599871 0.52157152 -0.67178011 0.14752318
2612 -1188 76 -0.86422342 -0.18035269 0.46967092 0.13297349
2596 -1176 30 -0.92377782 0.10050283 -0.36950481 0.10549848
2624 -1146 30 -0.60837728 0.66116941 -0.43901262 0.087087743
2589 -1162 68 -0.96768451 0.179144 0.17746554 0.11535603
2607 -1175 20 -0.82125181 0.30663922 -0.48116305 0.086978145
2632 -1144 19 -0.51694745 0.64751786 -0.55989826 0.072163731
2608 -1155 20 -0.70851684 0.40906122 -0.57504159 0.09106914
2599 -1188 69 -0.94391859 -0.14927596 0.29450709 0.11799155
2603 -1194 42 -0.94855547 -0.25804266 -0.18345715 0.12197955
2652 -1185 -3 -0.50065047 0.53382915 -0.68145102 0.14515549
2650 -1148 -1 -0.54205728 0.51139992 -0.66681647 0.099180944
2610 -1162 44 -0.88041306 0.44532111 -0.16297789 0.13800032
2614 -1146 45 -0.68590039 0.72628969 -0.045209762 0.11195565
2632 -1158 -2 -0.56825936 0.51813638 -0.63923085 0.067460403
2609 -1179 43 -0.97997892 0.00646111 -0.19899631 0.15061738
2679 -1158 -14 -0.5275991 0.49596387 -0.6896804 0.1360705
2656 -1188 -15 -0.51739657 0.64365095 -0.56392759 0.16729094
2600 -1176 29 -0.90821189 0.1158645 -0.40215251 0.10349584
2625 -1148 30 -0.61346245 0.62124717 -0.48756111 0.093879662
2613 -1162 30 -0.79599845 0.38874063 -0.46396893 0.11047949
2615 -1194 77 -0.82464004 -0.27846405 0.49236837 0.13118845
2685 -1166 -39 -0.54293656 0.47017875 -0.6958102 0.15009984
2663 -1136 -24 -0.79810238 0.28674814 -0.52991343 0.22888996
2602 -1177 68 -0.95867079 0.023452749 0.28354952 0.12936759
2606 -1169 24 -0.81576699 0.26296458 -0.51514459 0.10250194
2682 -1165 -24 -0.53717178 0.43974844 -0.71976924 0.13447121
2619 -1207 69 -0.8122232 -0.49087512 0.31517482 0.14377998
2625 -1156 24 -0.6406405 0.501176 -0.58172357 0.09820161
2608 -1177 74 -0.94178277 -0.022974031 0.33543625 0.13537295
2603 -1183 26 -0.90152609 0.11108824 -0.41822255 0.097790524
2618 -1150 27 -0.67026973 0.5308795 -0.51856095 0.093865156
2621 -1203 74 -0.79000771 -0.39735699 0.4668996 0.14961475
2604 -1164 27 -0.81748658 0.29085535 -0.49711046 0.1038838
2667 -1178 -18 -0.51208621 0.5376358 -0.66986221 0.14885098
2619 -1194 81 -0.74123555 -0.17847678 0.64708245 0.1379887
2600 -1175 33 -0.93302375 0.11046532 -0.34243837 0.10889091
2667 -1172 -10 -0.54924446 0.47171235 -0.68979567 0.12455429
2677 -1157 -10 -0.53650057 0.51146275 -0.6712473 0.13661399
2619 -1145 34 -0.64500451 0.65821809 -0.38822448 0.089258395
2609 -1159 34 -0.83052123 0.4186711 -0.36735421 0.11731078
2617 -1166 59 -0.7086665 0.59436178 0.38016543 0.16139075
2666 -1165 -29 -0.51225561 0.44471228 -0.73472798 0.15346818
2626 -1157 14 -0.58335972 0.48479673 -0.65166217 0.081048779
2605 -1198 57 -0.89689511 -0.44163939 0.023103042 0.124249
2620 -1173 13 -0.67609507 0.43474963 -0.59488505 0.074240774
2651 -1149 15 -0.50880587 0.54451901 -0.66679502 0.080332309
2603 -1178 58 -0.99977559 0.0096521834 0.018857632 0.13987836
2670 -1129 -27 -0.66855496 -0.34240341 -0.66014713 0.21800648
2674 -1137 -14 -0.58798891 0.56115055 -0.58256251 0.20524368
2609 -1145 34 -0.71100444 0.60488707 -0.35858676 0.081455596
2665 -1154 -13 -0.57010108 0.48616007 -0.66229385 0.1371814
2664 -1176 -13 -0.52323943 0.53586042 -0.66262668 0.13457236
2619 -1150 31 -0.67667753 0.53517807 -0.50565994 0.10166004
2609 -1181 29 -0.90418762 0.086880535 -0.4182063 0.10617381
2613 -1197 76 -0.82418197 -0.27895319 0.49285826 0.13197124
2625 -1171 30 -0.75412041 0.33374766 -0.56561017 0.125249
2608 -1177 77 -0.85523754 0.064263664 0.51423621 0.12784159
2644 -1175 2 -0.52143466 0.53222358 -0.6669662 0.084513038
2650 -1156 3 -0.5368858 0.50749993 -0.67394173 0.089074038
2607 -1170 42 -0.94574106 0.23535725 -0.22401069 0.13907056
2602 -1187 41 -0.96797383 -0.12995985 -0.21479538 0.1259523
2645 -1155 -1 -0.54409945 0.51758993 -0.66034573 0.084233128
2603 -1150 42 -0.81668884 0.55510634 -0.15772226 0.10777371
2659 -1180 -2 -0.51626033 0.5040096 -0.69242299 0.12169508
2603 -1184 36 -0.96025622 -0.063592918 -0.27177906 0.1197978
2650 -1173 -7 -0.50042194 0.53706628 -0.67907119 0.10784629
2601 -1164 36 -0.90303946 0.30802673 -0.29939827 0.11884794
2609 -1148 37 -0.75701356 0.58756423 -0.28582987 0.097984433
2649 -1153 -6 -0.55320436 0.50701123 -0.6609875 0.10052487
2632 -1144 25 -0.53471577 0.67661351 -0.50623423 0.073274069
2675 -1134 -18 -0.72040343 0.39327481 -0.5712738 0.244985
2628 -1198 22 -0.79602557 0.13681494 -0.58959728 0.12368564
2619 -1175 23 -0.75091547 0.32365963 -0.57564777 0.092425689
2622 -1158 24 -0.67426383 0.46039122 -0.57741517 0.10047932
2680 -1174 -19 -0.51053095 0.45213753 -0.73138899 0.14179276
2666 -1187 -20 -0.57041079 0.63020194 -0.52676088 0.17706804
2609 -1183 27 -0.89417654 0.10663524 -0.43483004 0.099948056
2620 -1152 30 -0.67976725 0.51332116 -0.52384913 0.10128018
2612 -1167 28 -0.80181503 0.34184754 -0.49013561 0.11038201
2663 -1158 -17 -0.55739152 0.4829661 -0.67532098 0.13735962
2627 -1138 31 -0.52921486 0.75743437 -0.38239357 0.071486183
2673 -1144 -16 -0.53677863 0.51816237 -0.66586512 0.17071377
2608 -1199 46 -0.85702837 -0.49158439 -0.15442526 0.12514329
2613 -1166 48 -0.91742432 0.37870476 -0.12212802 0.15998644
2608 -1181 47 -0.9829486 -0.064622685 -0.17215101 0.14992523
2612 -1145 38 -0.7052027 0.64879984 -0.28591591 0.092255428
2654 -1179 -7 -0.5062685 0.52741241 -0.68229645 0.12881395
2676 -1146 -7 -0.50897014 0.59186274 -0.62501836 0.15357265
2607 -1164 38 -0.88241553 0.37768731 -0.2805264 0.13148451
2652 -1157 -7 -0.5481596 0.50714624 -0.66507429 0.10075485
2601 -1183 38 -0.96410781 -0.081334896 -0.25274646 0.12691993
2605 -1166 31 -0.86784446 0.31957647 -0.38041654 0.1167022
2660 -1197 -14 -0.58347857 0.75708818 0.29388797 0.2263594
2598 -1182 30 -0.93174887 0.0040365155 -0.36308089 0.10277709
2616 -1152 32 -0.71757472 0.50864184 -0.47578362 0.10788051
2673 -1183 -13 -0.52451241 0.43979666 -0.72901684 0.18366253
2658 -1149 12 -0.52225268 0.51228845 -0.6817717 0.092633173
2629 -1190 15 -0.63840467 0.42962551 -0.63864028 0.10479523
2643 -1160 13 -0.51259613 0.51547581 -0.68668044 0.065835871
2622 -1169 14 -0.66247523 0.42216229 -0.61879355 0.074794017
2673 -1170 -34 -0.52537984 0.50609082 -0.68399423 0.15581457
2605 -1175 21 -0.8387211 0.25610307 -0.48058107 0.09191002
2665 -1128 -26 -0.72427338 -0.32191092 -0.60975522 0.21365637
2615 -1159 21 -0.70584571 0.38426852 -0.59507954 0.089613914
2642 -1149 21 -0.50897515 0.59754211 -0.61958677 0.07713984
2617 -1186 67 -0.9531467 -0.23700714 0.18798657 0.16766641
2670 -1172 -27 -0.52064139 0.48637414 -0.70169282 0.15318827
2603 -1180 59 -0.99588734 -0.074695125 0.051275309 0.14077093
2627 -1176 12 -0.61941016 0.45649558 -0.63870388 0.074592292
2608 -1164 60 -0.88564867 0.42629755 0.184111 0.14315602
2627 -1159 13 -0.58367562 0.47989261 -0.65500063 0.072585545
2600 -1196 58 -0.92462927 -0.37886253 0.039038062 0.11980807
2643 -1148 15 -0.51108092 0.55446744 -0.65678155 0.077464446
2596 -1173 47 -0.98719102 0.066857986 -0.14485829 0.12607448
2657 -1148 0 -0.52479559 0.52830189 -0.66744787 0.10721055
2600 -1154 47 -0.87682074 0.46881539 -0.10675927 0.10948635
2593 -1192 47 -0.97380549 -0.21763739 -0.065854624 0.10959821
2634 -1158 0 -0.5640884 0.51440799 -0.64590156 0.065617159
2633 -1178 0 -0.52229911 0.56117231 -0.64209765 0.091973655
2597 -1191 35 -0.94638276 -0.17652735 -0.27055091 0.10472892
2605 -1157 37 -0.8430621 0.46153772 -0.27609664 0.11123057
2614 -1142 38 -0.67894781 0.66794688 -0.30475691 0.090651318
2615 -1180 36 -0.93976778 0.10759436 -0.32443804 0.15107198
2640 -1159 -7 -0.55255991 0.51293802 -0.65694147 0.084785581
2664 -1151 -6 -0.54378599 0.51837051 -0.65999156 0.12141867
2662 -1173 -14 -0.52699238 0.51483971 -0.67617971 0.13287131
2661 -1154 -15 -0.54302591 0.4838433 -0.68630791 0.13940273
2614 -1156 32 -0.76540005 0.46826249 -0.44146687 0.11436059
2628 -1144 30 -0.56687641 0.71222413 -0.41399017 0.079712197
2606 -1188 34 -0.94585991 -0.10877937 -0.30580401 0.11786862
2611 -1172 33 -0.8818503 0.30804858 -0.35699609 0.13215998
2666 -1193 -13 -0.59207082 0.57238454 -0.56729895 0.21582505
2649 -1147 5 -0.54948395 0.50272137 -0.66733688 0.095690452
2601 -1195 51 -0.94962847 -0.31116945 -0.03713825 0.11667083
2602 -1174 51 -0.99369788 0.042401772 -0.1037619 0.13905765
2625 -1157 5 -0.57780051 0.50164133 -0.64381874 0.057413034
2656 -1193 5 -0.51457834 0.29963481 -0.80338538 0.19027683
2604 -1154 51 -0.86606175 0.49798533 -0.044131543 0.11331015
2633 -1162 0 -0.54476351 0.53022897 -0.64968455 0.06568788
2603 -1142 46 -0.76328814 0.63890916 -0.095845588 0.10089062
2651 -1148 -1 -0.53426206 0.52512544 -0.66242522 0.10054386
2594 -1181 47 -0.99256945 -0.03845071 -0.1154447 0.12015224
2649 -1190 0 -0.53364664 0.52785146 -0.66075271 0.17596999
2595 -1160 47 -0.9294855 0.34824583 -0.12157935 0.10842199
2622 -1156 29 -0.6883055 0.50720781 -0.51862878 0.1063831
2609 -1199 74 -0.8422513 -0.29289123 0.45257851 0.13235869
2619 -1172 28 -0.77622795 0.31770152 -0.54455113 0.11962702
2621 -1138 30 -0.55466169 0.73263532 -0.39445636 0.074739292
2604 -1179 75 -0.90227103 0.012235594 0.43099564 0.12421425
2610 -1186 27 -0.91129512 0.092283539 -0.40127915 0.10018788
2617 -1156 26 -0.69960696 0.46959209 -0.53854752 0.10020952
2617 -1207 73 -0.79771852 -0.41878578 0.43389359 0.13766433
2633 -1143 26 -0.51678818 0.71198255 -0.47540602 0.072301172
2686 -1172 -19 -0.54430676 0.43235573 -0.71888721 0.13500403
2603 -1181 73 -0.9315784 -0.049367875 0.36017275 0.12396938
2598 -1167 25 -0.8471806 0.20519334 -0.49008241 0.098281838
2662 -1182 -19 -0.54822654 0.61133146 -0.57072026 0.15172158
2601 -1173 43 -0.97394788 0.0991707 -0.20393825 0.12875642
2592 -1190 44 -0.97353411 -0.18454546 -0.13481259 0.1064133
2602 -1151 42 -0.83164728 0.52693623 -0.17521712 0.10901256
2620 -1138 42 -0.59461308 0.78059042 -0.19264953 0.10317346
2621 -1146 28 -0.62635177 0.63087434 -0.45790938 0.08547584
2599 -1168 75 -0.92237097 0.093536749 0.37481022 0.12516604
2615 -1195 75 -0.82582748 -0.27131659 0.49436456 0.12997577
2592 -1173 27 -0.89703858 0.12365697 -0.42430019 0.096738018
2677 -1177 -16 -0.53170705 0.48578268 -0.69375992 0.1496003
2605 -1159 28 -0.79914713 0.34422371 -0.49282244 0.10022124
2615 -1160 29 -0.75831145 0.40514705 -0.51070499 0.11317208
2627 -1146 30 -0.58745277 0.68116999 -0.4369286 0.087183192
2606 -1167 76 -0.87330556 0.16361764 0.45887533 0.13252245
2610 -1188 76 -0.88020235 -0.18599619 0.43663406 0.13285813
2599 -1172 28 -0.89505243 0.14491244 -0.4217599 0.099783279
2681 -1176 -15 -0.51161742 0.44939786 -0.73231769 0.1509458
2673 -1165 -29 -0.58977556 0.46231124 -0.66214281 0.15395445
2625 -1150 16 -0.56906986 0.54804081 -0.61303401 0.076892808
2615 -1176 64 -0.91479945 0.243718 0.32209229 0.16894408
2615 -1186 17 -0.80777258 0.31638485 -0.4973973 0.080942146
2608 -1162 17 -0.72549784 0.34867579 -0.59336162 0.087124161
2646 -1190 8 -0.53913617 0.43826094 -0.71920758 0.13967571
2594 -1160 53 -0.9536292 0.30028218 -0.020542964 0.11166093
2672 -1170 -36 -0.52113736 0.52624249 -0.67192614 0.157874
2596 -1181 53 -0.99641085 -0.066026956 -0.052969951 0.13031222
2627 -1160 8 -0.5654071 0.49137163 -0.66247171 0.055807356
2648 -1149 8 -0.5509097 0.50068706 -0.66769075 0.086944662
2627 -1143 21 -0.53953463 0.67487603 -0.50343299 0.069104679
2603 -1192 70 -0.91894644 -0.26780829 0.28951022 0.1264005
2603 -1176 22 -0.85983443 0.19133173 -0.47336757 0.09110035
2607 -1156 21 -0.72302037 0.39419302 -0.56732118 0.09102045
2585 -1162 69 -0.9632417 0.1773856 0.2017419 0.10235016
2628 -1168 4 -0.56314743 0.52505463 -0.63810861 0.06419266
2609 -1156 52 -0.82898515 0.5576517 0.042523652 0.12497263
2654 -1144 6 -0.52358198 0.5313009 -0.66601902 0.10418456
2602 -1188 50 -0.9801898 -0.16771632 -0.10535289 0.13455841
2631 -1152 5 -0.56168288 0.51095855 -0.65071779 0.065240115
2603 -1171 51 -0.9876107 0.12782592 -0.091025263 0.13934276
2626 -1164 16 -0.61586809 0.43411675 -0.65745658 0.07826592
2641 -1150 16 -0.52076495 0.54840815 -0.65425712 0.080078863
2655 -1129 -29 -0.56360841 -0.44948849 -0.69304085 0.20557341
2685 -1163 -30 -0.53990901 0.43531388 -0.72041667 0.13970113
2638 -1191 16 -0.63801903 0.34501573 -0.68840098 0.11357173
2594 -1173 29 -0.91275442 0.13009894 -0.38723853 0.10020271
2616 -1195 77 -0.82109666 -0.29332921 0.48965099 0.13178115
2677 -1176 -15 -0.54024649 0.48577768 -0.68713444 0.1403181
2679 -1156 -14 -0.5041163 0.48690742 -0.71329373 0.1464729
2614 -1173 77 -0.83034045 0.1211999 0.54391658 0.13847466
2608 -1159 30 -0.80237049 0.37318534 -0.46576202 0.10866079
2623 -1145 30 -0.60633063 0.67568737 -0.41929659 0.083487965
2635 -1173 1 -0.52411079 0.54430193 -0.65501404 0.078546539
2597 -1188 48 -0.98931044 -0.11869847 -0.084708475 0.11809556
2591 -1164 48 -0.96064299 0.26087797 -0.095434986 0.11123936
2598 -1147 48 -0.83096164 0.54863805 -0.092190124 0.10394533
2633 -1152 0 -0.57817638 0.5056231 -0.64035714 0.071879551
2613 -1151 29 -0.70602959 0.48843181 -0.51279294 0.091634288
2607 -1179 76 -0.89687252 0.012148076 0.44212225 0.12313409
2628 -1197 28 -0.84578103 -0.29445678 -0.44491535 0.12041272
2601 -1165 28 -0.84987152 0.24623312 -0.46592674 0.10456006
2626 -1207 76 -0.68246943 -0.29407313 0.66914606 0.14010777
2669 -1182 -16 -0.55309486 0.54449797 -0.63056171 0.16178216
2656 -1196 -3 -0.52425814 0.49839273 -0.69047666 0.23772481
2611 -1151 42 -0.78226733 0.60552311 -0.14628625 0.11533437
2602 -1166 41 -0.93388844 0.30825752 -0.18118978 0.12778285
2646 -1153 -1 -0.55191487 0.50601095 -0.6628294 0.09039592
2602 -1185 41 -0.96960986 -0.1083694 -0.21934614 0.12748753
2656 -1177 -2 -0.5218842 0.50403714 -0.68817395 0.11237174
2679 -1163 -14 -0.54563719 0.44866791 -0.70779735 0.13325867
2602 -1181 29 -0.92272681 0.078081489 -0.37746331 0.10015454
2607 -1164 29 -0.82255542 0.32166296 -0.46897283 0.10749858
2672 -1180 -15 -0.54707694 0.5289892 -0.64875048 0.15069053
2618 -1150 30 -0.68525636 0.52901012 -0.50057173 0.10086114
2604 -1174 76 -0.89046162 0.046105523 0.45271656 0.12818025
2625 -1203 77 -0.6796369 -0.19598413 0.70688319 0.15630259
2672 -1151 -1 -0.52099383 0.5441168 -0.6576491 0.13426241
2648 -1158 0 -0.54204398 0.5090546 -0.66861928 0.087963372
2651 -1178 1 -0.51219463 0.51835328 -0.68481123 0.10537875
2619 -1152 17 -0.63081002 0.4677577 -0.61909723 0.079186983
2595 -1171 65 -0.98313266 0.10396492 0.15047051 0.12540072
2608 -1167 18 -0.75178933 0.32388836 -0.57437712 0.095961973
2603 -1194 66 -0.92524564 -0.33691016 0.17439012 0.12820879
2623 -1159 26 -0.67702019 0.46107715 -0.57363009 0.10085597
2608 -1197 68 -0.88322133 -0.41589516 0.21668231 0.12827531
2624 -1195 24 -0.86190355 0.0055466867 -0.50704193 0.11485206
2613 -1172 25 -0.79068357 0.27946591 -0.5447185 0.10193545
2610 -1180 69 -0.96545619 -0.060284249 0.25349572 0.14152859
2630 -1144 27 -0.54891199 0.67862439 -0.48802111 0.073672898
2679 -1133 -18 -0.71099561 0.4951086 -0.49935237 0.24152647
2680 -1170 -21 -0.51890862 0.43132588 -0.73803234 0.14223163
2614 -1138 28 -0.62573081 0.65668005 -0.42098978 0.068782039
2608 -1156 29 -0.76593012 0.38870656 -0.51211154 0.10163309
2601 -1175 29 -0.90711689 0.11912918 -0.40366715 0.10036636
2621 -1200 78 -0.74984932 -0.26706263 0.60531282 0.14695212
2620 -1178 78 -0.61002016 0.2189265 0.7615422 0.14986378
2659 -1190 -3 -0.52650195 0.43891722 -0.72811222 0.19358338
2601 -1196 42 -0.93066597 -0.31612679 -0.18418658 0.11716994
2612 -1147 46 -0.72532159 0.68551356 -0.063084781 0.11243641
2604 -1179 44 -0.97476643 -0.039159842 -0.21976547 0.1340853
2650 -1150 0 -0.54523677 0.50548029 -0.66873497 0.095074497
2608 -1163 45 -0.89938968 0.41677916 -0.13188377 0.13919519
2631 -1160 -1 -0.56192273 0.52028185 -0.64307821 0.067350358
2607 -1191 59 -0.9515512 -0.2997075 0.06874378 0.12966955
2619 -1161 61 -0.64102602 0.65567172 0.39897388 0.14849252
2607 -1209 58 -0.83804196 -0.53490746 0.1075156 0.11106577
2608 -1174 60 -0.99234539 0.087771825 0.086871654 0.15159547
2611 -1147 54 -0.7256524 0.68556458 0.058564093 0.11261375
2591 -1160 54 -0.95551449 0.29253438 -0.037625551 0.11109345
2590 -1180 54 -0.99938679 -0.031828038 -0.014598073 0.11337312
2623 -1158 6 -0.59311348 0.49242872 -0.63696963 0.058497924
2642 -1145 5 -0.56581813 0.52160847 -0.63857228 0.093180217
2613 -1154 37 -0.78136492 0.56598002 -0.26293623 0.11742841
2620 -1188 84 -0.64986473 -0.048555396 0.7584973 0.14336286
2600 -1186 35 -0.9565056 -0.089900605 -0.27751574 0.1135541
2600 -1167 36 -0.92394739 0.25618064 -0.28406453 0.11727154
2662 -1162 -7 -0.54326391 0.49275041 -0.67975092 0.12009163
2623 -1140 37 -0.58012438 0.74990678 -0.3179554 0.08422669
2622 -1189 17 -0.7463848 0.33432096 -0.57544696 0.10601202
2609 -1162 16 -0.7184307 0.35371086 -0.59895414 0.080931075
2628 -1151 16 -0.56408983 0.51102746 -0.64857817 0.081871562
2596 -1167 63 -0.97950172 0.1748253 0.10006297 0.12650761
2666 -1161 -29 -0.57025033 0.44976544 -0.68740493 0.15588884
2592 -1185 64 -0.98524249 -0.10964173 0.131438 0.11357547
2608 -1212 65 -0.80525184 -0.56661558 0.17468922 0.10419196
2625 -1152 30 -0.65279382 0.56361139 -0.50616437 0.10515605
2610 -1212 73 -0.78370428 -0.49360773 0.37703988 0.091772161
2605 -1175 76 -0.88924795 0.040959079 0.45558807 0.1294976
2614 -1183 27 -0.87221634 0.15371962 -0.4643372 0.098549984
2604 -1192 75 -0.88758075 -0.2404111 0.3929415 0.12879114
2625 -1170 29 -0.74236745 0.33902499 -0.57788634 0.11858912
2639 -1146 19 -0.50947911 0.61663347 -0.60016185 0.076917872
2618 -1157 19 -0.6689288 0.43199542 -0.60490847 0.083845206
2597 -1177 67 -0.97925949 0.0071206978 0.20248522 0.12574928
2594 -1156 66 -0.92724431 0.33200723 0.17317411 0.11878305
2610 -1173 20 -0.78673249 0.31640875 -0.53003538 0.089793496
2613 -1204 68 -0.83487236 -0.49020368 0.25037664 0.1372717
