# .PCD v0.7 - Point Cloud Data file format
VERSION 0.7
FIELDS x y z normal_x normal_y normal_z curvature
SIZE 4 4 4 4 4 4 4
TYPE F F F F F F F
COUNT 1 1 1 1 1 1 1
WIDTH 449
HEIGHT 1
VIEWPOINT 0 0 0 1 0 0 0
POINTS 449
DATA ascii
2549 -796 422 -0.95765126 0.28711918 0.021601561 0.087778836
2534 -844 422 -0.98117036 0.15663962 0.11299907 0.11801339
2542 -829 422 -0.97286433 0.20704536 0.10328221 0.10485419
2548 -813 423 -0.96491879 0.24435811 0.09602534 0.09109284
2572 -733 422 -0.96558279 0.24189162 0.095594175 0.11770999
2579 -717 423 -0.93676519 0.28103858 0.20853852 0.17058869
2554 -780 422 -0.94585234 0.32400233 0.01964011 0.0833873
2558 -763 422 -0.94000125 0.34075242 -0.016894324 0.068566211
2584 -758 378 -0.90825683 0.12102421 0.40052792 0.15889649
2554 -756 388 -0.85397005 0.18629475 0.48582858 0.16889563
2576 -724 389 -0.86856258 -0.17104091 0.46512794 0.12456589
2549 -774 389 -0.91803098 0.33673203 0.20935768 0.13198178
2567 -741 389 -0.94406217 -0.028401872 0.32854214 0.14954869
2537 -809 390 -0.90872985 0.36155614 0.20853616 0.12478916
2548 -801 433 -0.966452 0.25250405 0.047033772 0.084895186
2549 -821 435 -0.97828895 0.20290023 0.04221775 0.098252065
2550 -782 432 -0.95550907 0.29485089 0.0080831936 0.088666134
2535 -895 438 -0.97593099 -0.21684752 0.023148915 0.14702739
2543 -838 435 -0.97910565 0.17350426 0.10605802 0.10532382
2537 -857 435 -0.98501796 0.065224193 0.15964152 0.12412529
2567 -733 384 -0.81515294 -0.16588444 0.55498469 0.14177889
2564 -751 385 -0.89778489 0.089122981 0.43132278 0.17518711
2568 -749 432 -0.9531759 0.29933783 -0.043040648 0.079664804
2559 -766 432 -0.95027637 0.31032416 -0.025956336 0.069126531
2562 -770 386 -0.92358255 0.2983515 0.24079396 0.15392536
2551 -811 438 -0.97302586 0.23009352 -0.016662741 0.089675456
2565 -756 435 -0.95144409 0.29704925 -0.080721468 0.073018491
2561 -778 390 -0.93941087 0.3221778 0.11708444 0.13542739
2543 -811 390 -0.90338194 0.37521523 0.20764063 0.11588056
2549 -791 436 -0.96322781 0.26459283 -0.046720531 0.090639308
2549 -830 439 -0.98276538 0.17395699 0.062538281 0.10340984
2556 -773 435 -0.95426828 0.2925908 -0.061339788 0.074585862
2553 -795 390 -0.92656797 0.37402883 0.039676517 0.12462388
2580 -741 436 -0.94292367 0.33261886 0.016114347 0.12466483
2537 -866 440 -0.97874391 0.01519893 0.20452242 0.12858851
2572 -742 389 -0.9535287 -0.030923098 0.2997112 0.1442941
2538 -887 442 -0.98546958 -0.16967142 0.0078321034 0.14922628
2567 -760 389 -0.95473385 0.22705109 0.19217429 0.14956531
2546 -849 440 -0.99297118 0.062297639 0.10063361 0.12263685
2539 -899 442 -0.96413434 -0.26252964 0.0390279 0.14366187
2538 -859 439 -0.98308796 0.029763378 0.18069924 0.12147075
2563 -748 435 -0.95482218 0.29362541 -0.045811735 0.085448906
2544 -841 439 -0.98680592 0.11108843 0.11778516 0.10500026
2546 -802 436 -0.96246862 0.26536605 0.056877013 0.086699404
2565 -752 389 -0.94720203 0.14227079 0.28734547 0.16225888
2573 -735 389 -0.92069644 -0.094684206 0.37861982 0.14497732
2549 -823 438 -0.97966737 0.19317825 0.054166947 0.10087454
2545 -805 389 -0.90081614 0.38396871 0.20272738 0.11255752
2571 -731 435 -0.95533687 0.29534271 -0.010206815 0.12954554
2552 -765 434 -0.94816411 0.31457636 -0.045016591 0.090673909
2557 -769 389 -0.93151402 0.311966 0.18697286 0.14642306
2550 -784 435 -0.95602417 0.29328805 -9.2780654e-05 0.090529434
2541 -817 404 -0.94909191 0.27430183 0.15486439 0.10454363
2536 -832 403 -0.95643961 0.22579773 0.18503721 0.11177472
2584 -729 406 -0.97791725 0.13552219 0.15909611 0.12544267
2568 -758 405 -0.96362519 0.26275545 0.048846606 0.10607778
2559 -772 404 -0.95133227 0.30815044 -0.0032095832 0.096340239
2578 -745 406 -0.97810501 0.20540489 0.033457655 0.1118326
2568 -771 392 -0.95355397 0.28894296 0.085128449 0.12650853
2583 -754 438 -0.93403214 0.35427281 -0.045549281 0.10536646
2570 -753 392 -0.97156948 0.18227586 0.15109029 0.13610384
2551 -800 436 -0.96907955 0.24538369 0.025918154 0.082353011
2552 -803 392 -0.91743338 0.37431818 0.13491471 0.1156391
2593 -722 394 -0.95409071 -0.031778421 0.29782736 0.11891712
2552 -782 435 -0.95841205 0.28270665 -0.039030317 0.088370435
2555 -820 437 -0.97846681 0.20605388 0.01202256 0.094104655
2550 -875 439 -0.99759835 -0.046339232 0.051480129 0.15194713
2549 -893 440 -0.9703759 -0.23860167 0.037945718 0.15297456
2560 -787 392 -0.93861419 0.34454712 -0.017048998 0.10681922
2546 -855 438 -0.9932555 0.051403698 0.10392865 0.13051452
2554 -838 438 -0.99191236 0.10553388 0.070515297 0.13179864
2577 -771 438 -0.95586169 0.29033852 -0.045077432 0.10685604
2579 -737 392 -0.95735812 -0.036424462 0.28659859 0.13647185
2569 -754 425 -0.95670187 0.28750634 -0.045405522 0.074034646
2555 -783 423 -0.94803524 0.31731692 0.023218878 0.083148822
2574 -739 425 -0.95410126 0.29771334 0.032520518 0.096920453
2561 -819 426 -0.97028428 0.239933 -0.031315036 0.11208548
2576 -759 381 -0.91831362 0.15809301 0.36291406 0.16163912
2575 -775 381 -0.95260954 0.28067684 0.11728419 0.15966322
2563 -887 429 -0.58575064 -0.25133482 -0.77053684 0.21125686
2563 -870 428 -0.99655205 -0.079633124 0.023292907 0.17039244
2561 -836 426 -0.99361712 0.10831771 0.031499982 0.13560203
2560 -768 424 -0.94593203 0.3226248 -0.033552576 0.070146672
2558 -851 427 -0.97677237 0.099472478 0.18979196 0.14399189
2555 -800 424 -0.96171892 0.26985222 0.047712829 0.082119636
2580 -744 381 -0.89091748 -0.037209876 0.45263836 0.14930007
2594 -711 426 -0.94089013 0.31810588 0.11633733 0.19122802
2582 -725 425 -0.95394278 0.2884391 0.082438551 0.14037798
2574 -779 393 -0.94311571 0.33245453 -0.0025981993 0.11440369
2576 -800 394 -0.92823941 0.37187761 -0.008866746 0.13921201
2586 -744 392 -0.97609484 0.096751027 0.19462319 0.13675909
2593 -727 392 -0.96126091 -0.075245731 0.26517078 0.11964757
2581 -762 392 -0.96019948 0.26517418 0.087747045 0.11849888
2572 -770 385 -0.93022263 0.28189203 0.23499532 0.1427653
2580 -731 431 -0.94585061 0.32377389 0.023176091 0.13069905
2574 -751 384 -0.92545617 0.14696759 0.34918687 0.1526545
2571 -786 433 -0.96356601 0.26725557 -0.010720573 0.099634767
2577 -768 433 -0.95355183 0.28305453 -0.10304844 0.071483612
2551 -858 435 -0.99080878 0.032298051 0.1313576 0.14375415
2559 -822 434 -0.96941978 0.2232565 0.10189114 0.10868
2549 -877 436 -0.99364382 -0.076077238 0.082971282 0.15483351
2565 -804 433 -0.96507323 0.2618179 -0.0092155784 0.10752543
2553 -839 434 -0.99355042 0.11137894 0.02126763 0.12604052
2577 -749 432 -0.94704413 0.32083991 -0.013007311 0.086502075
2561 -901 440 -0.92886829 -0.36480695 0.06418325 0.19138293
2548 -840 427 -0.98693073 0.15444851 0.045971118 0.12640035
2564 -806 427 -0.96790487 0.25052488 -0.019935507 0.10854966
2573 -770 426 -0.95533293 0.28599358 -0.074475676 0.068392165
2550 -821 426 -0.96405935 0.24556305 0.1014318 0.09653987
2580 -753 426 -0.94833076 0.31487384 -0.039028894 0.093311816
2548 -859 428 -0.99126333 0.072566859 0.11014104 0.13468696
2588 -758 381 -0.94141871 0.15278441 0.30064544 0.15320797
2582 -734 425 -0.93800735 0.34359437 0.045663219 0.11835244
2571 -789 427 -0.96036392 0.27871656 0.0042701936 0.095036365
2579 -714 423 -0.93038172 0.28978547 0.22453134 0.18013994
2557 -811 437 -0.97403389 0.22425726 0.031089785 0.099025115
2560 -832 439 -0.97821498 0.16917764 0.12030961 0.13769859
2574 -736 433 -0.95864874 0.28270382 -0.032729432 0.11513008
2559 -873 443 -0.9849689 -0.057036996 0.16304304 0.16860819
2557 -852 441 -0.95604724 0.094501391 0.2775664 0.15518187
2583 -747 391 -0.96903813 0.13595985 0.20610659 0.1319817
2582 -787 395 -0.95435929 0.29859653 0.0062006367 0.12323117
2560 -894 445 -0.96378165 -0.23134127 0.13268787 0.19275187
2573 -716 431 -0.91698402 0.3138243 0.24628145 0.17664811
2560 -792 436 -0.96358925 0.26528922 -0.033428222 0.091827586
2567 -774 435 -0.95804965 0.27841359 -0.068020105 0.073974259
2569 -754 434 -0.95113534 0.29899734 -0.077085301 0.071327135
2577 -765 392 -0.95919394 0.25863665 0.11425429 0.12524623
2574 -767 410 -0.94804251 0.30842096 -0.078051031 0.085767671
2552 -820 412 -0.96560383 0.23874061 0.10301607 0.11214777
2589 -732 409 -0.96703362 0.24078856 0.082866415 0.12484926
2566 -804 412 -0.96273917 0.27035227 0.0065547004 0.10991221
2582 -749 410 -0.96379727 0.26466361 -0.032372393 0.10139274
2572 -787 411 -0.94561678 0.31367069 -0.086137235 0.094028831
2562 -784 439 -0.96295279 0.26693663 -0.038297139 0.091144025
2546 -878 444 -0.99000239 -0.084141359 0.11320571 0.14997137
2551 -840 442 -0.98810631 0.10514843 0.11220419 0.12051578
2550 -900 446 -0.95628029 -0.28006923 0.084197022 0.16109611
2559 -803 440 -0.97311413 0.22689053 0.039619017 0.10296311
2555 -785 391 -0.93550825 0.35321099 0.0081453212 0.12475693
2544 -858 442 -0.99265838 0.010670414 0.12048006 0.13465124
2558 -823 441 -0.95141554 0.2140135 0.22137445 0.13106647
2568 -750 390 -0.95636642 0.11840025 0.26710409 0.15618235
2563 -765 438 -0.94559425 0.30126187 -0.12285286 0.069885887
2569 -747 437 -0.94818544 0.30070746 -0.10256394 0.094103158
2563 -768 391 -0.95255798 0.28976005 0.093125746 0.13049199
2570 -728 436 -0.95893121 0.27680847 -0.061871368 0.13484366
2587 -713 437 -0.90439647 0.39940292 0.15014769 0.20898215
2570 -731 389 -0.90384454 -0.095735982 0.41701293 0.14320625
2542 -840 417 -0.97229213 0.18818136 0.13869353 0.12327411
2561 -811 419 -0.96585512 0.25507641 0.045386221 0.10816417
2565 -777 418 -0.95121741 0.30189466 -0.063600734 0.081093945
2551 -825 418 -0.97548926 0.20107497 0.089383736 0.11312573
2572 -761 418 -0.95200884 0.29447341 -0.083452843 0.076276205
2561 -793 418 -0.95987642 0.27995881 -0.016136292 0.086656183
2538 -856 417 -0.99203169 0.073716164 0.10217129 0.1522506
2580 -729 418 -0.96734953 0.22994502 0.10658415 0.13437349
2575 -745 418 -0.95815665 0.28478646 -0.028851714 0.091200501
2569 -781 417 -0.94798952 0.30654281 -0.085716911 0.081562772
2546 -822 415 -0.96121371 0.23463561 0.14496301 0.10087001
2551 -807 415 -0.96516091 0.26073581 0.021937698 0.09067671
2541 -836 415 -0.97147381 0.18883292 0.14345987 0.12002221
2561 -795 416 -0.95392144 0.30005071 0.0018713243 0.088166237
2543 -853 415 -0.98359668 0.087814562 0.15756352 0.14686328
2573 -766 417 -0.94745427 0.30831516 -0.085277207 0.081473641
2575 -751 416 -0.95894068 0.27505237 -0.069130734 0.088567182
2583 -737 417 -0.96431255 0.26005825 0.049709018 0.10559824
2536 -830 410 -0.94586217 0.2524901 0.20394486 0.093671784
2552 -798 411 -0.95461965 0.2960875 0.032150514 0.092003174
2564 -764 411 -0.95167375 0.30586213 -0.027663998 0.083646879
2583 -732 412 -0.97210312 0.22103496 0.078480095 0.11285557
2544 -814 410 -0.95126903 0.28130794 0.12630537 0.093214042
2571 -747 411 -0.97024709 0.24063791 0.026720483 0.10681893
2557 -781 411 -0.95185536 0.30499178 -0.030845009 0.083590738
2540 -891 443 -0.98299396 -0.18357827 -0.0046742312 0.14735559
2551 -834 440 -0.98065907 0.17485587 0.087937877 0.11062293
2548 -854 441 -0.98980319 0.057201438 0.13045165 0.13368499
2542 -871 442 -0.99447411 -0.021695947 0.10271621 0.13281858
2555 -779 390 -0.93415082 0.34341457 0.097100951 0.13815509
2557 -777 437 -0.95503783 0.28513619 -0.081240579 0.071661882
2575 -723 435 -0.93237919 0.360672 0.02418364 0.15566704
2559 -761 389 -0.95041472 0.22241604 0.21735418 0.16023003
2566 -760 437 -0.94317746 0.30748716 -0.12596792 0.068962514
2549 -814 438 -0.97305173 0.22956668 0.021667946 0.094038643
2567 -744 389 -0.95213962 0.022068987 0.30486566 0.15435492
2554 -796 438 -0.96168822 0.27118176 -0.040202864 0.081908174
2587 -707 436 -0.50503689 0.30043688 0.80912012 0.2061421
2551 -798 391 -0.92362434 0.37839544 0.061114989 0.11736345
2567 -741 435 -0.94612706 0.32316878 -0.020136874 0.094033375
2558 -836 443 -0.96148014 0.11532877 0.24951011 0.15471709
2544 -872 444 -0.99353576 -0.0088247284 0.11317585 0.13030306
2560 -796 439 -0.96479899 0.25798339 -0.051063359 0.096599162
2552 -854 444 -0.97818691 0.065500379 0.19712928 0.14423209
2580 -747 393 -0.97658622 0.12668195 0.1738707 0.12906106
2570 -758 437 -0.9507218 0.28923732 -0.1116688 0.068959497
2586 -723 436 -0.89034158 0.32826543 0.31548968 0.1962436
2571 -739 436 -0.94985789 0.3114261 -0.02799671 0.099573784
2574 -785 396 -0.9446876 0.32401645 -0.050781637 0.10668074
2571 -764 393 -0.96514446 0.24576412 0.089979164 0.12760346
2556 -814 441 -0.97227865 0.22961527 0.044170219 0.10656203
2550 -895 448 -0.96742994 -0.23994093 0.080669731 0.15737915
2566 -777 438 -0.95984292 0.25354391 -0.12007137 0.082949452
2558 -824 435 -0.9780786 0.20316347 0.045682371 0.10596026
2582 -741 388 -0.93215626 0.0085745007 0.36195475 0.14036082
2576 -730 429 -0.94942957 0.31322417 0.021773156 0.12600489
2552 -863 438 -0.98943943 -0.023150023 0.14308672 0.1450595
2569 -748 430 -0.95043397 0.31013706 -0.022141172 0.083165713
2559 -785 432 -0.95826423 0.28542423 -0.01620858 0.077997871
2565 -766 431 -0.9455809 0.32284155 -0.040621694 0.066891775
2555 -803 433 -0.96521503 0.26133841 0.0078926496 0.086071804
2592 -783 393 -0.9676531 0.2503905 -0.030857282 0.13155583
2580 -711 428 -0.90093035 0.36281708 0.23809299 0.18952328
2553 -884 440 -0.97960865 -0.19810933 0.033461425 0.16394767
2555 -844 437 -0.98905593 0.0732456 0.12807576 0.1438074
2580 -760 389 -0.95173472 0.22674838 0.20684808 0.13655093
2591 -734 418 -0.95722926 0.28651351 0.040275492 0.1233839
2552 -821 420 -0.96068716 0.2516391 0.11729419 0.097628795
2568 -787 419 -0.95418 0.29921404 -0.0033935814 0.087958872
2585 -752 418 -0.95202327 0.29602486 -0.077594444 0.10039257
2563 -845 423 -0.9820801 0.12924287 0.13716759 0.17512721
2562 -805 420 -0.96793264 0.25109845 0.0074783438 0.11212244
2574 -768 418 -0.94725227 0.3027615 -0.10511223 0.078205176
2562 -779 432 -0.95564425 0.29117584 -0.044280462 0.069446534
2566 -902 443 -0.9184292 -0.36112878 0.16147396 0.20044343
2571 -743 431 -0.94536328 0.32562971 -0.015923295 0.08569292
2581 -726 431 -0.9486286 0.31458274 0.033783518 0.14005901
2545 -834 434 -0.97871542 0.18121184 0.096325174 0.1041889
2590 -709 431 -0.88349926 0.37452981 0.2813476 0.20526865
2576 -748 385 -0.93995905 0.066838726 0.33467811 0.15455522
2543 -873 437 -0.99459368 -0.058330972 0.08591269 0.14768596
2553 -797 432 -0.96028984 0.27884448 0.0094410777 0.081553489
2554 -817 434 -0.97563583 0.21585077 0.039283577 0.095289446
2563 -760 431 -0.94798923 0.31488597 -0.046510432 0.067694835
2538 -852 435 -0.9842726 0.098406486 0.14670908 0.11699806
2575 -767 386 -0.94599384 0.24605401 0.21107608 0.13929798
2562 -778 406 -0.94327742 0.32560551 -0.064874068 0.088685945
2575 -747 405 -0.9756825 0.20734139 0.071086533 0.1184314
2570 -763 406 -0.95400697 0.29881886 -0.02404191 0.093682647
2550 -810 408 -0.94526517 0.30934906 0.10381189 0.098260969
2585 -732 405 -0.98425138 0.12128237 0.12860677 0.12841538
2564 -797 408 -0.95754439 0.28735232 -0.02317995 0.10651977
2571 -764 438 -0.94148511 0.30999124 -0.13232952 0.067002647
2570 -766 391 -0.95744199 0.26519486 0.11391486 0.1338121
2586 -732 391 -0.94721037 -0.058021739 0.31531879 0.12444989
2576 -749 390 -0.96669155 0.12650608 0.22249401 0.14179678
2577 -746 437 -0.9393478 0.34141278 -0.032603532 0.10812332
2553 -807 396 -0.92435801 0.35243258 0.14612885 0.10930099
2570 -777 395 -0.94459254 0.32821718 0.0042893672 0.11124823
2573 -760 394 -0.96253955 0.24538279 0.11534721 0.12250005
2553 -790 394 -0.92392421 0.38249451 0.0078695957 0.10747675
2581 -745 393 -0.97864944 0.12414116 0.16381176 0.13149685
2542 -866 422 -0.99588436 -0.029858777 0.085572995 0.16071236
2562 -814 422 -0.96882117 0.24475507 0.038476132 0.11326174
2543 -847 421 -0.98736411 0.1158668 0.10810625 0.13144101
2586 -726 420 -0.96468031 0.25383943 0.070409611 0.13503079
2553 -831 422 -0.98590028 0.16326743 0.036664963 0.12882888
2569 -798 422 -0.96794015 0.25074488 -0.014792594 0.10704286
2571 -779 421 -0.94886065 0.3118813 -0.04892436 0.079418398
2579 -762 421 -0.94740862 0.30578771 -0.094396204 0.079073645
2597 -770 377 -0.96343273 0.15162413 -0.22092439 0.16120353
2581 -743 420 -0.96156168 0.2739808 -0.01826534 0.096554786
2556 -853 426 -0.9835062 0.070229605 0.16668317 0.14578716
2554 -872 428 -0.99662381 -0.047450263 0.06700322 0.1626309
2563 -814 423 -0.97136241 0.23579326 -0.029268272 0.11010274
2587 -741 420 -0.95994914 0.27967295 -0.016750552 0.11339721
2570 -796 422 -0.96356326 0.26722687 0.011648503 0.11301938
2576 -717 416 -0.97131717 0.18276109 0.15212233 0.15097409
2577 -758 420 -0.94837046 0.30389565 -0.090779349 0.082971677
2596 -769 378 -0.97595328 0.14108104 -0.16616671 0.15096208
2556 -894 430 -0.96821499 -0.24555334 0.047574706 0.18927488
2566 -835 426 -0.98711085 0.12538923 0.099446535 0.17397915
2572 -776 421 -0.95324498 0.2958667 -0.061538089 0.077614024
2574 -763 374 -0.92657799 0.14509535 0.34698781 0.19084822
2552 -810 393 -0.90606916 0.36855927 0.20785238 0.11271422
2557 -792 392 -0.91438079 0.40485522 0.00029111875 0.11396325
2567 -776 392 -0.94793135 0.31639442 0.036340732 0.12132227
2573 -720 389 -0.82636654 -0.25403386 0.50257862 0.1176252
2574 -759 392 -0.95963728 0.24271534 0.14207605 0.13210447
2581 -741 392 -0.9738937 0.077677406 0.21330084 0.12935142
2564 -860 428 -0.99267828 -0.002609604 0.12076025 0.17796983
2580 -784 423 -0.96457177 0.25593737 -0.064009897 0.11845804
2569 -801 423 -0.9676165 0.250646 0.029914873 0.11833961
2563 -839 426 -0.98895991 0.10962383 0.099704176 0.16965081
2583 -766 422 -0.94669527 0.29498935 -0.12941955 0.080719091
2589 -771 376 -0.98602372 0.16228326 0.037700482 0.18238807
2562 -819 424 -0.97424042 0.22217765 -0.038637381 0.11381065
2566 -881 430 -0.97046822 -0.20436561 -0.12816417 0.19482237
2588 -727 420 -0.95162839 0.28590623 0.11252137 0.13821204
2597 -710 420 -0.93998063 0.31869844 0.12193359 0.17060435
2592 -748 422 -0.95238942 0.30334941 -0.030553607 0.10492384
2546 -827 416 -0.9731611 0.20004138 0.11375818 0.10378268
2547 -859 417 -0.96323693 0.10998008 0.24511035 0.15164675
2542 -873 417 -0.99161416 -0.093228355 0.089498013 0.16965497
2544 -842 416 -0.97356933 0.16877632 0.15387441 0.13104537
2527 -840 427 -0.97436976 0.1996063 0.10373428 0.11500351
2570 -738 378 -0.80962056 -0.13435338 0.57137001 0.15698811
2588 -700 425 -0.8838113 0.1925689 0.42637393 0.20760687
2563 -756 379 -0.74930227 0.14723998 0.64565194 0.16172463
2580 -753 425 -0.95119816 0.29535669 -0.089366838 0.083207905
2577 -792 428 -0.97032601 0.24061623 -0.023903565 0.12400711
2591 -765 384 -0.97078931 0.21210071 0.11216722 0.14308457
2580 -773 427 -0.95913953 0.26996776 -0.084668837 0.095117472
2597 -718 424 -0.92963314 0.3565841 0.092898317 0.16662085
2591 -736 425 -0.94432575 0.32110974 0.071675472 0.12522376
2542 -846 434 -0.9827075 0.10354202 0.15350935 0.11204923
2553 -829 434 -0.98465878 0.17029244 0.038045794 0.098869391
2558 -811 433 -0.97239757 0.2302652 0.037695717 0.095961601
2581 -748 383 -0.90052617 0.014834039 0.4345488 0.15072697
2566 -794 432 -0.96799946 0.24983945 -0.023605587 0.099638127
2545 -866 436 -0.99350804 -0.019555159 0.11206865 0.1276059
2592 -705 427 -0.85493839 0.33592066 0.39526907 0.2216973
2583 -722 428 -0.9456917 0.30260783 0.11872529 0.14810506
2548 -887 439 -0.97810537 -0.20749144 -0.016037306 0.15176247
2577 -759 430 -0.94763845 0.31402731 -0.058036268 0.07475917
2567 -775 431 -0.96042478 0.27524737 -0.042698689 0.074462883
2579 -740 429 -0.94576877 0.31656387 0.072861284 0.112661
2589 -770 386 -0.96382236 0.24607654 0.10243449 0.1394596
2582 -745 415 -0.96728879 0.24639326 -0.06035528 0.10253404
2566 -800 418 -0.96574706 0.25843033 -0.023377692 0.10960178
2564 -819 419 -0.97652489 0.21521547 -0.0090258569 0.12108878
2553 -836 419 -0.97757286 0.18117161 0.10736953 0.13036412
2572 -781 417 -0.94833899 0.30088994 -0.10059038 0.084279381
2594 -729 415 -0.96297705 0.26056314 0.069152489 0.13529611
2601 -712 414 -0.9531014 0.28523177 0.10119493 0.17246504
2582 -764 416 -0.95266157 0.2776238 -0.12393947 0.081941426
2599 -725 410 -0.97359353 0.18185328 0.13800411 0.14369383
2560 -794 407 -0.95468837 0.2974259 -0.010388079 0.09637548
2584 -737 408 -0.98001909 0.19441721 0.042005684 0.11191157
2577 -751 408 -0.96673208 0.25566933 -0.0078894366 0.10104706
2578 -767 409 -0.95142996 0.29711694 -0.080639191 0.087917745
2567 -780 407 -0.94197601 0.32969248 -0.063118935 0.088647068
2552 -845 430 -0.99556255 0.085767426 0.038720135 0.13355331
2557 -806 427 -0.96716422 0.25226349 0.030926611 0.087089606
2588 -735 425 -0.93889934 0.33866695 0.061422985 0.12664823
2568 -769 425 -0.95093107 0.30460739 -0.054263208 0.071025774
2575 -751 424 -0.95688725 0.28398588 -0.060982239 0.086851716
2562 -787 426 -0.95610547 0.29302251 3.6575406e-05 0.076986618
2554 -825 429 -0.9745791 0.2018453 0.097232178 0.097928673
2542 -862 431 -0.98137957 0.035661813 0.18873897 0.13423109
2583 -759 382 -0.9264394 0.20093414 0.3183324 0.15286867
2561 -889 436 -0.96353161 -0.26297024 0.049532302 0.20422806
2596 -717 424 -0.9241792 0.36378118 0.11643006 0.16681364
2562 -733 377 -0.70054549 -0.19219971 0.68723744 0.11852448
2566 -892 451 -0.919842 -0.20507632 0.33441654 0.18321396
2564 -850 447 -0.90586853 0.12294055 0.40532431 0.15824714
2561 -808 443 -0.96065158 0.22510882 0.16270995 0.11645119
2563 -829 445 -0.9203155 0.17558293 0.34955689 0.15195502
2567 -799 399 -0.93962085 0.3408227 -0.030863617 0.11545711
2577 -782 399 -0.94750512 0.31218228 -0.069109902 0.10256604
2561 -788 441 -0.96419758 0.26419553 -0.022885773 0.102356
2587 -745 397 -0.98866135 0.14126804 0.050913498 0.11643805
2568 -750 439 -0.92851621 0.30748141 -0.20811717 0.091357619
2583 -763 398 -0.96246898 0.27106184 -0.013372843 0.10255998
2576 -732 438 -0.94339299 0.32503402 0.066048838 0.15527903
2565 -769 440 -0.93608159 0.29230914 -0.19572096 0.076493651
2547 -829 419 -0.98088431 0.1747628 0.085580274 0.10548162
2568 -796 419 -0.96267569 0.26997912 -0.019151902 0.1084373
2590 -723 416 -0.9571799 0.27184969 0.099521026 0.13408105
2573 -777 418 -0.94865644 0.30324638 -0.089958325 0.083256878
2560 -813 419 -0.96540558 0.2551944 0.053552117 0.11332019
2587 -742 417 -0.96357316 0.26743191 -0.0026307518 0.11211289
2574 -758 417 -0.95641917 0.27646357 -0.093969285 0.083724819
2563 -907 449 -0.89229542 -0.40771693 0.19384475 0.18432155
2558 -885 446 -0.96569598 -0.15457536 0.20865691 0.16915867
2573 -754 392 -0.97024167 0.17795275 0.16420676 0.13456948
2588 -716 438 -0.63986307 0.23916437 0.73032576 0.21313494
2581 -737 392 -0.9700526 -0.015185071 0.24241996 0.13574329
2570 -793 394 -0.94351214 0.32712939 -0.052641023 0.12428319
2573 -751 438 -0.93883342 0.32308275 -0.11920314 0.096336745
2576 -732 437 -0.94513726 0.32665551 0.0034230067 0.15232109
2561 -807 441 -0.97465026 0.21851394 0.048046365 0.10239328
2562 -787 439 -0.96267962 0.26893729 -0.030340906 0.10138925
2556 -825 441 -0.96879792 0.20555799 0.13847952 0.1110945
2570 -773 393 -0.94961405 0.31161487 0.033604987 0.11820512
2558 -865 445 -0.95077127 0.023401637 0.30900875 0.15859906
2562 -768 438 -0.94470698 0.30287841 -0.12567186 0.073528908
2555 -844 443 -0.96527213 0.086684801 0.24644543 0.14681414
2592 -776 388 -0.97485429 0.21893235 0.0415673 0.13703111
2565 -805 434 -0.96760631 0.25237679 0.0066300356 0.11717359
2557 -842 436 -0.98787165 0.085391372 0.12968418 0.14508682
2570 -766 431 -0.94966078 0.3091833 -0.050497223 0.06818305
2576 -752 384 -0.92084086 0.14787455 0.36081189 0.15226576
2563 -884 440 -0.97178864 -0.20718072 0.11270729 0.18451257
2556 -862 437 -0.99153548 -0.012984052 0.12918524 0.14761232
2559 -822 434 -0.96941978 0.2232565 0.10189114 0.10868
2582 -750 432 -0.93778336 0.3470065 0.012202354 0.099565439
2568 -785 432 -0.96095467 0.27639961 -0.013014678 0.089972973
2584 -711 429 -0.92046171 0.35741252 0.15813445 0.17896041
2586 -731 431 -0.9224292 0.35380235 0.15475242 0.1420389
2583 -747 402 -0.98374289 0.17761882 0.026484497 0.11202823
2570 -807 402 -0.94753104 0.31871268 0.024640715 0.12353057
2576 -777 402 -0.95076919 0.29872495 -0.082470432 0.092836104
2575 -761 402 -0.96117353 0.27589896 -0.0050150533 0.10260183
2565 -790 401 -0.94325042 0.32801989 -0.051783737 0.10023145
2559 -816 423 -0.97353822 0.22796759 0.01593744 0.1129749
2571 -801 423 -0.96811718 0.2495098 -0.022225413 0.11924183
2554 -835 424 -0.98922461 0.13521688 0.056132916 0.13498208
2576 -783 422 -0.95802891 0.28594512 -0.02039667 0.10118112
2583 -746 420 -0.95805389 0.28385508 -0.039484411 0.10207312
2579 -764 421 -0.94817638 0.2956396 -0.11644255 0.073856175
2564 -857 428 -0.99311638 0.017803073 0.11577129 0.17370413
2558 -903 451 -0.89475489 -0.38094378 0.23301387 0.1692068
2564 -885 451 -0.93085825 -0.17996588 0.31798607 0.18624108
2563 -816 430 -0.97282553 0.23002291 0.026455462 0.11694858
2579 -782 430 -0.96393687 0.25852019 -0.063191123 0.11180561
2599 -771 385 -0.97752827 0.20887677 -0.028441617 0.14108771
2557 -739 377 -0.68248576 -0.12842312 0.71952808 0.11590505
2562 -874 434 -0.98372549 -0.057675298 0.1701697 0.17316054
2583 -744 428 -0.94466025 0.32606384 0.036047008 0.10736354
2589 -726 428 -0.93370146 0.33007443 0.13875377 0.14554036
2562 -835 431 -0.99424249 0.10120788 0.03519839 0.1616198
2574 -800 430 -0.97306424 0.22842121 -0.031141285 0.12533931
2556 -852 431 -0.99528968 0.058686182 0.077165365 0.14128478
2586 -764 430 -0.94709641 0.31703085 -0.049999334 0.10967679
2556 -879 445 -0.97572839 -0.11628212 0.18556005 0.17206505
2565 -783 439 -0.96111459 0.26588923 -0.074576505 0.092623442
2565 -802 440 -0.97230601 0.23371091 0.00045627321 0.12283477
2556 -859 443 -0.96589601 0.026803955 0.25753933 0.15590099
2552 -838 441 -0.98613387 0.12645701 0.10746421 0.12444914
2560 -901 447 -0.92317832 -0.34185538 0.17571791 0.18249956
2571 -787 393 -0.94808179 0.31362709 -0.052715912 0.1137747
2563 -821 441 -0.95095772 0.24029569 0.19477531 0.13137375
2566 -766 391 -0.96543819 0.23179863 0.11915767 0.13620728
2586 -710 437 -0.7009955 0.32422084 0.63520557 0.20366587
2570 -764 438 -0.94319695 0.30682579 -0.12742627 0.068153083
2579 -747 438 -0.93317968 0.35848048 -0.025835466 0.11212426
2573 -749 391 -0.97001785 0.16101938 0.18203866 0.14139347
2581 -728 437 -0.91520274 0.35989273 0.18133159 0.1703321
2582 -717 437 -0.91312832 0.3740097 0.16221412 0.20056288
2564 -810 441 -0.96330154 0.21535933 0.1602201 0.12529343
2564 -790 439 -0.96420592 0.26199612 -0.040803771 0.098621979
2556 -827 441 -0.97494745 0.18516219 0.12325779 0.11584118
2553 -846 442 -0.96595341 0.10827086 0.234971 0.14535296
2554 -887 445 -0.97245812 -0.19691879 0.12469184 0.16183527
2557 -868 444 -0.96865118 -0.037976213 0.2455049 0.15845586
2570 -776 392 -0.94718462 0.31570908 0.056293692 0.12406507
2561 -909 448 -0.88343424 -0.4552587 0.1108309 0.19176391
2577 -735 437 -0.94160759 0.33491042 -0.034786876 0.1293719
2563 -771 438 -0.94652563 0.2844699 -0.15220459 0.069444172
2577 -758 392 -0.96323788 0.22463378 0.14735116 0.12799004
2580 -740 391 -0.96864808 0.037379585 0.24560869 0.13294394
2576 -755 438 -0.93802357 0.3257896 -0.11820718 0.090699233
2552 -809 414 -0.96131217 0.26889744 0.059774946 0.099325188
2563 -793 415 -0.96190876 0.27062196 -0.038668483 0.091697492
2576 -759 415 -0.95563841 0.28266811 -0.082788609 0.082952283
2588 -724 414 -0.96774936 0.21427046 0.13247395 0.13722382
2580 -741 414 -0.97268331 0.23084161 0.024483293 0.10688875
2594 -707 414 -0.95878041 0.11653244 0.25915322 0.19614774
2571 -776 415 -0.94642961 0.30286813 -0.11199071 0.083757311
