# .PCD v0.7 - Point Cloud Data file format
VERSION 0.7
FIELDS x y z normal_x normal_y normal_z curvature
SIZE 4 4 4 4 4 4 4
TYPE F F F F F F F
COUNT 1 1 1 1 1 1 1
WIDTH 536
HEIGHT 1
VIEWPOINT 0 0 0 1 0 0 0
POINTS 536
DATA ascii
2616 -1037 -134 -0.98166609 -0.17541583 0.074571416 0.073483005
2623 -981 -183 -0.97168976 0.21445416 -0.099138901 0.085374139
2606 -1010 -181 -0.98690653 0.086389571 -0.13620664 0.073006876
2601 -1049 -133 -0.96363056 -0.25065407 0.092675611 0.066108339
2610 -1030 -182 -0.98880756 0.013023309 -0.14862703 0.091752395
2603 -1013 -134 -0.99387985 0.043930884 0.10135539 0.082257077
2613 -994 -182 -0.97751302 0.17973937 -0.1102813 0.070057288
2633 -1069 -90 -0.86652166 -0.082338728 0.49230129 0.099504746
2632 -1087 -90 -0.86480016 -0.19905089 0.46097645 0.081881054
2630 -1049 -91 -0.80835116 0.093272276 0.58126467 0.12515108
2641 -981 -243 -0.7486096 -0.098079853 -0.65571636 0.14983292
2638 -965 -243 -0.69290215 -0.2467449 -0.67749804 0.17537796
2617 -993 -197 -0.96818745 0.20458783 -0.14407244 0.088189967
2614 -995 -152 -0.98941147 0.13570973 -0.051457122 0.096202388
2616 -976 -197 -0.96452463 0.21722335 -0.15002069 0.07981617
2645 -1103 -102 -0.81817663 -0.51368451 0.25829282 0.13556187
2611 -1012 -151 -0.99505174 0.097056679 -0.021260971 0.08636751
2601 -1043 -149 -0.98488212 -0.17285559 0.011323262 0.069544621
2628 -1061 -103 -0.9326973 -0.13459451 0.33460444 0.10893042
2634 -1081 -103 -0.93275893 -0.16766252 0.31913957 0.1090897
2610 -1029 -151 -0.99602389 -0.083811335 -0.030199576 0.075116888
2608 -1008 -196 -0.98353106 0.084516518 -0.15976107 0.079211578
2614 -1038 -103 -0.95457536 -0.18009056 0.2373883 0.092698202
2640 -965 -235 -0.77301025 0.0025674358 -0.63438845 0.16125321
2627 -1033 -187 -0.96877623 -0.10086764 -0.22649148 0.1103422
2622 -995 -187 -0.97959536 0.13416407 -0.14964238 0.092753813
2629 -978 -234 -0.82521713 -0.11327834 -0.55333954 0.13015865
2610 -1008 -186 -0.9853074 0.083408765 -0.1490379 0.08145833
2619 -1046 -149 -0.97886503 -0.20400323 -0.014352106 0.075862601
2622 -992 -196 -0.95872021 0.24772738 -0.13959441 0.10659457
2624 -1012 -150 -0.99178112 0.1276717 0.0083809569 0.11662316
2620 -1009 -196 -0.97301531 0.014160224 -0.23030594 0.095720865
2608 -1022 -195 -0.97824961 0.0033817277 -0.20740388 0.080797233
2638 -975 -246 -0.76369089 -0.091280371 -0.63909638 0.15025419
2624 -1030 -150 -0.99622369 -0.082357541 -0.027489139 0.10552938
2629 -1003 -211 -0.92801654 -0.013332583 -0.37230042 0.12200517
2635 -987 -212 -0.93574494 0.11989851 -0.33167109 0.12975915
2624 -985 -223 -0.91009986 0.11138396 -0.3991389 0.1218854
2631 -1050 -129 -0.96212947 -0.12782566 0.24076445 0.1316687
2611 -1022 -174 -0.99058312 0.052565999 -0.12641935 0.082935676
2605 -1022 -128 -0.98675805 -0.010821826 0.16183774 0.076595977
2612 -1041 -174 -0.98852384 -0.095971338 -0.11666247 0.095984176
2618 -1063 -127 -0.95675617 -0.26424867 0.12161508 0.067218855
2627 -992 -176 -0.98326737 0.13293628 -0.12455203 0.10772923
2617 -1007 -175 -0.99109703 0.057415139 -0.12012529 0.087459095
2615 -1000 -222 -0.9172886 -0.0038599011 -0.39820427 0.080882631
2636 -978 -225 -0.87347949 -0.0017479388 -0.48685783 0.1353517
2645 -1086 -91 -0.80578035 -0.13566844 0.57646531 0.12405732
2620 -1018 -181 -0.98695379 0.045093887 -0.1545599 0.091500551
2629 -995 -226 -0.8658011 -0.059806485 -0.49680147 0.12222169
2629 -1053 -136 -0.97103429 -0.20362401 0.12501839 0.10884777
2625 -999 -181 -0.98486489 0.10051434 -0.14120194 0.09593755
2614 -1037 -182 -0.9885357 -0.016043723 -0.15013237 0.096704513
2622 -1028 -134 -0.98682708 -0.15177287 0.05601183 0.10100944
2629 -1087 -105 -0.93356371 -0.25699738 0.24982227 0.084015578
2627 -1067 -104 -0.93639219 -0.17786993 0.30254251 0.10071194
2628 -1047 -104 -0.92766082 -0.035650816 0.37171817 0.12853351
2647 -994 -235 -0.66745591 -0.32715932 -0.66893148 0.16374132
2633 -1083 -102 -0.9339146 -0.19821163 0.29751593 0.091035284
2637 -1066 -102 -0.88653022 -0.047610834 0.46021447 0.13639361
2636 -1046 -101 -0.59595609 0.39261639 0.70049173 0.1528037
2636 -1087 -78 -0.81749547 -0.15614292 0.55436504 0.088568732
2631 -1065 -77 -0.79813182 -0.026736455 0.60188931 0.079106033
2645 -1099 -74 -0.74569768 0.015049488 0.66611451 0.11325983
2647 -1081 -73 -0.67741996 0.13220754 0.72361821 0.096290343
2625 -987 -221 -0.91452909 0.14861378 -0.37623197 0.11364441
2629 -1006 -222 -0.87300748 -0.11182448 -0.47471383 0.10702752
2628 -988 -194 -0.9474225 0.29183602 -0.13123359 0.11409248
2628 -1008 -148 -0.99048835 0.13651009 0.017259387 0.13635792
2627 -1005 -194 -0.96895653 0.041303493 -0.24375662 0.1090622
2626 -1023 -194 -0.96401238 -0.049210764 -0.26126304 0.10496783
2654 -976 -245 -0.57844537 -0.1500016 -0.8018108 0.17375892
2625 -1042 -147 -0.98364162 -0.18009607 -0.0038206493 0.082037173
2635 -1028 -148 -0.98466587 0.1356151 0.10973457 0.17942706
2652 -959 -244 -0.52677363 0.14635637 -0.83731073 0.15332636
2640 -1070 -72 -0.71461183 0.087020658 0.69408751 0.079633467
2617 -1035 -119 -0.9712519 -0.1400445 0.19250251 0.080183759
2631 -1080 -119 -0.95291466 -0.26942998 0.13914442 0.076531969
2650 -1094 -72 -0.69117999 0.039614294 0.72159618 0.09694811
2618 -1055 -119 -0.96249801 -0.19213194 0.19152775 0.07526885
2650 -969 -244 -0.62804687 0.025866257 -0.77774549 0.17476608
2642 -986 -245 -0.74320573 -0.14594582 -0.652951 0.13880515
2626 -998 -190 -0.97817981 0.15448631 -0.13891833 0.10523234
2634 -982 -237 -0.79721946 -0.0843459 -0.59776837 0.12750332
2623 -1015 -189 -0.98570609 0.050598592 -0.16069606 0.092214309
2615 -1030 -188 -0.99162823 0.032647647 -0.12493029 0.087927878
2622 -1052 -132 -0.96875811 -0.22899307 0.095235743 0.0655123
2621 -992 -181 -0.97678792 0.18133679 -0.1140277 0.090744399
2613 -1025 -180 -0.98966247 0.040896244 -0.13746165 0.09145081
2629 -976 -227 -0.88748366 -0.011242095 -0.46070212 0.14145686
2645 -1082 -86 -0.72340751 0.091910087 0.68427628 0.10773215
2621 -989 -226 -0.8933267 0.03576342 -0.44798264 0.10442201
2616 -1014 -133 -0.99605471 0.013847292 0.087654129 0.096994244
2627 -1036 -133 -0.98204184 -0.15275741 0.11072084 0.12196433
2647 -1101 -85 -0.77719891 -0.42671123 0.46247101 0.11120106
2621 -1010 -181 -0.98910385 0.046809141 -0.13957974 0.097391061
2613 -1037 -129 -0.97855723 -0.17061219 0.11540051 0.066051841
2619 -1058 -130 -0.95708966 -0.26779369 0.11075152 0.0659936
2637 -1070 -83 -0.79021639 -0.0098727476 0.61274832 0.094846979
2635 -1089 -82 -0.82462108 -0.19948423 0.52934498 0.084695339
2608 -1016 -129 -0.99110025 0.0060931584 0.13297801 0.083743528
2634 -1065 -95 -0.83444136 0.016890384 0.55083787 0.12808444
2626 -1081 -95 -0.91480172 -0.20377308 0.34873262 0.089277722
2626 -1042 -95 -0.85794872 0.031120602 0.51279187 0.12503344
2630 -988 -221 -0.90478045 0.042568669 -0.42374557 0.12452373
2627 -1049 -126 -0.96225852 -0.13522606 0.23616168 0.11939765
2619 -1028 -126 -0.98479253 -0.10607825 0.13759045 0.080417559
2633 -972 -221 -0.90419078 0.16505092 -0.3939507 0.12711333
2629 -994 -173 -0.97976083 0.18264915 -0.0819019 0.1226062
2621 -1008 -173 -0.99092221 0.059925251 -0.1203417 0.10212658
2629 -1067 -125 -0.95626688 -0.21326184 0.20018269 0.094203964
2616 -1024 -172 -0.99298292 0.057112858 -0.10355283 0.083160475
2616 -1021 -151 -0.99941075 0.032634303 -0.010642456 0.090259545
2613 -1000 -150 -0.98694432 0.16033487 -0.015288811 0.096206076
2618 -1028 -104 -0.96429843 -0.17581673 0.19803272 0.10247377
2609 -1039 -152 -0.98670721 -0.16018194 -0.027396904 0.080445342
2620 -1049 -105 -0.94971079 -0.17675056 0.25847393 0.089268804
2645 -1100 -107 -0.85775757 -0.45552307 0.23822387 0.14184962
2623 -1071 -106 -0.94036239 -0.22799484 0.25246167 0.082594514
2618 -1038 -106 -0.95336747 -0.11238969 0.28010523 0.098950416
2629 -1082 -107 -0.94045192 -0.22502433 0.25478274 0.088543035
2622 -1060 -106 -0.95197576 -0.18215449 0.24609321 0.091640197
2620 -1026 -184 -0.99003494 0.068491943 -0.12304339 0.091792695
2628 -1011 -185 -0.9860512 0.050551753 -0.15857974 0.099583134
2632 -993 -232 -0.81607813 -0.1553563 -0.55666953 0.12249703
2629 -993 -185 -0.97379661 0.17968138 -0.13940834 0.1097867
2641 -979 -233 -0.78955388 -0.15602037 -0.59351689 0.16340478
2655 -968 -234 -0.65360343 0.17207325 -0.7370165 0.18461901
2630 -998 -213 -0.92469621 0.0067926226 -0.38064539 0.12096407
2635 -979 -212 -0.92419022 0.032110929 -0.38058016 0.13329016
2615 -1033 -118 -0.97227687 -0.13074793 0.19386221 0.084867284
2647 -1091 -72 -0.69846725 0.081064351 0.71103597 0.09623374
2642 -1069 -72 -0.65099305 0.16012831 0.74200207 0.090292722
2615 -1053 -119 -0.96259302 -0.20525867 0.17687136 0.072627969
2631 -978 -233 -0.8335157 -0.11289115 -0.54083943 0.1305252
2625 -980 -185 -0.95453149 0.28569385 -0.08513812 0.11444674
2632 -962 -232 -0.6987049 -0.32473087 -0.63746476 0.16054304
2629 -1078 -100 -0.93008208 -0.21514904 0.29775527 0.092346862
2609 -1002 -142 -0.98412168 0.17470619 0.031343017 0.098362893
2625 -1056 -99 -0.91482186 -0.067497231 0.39817721 0.10910869
2622 -1034 -99 -0.8844505 0.0086965859 0.46655303 0.12688224
2607 -1014 -186 -0.98559636 0.06217511 -0.1572707 0.081489615
2605 -1042 -143 -0.98520845 -0.16969632 0.023821428 0.06967207
2623 -999 -186 -0.98187941 0.10892645 -0.15507354 0.091875948
2609 -1023 -143 -0.99915326 -0.030461349 0.027654052 0.072571419
2634 -1078 -74 -0.78912294 -0.061193921 0.61117941 0.075440876
2650 -1105 -74 -0.62709391 0.3038969 0.71721673 0.122645
2618 -1048 -117 -0.96035039 -0.20661111 0.18718699 0.075979985
2622 -1030 -117 -0.95962608 -0.037998367 0.27870038 0.12109591
2618 -975 -205 -0.9243499 0.34952894 -0.15299287 0.10176306
2654 -1090 -74 -0.68224943 0.12226465 0.72082376 0.10226912
2606 -1035 -160 -0.992616 -0.10656235 -0.057947427 0.082215317
2617 -1019 -160 -0.99691266 0.043618124 -0.065288216 0.090432465
2652 -1068 -73 -0.51005787 0.388807 0.76724839 0.093817592
2616 -998 -159 -0.98975259 0.14012632 -0.027468799 0.096101917
2616 -992 -206 -0.96548414 0.14175567 -0.21850802 0.0748768
2636 -975 -220 -0.8817184 -0.017134469 -0.4714649 0.1354347
2624 -988 -219 -0.92091644 0.1619195 -0.3545348 0.11098211
2615 -991 -173 -0.97684371 0.19028331 -0.097819112 0.077145912
2610 -1010 -173 -0.98901325 0.03606892 -0.14335895 0.085132428
2603 -1012 -126 -0.98661089 0.058409501 0.15227407 0.084337242
2609 -1056 -127 -0.95927608 -0.2537801 0.12403679 0.059276849
2641 -1098 -85 -0.80525452 -0.26458254 0.53062338 0.086909063
2640 -1056 -84 -0.59016192 0.28618482 0.75485569 0.12149855
2607 -1029 -174 -0.99217129 0.030358728 -0.12113858 0.080264263
2620 -1040 -127 -0.97607499 -0.1757381 0.12803838 0.077849224
2643 -1078 -85 -0.72823948 0.067083724 0.68203157 0.10915695
2639 -980 -201 -0.91747844 -0.12445027 -0.37781671 0.13618656
2638 -1001 -202 -0.9227078 -0.066724844 -0.37968177 0.123849
2626 -985 -221 -0.91633981 0.14340119 -0.37384149 0.11409256
2619 -1000 -220 -0.93298429 0.022096673 -0.35923806 0.083274275
2616 -1020 -155 -0.9985767 0.037630435 -0.037796535 0.091166109
2635 -1067 -109 -0.93083429 -0.1170225 0.34619817 0.12890886
2618 -1003 -155 -0.98760951 0.15538809 -0.021954998 0.093791872
2614 -1037 -154 -0.98615265 -0.15787792 -0.050769173 0.081762291
2632 -985 -201 -0.94803542 0.072459474 -0.30980381 0.12604882
2640 -1087 -109 -0.9369452 -0.24106902 0.25302047 0.12045678
2626 -1000 -200 -0.95239192 0.052365277 -0.30034551 0.11286687
2630 -1047 -110 -0.93822247 -0.030212337 0.34471121 0.12608369
2617 -1015 -199 -0.97115159 -0.0062758513 -0.23838022 0.099853016
2614 -1056 -121 -0.96066666 -0.22581379 0.1616405 0.065421566
2610 -1036 -121 -0.9752903 -0.15011901 0.16208979 0.073690802
2639 -1092 -77 -0.80278081 -0.12487507 0.58305162 0.092169166
2607 -1012 -168 -0.99373132 0.056017756 -0.096748106 0.088488951
2625 -1024 -122 -0.95316267 0.040532786 0.29973006 0.13257743
2640 -1074 -77 -0.71996301 0.086019836 0.68866086 0.095044568
2614 -997 -169 -0.98547339 0.14291178 -0.091751441 0.082376137
2611 -1032 -168 -0.99389988 -0.036479995 -0.10407839 0.086870775
2612 -1001 -143 -0.97567713 0.21288052 0.052307144 0.10504183
2610 -1040 -144 -0.98628616 -0.16315605 0.024895348 0.072992988
2620 -1050 -97 -0.91246414 -0.07652615 0.40193641 0.095380306
2625 -1093 -98 -0.92055964 -0.25917852 0.29222679 0.090361156
2621 -1071 -98 -0.92681426 -0.20968927 0.31152177 0.080796957
2614 -1022 -144 -0.99942738 -0.030192757 0.015274409 0.084368877
2618 -998 -196 -0.97796953 0.1269239 -0.16572875 0.079386406
2617 -1003 -151 -0.98965484 0.14094001 -0.026818894 0.091829613
2638 -961 -239 -0.66205287 -0.19809732 -0.72280258 0.17341897
2609 -1015 -196 -0.98317915 0.063335203 -0.17131051 0.078267269
2617 -1034 -105 -0.95900124 -0.14182888 0.24535914 0.095913865
2615 -1023 -152 -0.99929827 -0.002120611 -0.037396289 0.090453953
2606 -1041 -153 -0.98469484 -0.17156439 -0.030688096 0.082179412
2635 -976 -240 -0.76188123 -0.13604476 -0.63326842 0.14055455
2618 -977 -195 -0.94731116 0.29736501 -0.11906147 0.094182022
2635 -1062 -107 -0.90003163 0.0074321316 0.43576127 0.13580287
2627 -1080 -107 -0.94357139 -0.24096514 0.22717564 0.082608342
2628 -1072 -104 -0.93501264 -0.219916 0.27818736 0.091716193
2612 -1018 -147 -0.99972922 0.02038604 -0.011224682 0.0846017
2618 -1041 -148 -0.98526037 -0.1705375 -0.013378701 0.081213757
2628 -1051 -104 -0.93940717 -0.074515671 0.33460644 0.12591329
2628 -1093 -105 -0.92855239 -0.26896021 0.25583366 0.087721489
2639 -993 -239 -0.73574305 -0.23985094 -0.63336682 0.13461293
2623 -1034 -192 -0.95613915 -0.14617263 -0.25383332 0.10895991
2643 -977 -238 -0.7550503 -0.16739175 -0.63393933 0.16636471
2628 -1016 -192 -0.96670675 -0.036854748 -0.25321889 0.10505572
2628 -994 -190 -0.97339439 0.17420714 -0.14884596 0.11556209
2626 -1075 -100 -0.92940879 -0.23237662 0.28670627 0.087495543
2616 -1032 -99 -0.93513793 -0.15821192 0.31699508 0.09968695
2626 -1055 -100 -0.90940982 -0.041542169 0.41382131 0.11133568
2649 -967 -237 -0.69778401 0.078988761 -0.71193969 0.19139959
2653 -986 -237 -0.6085012 -0.33056581 -0.72142398 0.17696141
2617 -1004 -166 -0.99095786 0.1142725 -0.070315465 0.09892682
2630 -1032 -119 -0.84494025 0.2233638 0.48598832 0.15260033
2649 -1084 -74 -0.67652315 0.13076751 0.72471815 0.094101958
2619 -1064 -117 -0.95572674 -0.2422 0.16710933 0.074120283
2615 -1021 -165 -0.99467075 0.051685892 -0.089211069 0.089322597
2616 -1045 -118 -0.96201533 -0.18813205 0.19782004 0.077274866
2610 -1038 -165 -0.98835617 -0.12346859 -0.088924401 0.081576496
2612 -1014 -143 -0.99709922 0.071987838 0.024715178 0.087079376
2619 -1012 -191 -0.98609078 0.045217648 -0.15993828 0.09521234
2622 -995 -191 -0.9772138 0.17079635 -0.12602279 0.097047091
2623 -1036 -143 -0.98782736 -0.15293328 0.028437492 0.086583391
2609 -1027 -190 -0.98539406 0.035656519 -0.1665148 0.089695103
2646 -1107 -98 -0.77957863 -0.53849208 0.31981811 0.12708323
2635 -1084 -98 -0.89871275 -0.15523712 0.41014242 0.094353713
2628 -1045 -99 -0.86777109 0.052093655 0.49422622 0.12736218
2635 -1066 -99 -0.84468645 0.0076557286 0.53520662 0.13646926
2604 -1047 -142 -0.97685683 -0.21271814 0.022399222 0.071782783
2632 -1001 -188 -0.97420055 0.079819433 -0.21109773 0.1159106
2627 -1020 -189 -0.97721648 -0.019449618 -0.21135186 0.1014325
2644 -996 -236 -0.69681776 -0.28408605 -0.65858954 0.14952688
2637 -1029 -143 -0.77832186 0.51429898 0.36015496 0.19238852
2649 -977 -235 -0.67825246 -0.25157645 -0.69042224 0.17400445
2625 -1046 -144 -0.97964376 -0.19830835 0.031174388 0.075415947
2622 -1083 -87 -0.89614773 -0.20215407 0.39503548 0.082679257
2635 -1068 -88 -0.8198154 0.0053501334 0.57260287 0.11701222
2626 -1044 -87 -0.8566891 0.031685133 0.51485896 0.11649597
2617 -1068 -105 -0.94612432 -0.24195407 0.21519071 0.072947554
2618 -1049 -105 -0.9478001 -0.16061085 0.27546164 0.081702702
2624 -1044 -101 -0.90932316 -0.03517339 0.41460139 0.12053076
2628 -1064 -102 -0.92676944 -0.1351728 0.35046637 0.11254118
2626 -1083 -102 -0.93485177 -0.23481432 0.26629743 0.084498934
2633 -996 -196 -0.95195466 0.051681388 -0.30184644 0.12630083
2629 -1013 -195 -0.96306324 -0.017400512 -0.26871258 0.10964871
2624 -1017 -147 -0.99666339 0.080425076 0.013927756 0.10857763
2646 -998 -242 -0.62847441 -0.31075662 -0.71305698 0.1539806
2620 -1027 -194 -0.96878779 -0.039359797 -0.24474673 0.096646078
2631 -1039 -101 -0.73340815 0.24660383 0.63348168 0.15224713
2630 -1037 -147 -0.99042338 -0.13593 0.024179988 0.12815689
2637 -1060 -100 -0.76649684 0.14847946 0.6248492 0.15386514
2639 -1078 -100 -0.8833828 -0.040761333 0.46687624 0.12416559
2625 -1053 -146 -0.97007424 -0.23999229 0.036874346 0.080925055
2640 -1097 -99 -0.84841245 -0.41237783 0.33187479 0.1172845
2610 -1049 -152 -0.97693527 -0.21241345 -0.021863161 0.083362833
2622 -979 -201 -0.91658539 0.37481326 -0.13923477 0.10237296
2610 -1009 -200 -0.98245513 0.098452084 -0.15839589 0.079306088
2623 -996 -201 -0.96346188 0.12258495 -0.23814748 0.10566583
2618 -1034 -153 -0.99024212 -0.13526033 -0.033543084 0.087604344
2626 -1044 -109 -0.94716197 -0.094200365 0.30661133 0.12214036
2615 -1015 -153 -0.99603468 0.087325729 -0.017002955 0.093199432
2626 -1001 -154 -0.98979515 0.14168805 -0.015168332 0.12109824
2638 -1085 -108 -0.93463492 -0.24856366 0.25431031 0.12227159
2627 -1062 -109 -0.95163709 -0.16819386 0.25709471 0.10478435
2622 -1005 -165 -0.99347365 0.056627717 -0.099011704 0.099365413
2624 -985 -211 -0.93392467 0.19125409 -0.30200431 0.10577956
2619 -1021 -164 -0.9967429 0.040423315 -0.069781013 0.086937211
2613 -1037 -163 -0.99154329 -0.1073651 -0.07290075 0.079687566
2626 -1003 -211 -0.93394798 0.0043601706 -0.35738251 0.12199233
2636 -1070 -116 -0.95438468 -0.1861634 0.23343734 0.11236588
2655 -1099 -70 -0.52910906 0.44837928 0.72041631 0.12392804
2626 -1049 -117 -0.94707656 -0.091682941 0.3076365 0.12155232
2653 -1080 -70 -0.59680718 0.28039956 0.75179601 0.090358719
2632 -1087 -116 -0.93080717 -0.35500392 0.087006979 0.090855382
2615 -1055 -163 -0.94633138 -0.30812883 -0.09753748 0.091925412
2621 -1023 -191 -0.98641014 0.051861443 -0.15590206 0.094688602
2632 -1006 -190 -0.97373199 0.013686881 -0.22728537 0.10816141
2639 -983 -236 -0.7667467 -0.19604635 -0.61128175 0.16394359
2600 -1044 -151 -0.98693633 -0.16090468 0.0081416527 0.077833354
2614 -1029 -152 -0.9961434 -0.077662177 -0.040827114 0.081562273
2612 -1034 -104 -0.95792943 -0.20453694 0.20133533 0.089864612
2628 -1082 -106 -0.94082719 -0.23930028 0.2399573 0.08668486
2623 -1059 -105 -0.9497115 -0.16843955 0.26396254 0.097395524
2611 -1008 -151 -0.98900008 0.14608951 -0.023166105 0.091586471
2620 -1024 -186 -0.98973221 0.055919502 -0.13154154 0.086827569
2642 -977 -235 -0.78455836 -0.13815705 -0.60446739 0.16842952
2637 -995 -188 -0.95711654 0.25607136 -0.13548188 0.16020048
2633 -1011 -187 -0.97225416 -0.023579208 -0.23273581 0.12736481
2634 -992 -234 -0.82275712 -0.11588053 -0.55645519 0.13189483
2637 -1014 -209 -0.88641924 -0.15677026 -0.43552729 0.13211742
2630 -1009 -217 -0.88884491 -0.12685522 -0.44029823 0.11749989
2638 -1017 -172 -0.87125188 0.46533772 0.15614437 0.19321889
2640 -991 -217 -0.87632328 -0.099820867 -0.47126764 0.14051193
2639 -1100 -105 -0.86238039 -0.48424169 0.14768253 0.1227968
2625 -1037 -102 -0.88768709 0.047986951 0.4579398 0.13515581
2635 -1079 -104 -0.9267242 -0.1500562 0.34447846 0.11335385
2633 -1059 -103 -0.87724799 0.023618316 0.4794561 0.1384853
2628 -1040 -129 -0.97127444 -0.10791579 0.21208526 0.12893467
2616 -1009 -172 -0.98881137 0.040760517 -0.14349407 0.087499633
2629 -986 -216 -0.92555171 0.15577169 -0.34509307 0.11871976
2615 -1030 -173 -0.99041796 -0.028094802 -0.13521422 0.090690009
2631 -1063 -130 -0.95783925 -0.20697767 0.19925912 0.10637559
2623 -1003 -217 -0.91331065 -0.064597867 -0.40210789 0.10318255
2645 -1078 -83 -0.70349228 0.10455485 0.70297009 0.1068141
2638 -1097 -84 -0.81361806 -0.26154441 0.51924956 0.091117375
2625 -992 -172 -0.9814052 0.13842534 -0.13297471 0.10584782
2619 -1038 -106 -0.95079696 -0.083167613 0.29844302 0.10320644
2630 -1081 -107 -0.93785995 -0.22045954 0.26798561 0.089350902
2622 -1058 -106 -0.9500277 -0.17884879 0.25585252 0.097384654
2629 -1095 -100 -0.91814601 -0.25985071 0.29914132 0.096835189
2632 -1077 -99 -0.92204654 -0.17349406 0.34602022 0.10987089
2630 -1057 -98 -0.86274582 -0.0047384286 0.50561571 0.12235962
2619 -1034 -97 -0.90228361 -0.051249467 0.42808616 0.12756714
2639 -1066 -73 -0.70003331 0.11433936 0.70489711 0.078007385
2635 -1083 -73 -0.79273856 -0.084633783 0.60365778 0.0762996
2646 -1106 -75 -0.76377219 -0.031635735 0.64471018 0.11924721
2628 -996 -229 -0.84821618 -0.10463795 -0.51921117 0.11763084
2635 -980 -230 -0.84912378 -0.10751431 -0.51713574 0.13668737
2634 -1037 -146 -0.99356115 -0.091426246 0.066913746 0.15511456
2628 -1016 -146 -0.98956484 0.13035747 0.061385971 0.13024598
2622 -1050 -145 -0.97103709 -0.23645067 0.034322809 0.07677684
2627 -1014 -192 -0.96981341 -0.0097119641 -0.24365449 0.10986815
2652 -982 -243 -0.5930413 -0.27917594 -0.75522369 0.1879061
2649 -999 -242 -0.54853576 -0.36681905 -0.75136691 0.16305047
2628 -997 -193 -0.96791863 0.084231608 -0.23672463 0.11694156
2623 -1031 -192 -0.96347708 -0.11367627 -0.24246593 0.11136962
2625 -1060 -134 -0.95511639 -0.28324288 0.086753361 0.068163566
2611 -1025 -176 -0.99034309 0.040205281 -0.13268021 0.080006987
2616 -1036 -132 -0.98135632 -0.1750253 0.07941021 0.074315123
2636 -1071 -89 -0.82620037 -0.027377751 0.56271076 0.11259521
2614 -1015 -131 -0.99390811 -0.0126715 0.10948059 0.095885657
2627 -968 -221 -0.92091781 0.22533841 -0.31801423 0.13524073
2630 -1089 -89 -0.86873579 -0.21711361 0.44515151 0.084365971
2627 -990 -175 -0.97507304 0.1984998 -0.099148303 0.10765543
2623 -983 -222 -0.9110716 0.098108239 -0.40040389 0.11342919
2623 -1009 -175 -0.9924081 0.060939897 -0.10682954 0.10176031
2634 -1072 -90 -0.85985315 -0.10187896 0.50027323 0.10322811
2635 -1091 -91 -0.85445887 -0.24107361 0.46019945 0.085453883
2618 -1047 -88 -0.9079591 -0.077273913 0.41187257 0.084216528
2636 -1069 -96 -0.85669351 -0.033763565 0.51471961 0.12290835
2643 -1090 -96 -0.84500587 -0.30810824 0.43707484 0.11134483
2635 -1049 -95 -0.68081748 0.24817054 0.68912911 0.13942936
2627 -1007 -207 -0.93132436 -0.070347361 -0.35733205 0.11086113
2610 -1010 -140 -0.9960292 0.083011106 0.032172658 0.093716331
2622 -1009 -188 -0.98514742 0.031615298 -0.16877481 0.090843245
2626 -990 -187 -0.95739025 0.26295564 -0.11940788 0.10619798
2639 -1093 -100 -0.88349569 -0.33549917 0.32691848 0.11019666
2616 -1028 -189 -0.98870581 0.048560936 -0.14178334 0.087997973
2621 -1035 -141 -0.98623347 -0.163597 0.024075298 0.077627942
2608 -1051 -142 -0.96999598 -0.23936287 0.042581927 0.067709751
2644 -1074 -99 -0.69801283 0.21257514 0.68380541 0.16088295
2635 -1087 -102 -0.92015684 -0.30324525 0.24769677 0.10449753
2636 -1068 -101 -0.87874818 -0.040730543 0.47554451 0.1357314
2618 -1042 -100 -0.92970902 -0.1318161 0.34389767 0.088953726
2634 -1009 -176 -0.9135955 0.39152494 0.10977925 0.17115958
2628 -1031 -131 -0.98488492 -0.10135509 0.14045946 0.14175333
2627 -1048 -131 -0.97239727 -0.17348957 0.15602835 0.10736379
2626 -1002 -223 -0.87174559 -0.085642405 -0.4824158 0.1053475
2623 -1040 -175 -0.97614181 -0.15429443 -0.15277584 0.09708412
2633 -987 -224 -0.87678432 -0.0086521748 -0.48080605 0.12437701
2630 -1025 -175 -0.9916693 0.10285853 -0.077538654 0.12447751
2645 -1077 -85 -0.68357068 0.14264321 0.71581006 0.11323623
2642 -1094 -84 -0.79561913 -0.22481109 0.56253904 0.090603687
2637 -1070 -130 -0.95904112 -0.22539502 0.17157292 0.12793078
2631 -1037 -114 -0.91788089 0.047065124 0.39405525 0.15044867
2612 -1003 -159 -0.98942178 0.13644837 -0.049257942 0.08519683
2619 -1053 -114 -0.95574397 -0.19573204 0.21964139 0.081279024
2604 -1041 -160 -0.98591149 -0.14841036 -0.077155672 0.0835687
2613 -1024 -160 -0.99839771 0.018644566 -0.053426962 0.090303041
2619 -1073 -114 -0.9490481 -0.27126694 0.16038072 0.066699676
2632 -1007 -213 -0.90974057 -0.077368006 -0.40790474 0.12595181
2626 -1043 -166 -0.9811033 -0.17072755 -0.091041513 0.10444623
2619 -1058 -165 -0.8913185 -0.42107686 -0.16806456 0.10071941
2633 -1027 -167 -0.99367183 0.10812001 -0.030434962 0.14275642
2631 -989 -214 -0.928478 0.09045215 -0.3602041 0.12558438
2634 -1009 -167 -0.82363659 0.54040509 0.17200321 0.18843189
2630 -1080 -89 -0.88419008 -0.17292771 0.43394002 0.084205642
2605 -1025 -135 -0.99618942 -0.049960338 0.071489006 0.070924252
2627 -1059 -89 -0.8850795 -0.065302573 0.46083605 0.096133798
2612 -1047 -135 -0.97605866 -0.19547111 0.095397346 0.068739861
2627 -1100 -89 -0.88171911 -0.26227871 0.39214951 0.10041038
2622 -973 -218 -0.89776504 0.33990747 -0.28014445 0.10648435
2637 -1000 -221 -0.86058974 -0.12936029 -0.49259636 0.1262079
2640 -1081 -96 -0.85550499 -0.080303021 0.51152974 0.099754758
2638 -1098 -97 -0.8443442 -0.4230881 0.32875419 0.11764901
2622 -1010 -156 -0.98940098 0.14352694 -0.022040179 0.11217011
2642 -1098 -111 -0.85403645 -0.51806432 0.04723474 0.11658236
2619 -1005 -204 -0.96447217 0.034145117 -0.26196826 0.086405836
2617 -1026 -156 -0.99906111 -0.013042693 -0.041314088 0.088122427
2628 -1056 -112 -0.95120925 -0.1257467 0.28176016 0.1194286
2636 -1077 -111 -0.94172615 -0.14859083 0.30178234 0.11790705
2611 -1020 -203 -0.97578847 -0.018896475 -0.21789847 0.0834084
2621 -1046 -156 -0.98659509 -0.16189651 -0.020482594 0.089246646
2650 -1089 -87 -0.7480523 -0.081837445 0.65857452 0.11705358
2613 -1018 -175 -0.9895516 0.051681679 -0.13459778 0.085286275
2613 -1024 -128 -0.98852885 -0.029014336 0.14821908 0.082891747
2644 -1066 -86 -0.59419316 0.27730814 0.75500637 0.12808277
2621 -981 -174 -0.97969174 0.17495854 -0.097946569 0.086423419
2613 -998 -175 -0.98339355 0.14640912 -0.10724472 0.076733328
2614 -1045 -129 -0.97381812 -0.20254061 0.10322565 0.065995678
2629 -1086 -108 -0.94251227 -0.24914573 0.22270416 0.083539627
2621 -1064 -107 -0.94965392 -0.18715242 0.25125951 0.08406096
2617 -1043 -107 -0.95360106 -0.16639641 0.25091273 0.082258932
2642 -1061 -106 -0.50117779 0.40279683 0.76588225 0.17372571
2646 -1082 -107 -0.88088197 0.023715854 0.47274157 0.17348121
2638 -1077 -104 -0.92403907 -0.12927154 0.3597787 0.12524098
2630 -1036 -103 -0.79182005 0.23020051 0.5657109 0.1489379
2638 -1058 -104 -0.72502327 0.23513469 0.64734304 0.16093263
2616 -1010 -167 -0.99341124 0.057291579 -0.09925624 0.098312475
2628 -1045 -121 -0.94616938 -0.046609197 0.32029852 0.12510139
2654 -1082 -77 -0.63514912 0.2446565 0.7326178 0.10005542
2630 -1067 -122 -0.9535597 -0.18165526 0.24026085 0.10454269
2628 -988 -211 -0.92675477 0.085899048 -0.36571419 0.12154102
2611 -1029 -167 -0.99389207 -0.0367378 -0.10406185 0.085041203
2650 -1102 -78 -0.75945222 -0.22653258 0.6098485 0.098486163
2616 -989 -166 -0.97722077 0.19921692 -0.073159009 0.092902228
2621 -967 -210 -0.87590086 0.44659621 -0.18261832 0.09860377
2617 -1028 -120 -0.97455996 -0.085570976 0.20714824 0.091010824
2632 -1073 -121 -0.95652103 -0.21514542 0.19692612 0.10134964
2652 -1087 -74 -0.67947924 0.11047606 0.72532958 0.098865092
2626 -1051 -120 -0.95091772 -0.11161449 0.28861338 0.11675343
2627 -1096 -83 -0.86732578 -0.19200355 0.45921734 0.1005096
2630 -1057 -83 -0.81447458 0.012339666 0.58006805 0.10242794
2631 -1077 -83 -0.84478605 -0.13237703 0.51847166 0.078726687
2628 -1011 -152 -0.98705238 0.15969603 0.01499103 0.13003014
2626 -1009 -198 -0.95288318 -0.044247959 -0.30009291 0.10811426
2629 -1029 -152 -0.99923337 -0.031373966 -0.023415232 0.13423812
2615 -1022 -197 -0.98281127 0.0023891106 -0.18459769 0.078449272
2625 -990 -198 -0.94994724 0.26281357 -0.16890623 0.11414573
2648 -976 -248 -0.65223771 -0.11164025 -0.74974829 0.18163878
2645 -992 -248 -0.73214924 -0.24853346 -0.63418347 0.1718905
2626 -1047 -151 -0.98691416 -0.16117442 -0.0048150457 0.086252697
2622 -1022 -176 -0.98927379 0.073912613 -0.12599291 0.1007174
2634 -991 -178 -0.94444215 0.32684606 -0.034650438 0.14636172
2641 -975 -225 -0.84188837 -0.095924884 -0.53105783 0.15277556
2628 -987 -224 -0.90272826 0.047135081 -0.42762133 0.12919717
2635 -1009 -178 -0.90163517 0.41622016 0.1175366 0.17619067
2619 -1039 -176 -0.99072397 -0.053908791 -0.12473913 0.088519402
2621 -981 -208 -0.91547513 0.34767011 -0.20256048 0.10568789
2627 -1058 -120 -0.95121884 -0.15913874 0.26430574 0.11363497
2647 -1073 -76 -0.65499645 0.16664852 0.73702639 0.10431063
2660 -1099 -77 -0.74187875 -0.34124041 0.57720959 0.11869972
2615 -1033 -119 -0.97435546 -0.14206576 0.17449582 0.078246079
2613 -1024 -163 -0.99670225 0.030411849 -0.075231522 0.083351597
2632 -968 -208 -0.8791728 0.44421563 -0.17241737 0.12491037
2619 -1047 -164 -0.97859317 -0.18674463 -0.086498059 0.087181397
2621 -1006 -162 -0.9947232 0.064178087 -0.080043495 0.097046219
2629 -1073 -105 -0.93570793 -0.21927014 0.27635366 0.090763621
2617 -1029 -104 -0.96254092 -0.17798918 0.20453593 0.10447552
2625 -1052 -104 -0.94218695 -0.11411145 0.3150593 0.10852973
2628 -984 -206 -0.94151276 0.10406448 -0.32050624 0.12996311
2620 -999 -205 -0.95425886 0.062696308 -0.29233396 0.10590459
2617 -1001 -160 -0.99026769 0.13126333 -0.046258036 0.096021965
2625 -967 -206 -0.83729488 0.53159457 -0.12784559 0.1089196
2617 -1018 -159 -0.99718314 0.044618737 -0.060290389 0.088547841
2614 -1035 -158 -0.99059242 -0.12428248 -0.057275239 0.08092469
2634 -1085 -111 -0.93302113 -0.3120268 0.17919509 0.09832599
2630 -1048 -112 -0.94635016 -0.073010027 0.31478691 0.12663254
2636 -1068 -111 -0.93499374 -0.10138901 0.33986315 0.13605127
2660 -1081 -66 -0.50737405 0.37225625 0.77717233 0.091343313
2612 -1021 -134 -0.99450356 -0.019668797 0.10283904 0.087513469
2628 -1094 -88 -0.87024361 -0.20280574 0.44893867 0.095143944
2608 -1040 -134 -0.97880137 -0.18695293 0.083644211 0.071773924
2630 -1075 -88 -0.87112671 -0.13161209 0.47309256 0.095237739
2628 -1054 -88 -0.83661228 0.034240976 0.54672426 0.11383062
2623 -1082 -105 -0.94343102 -0.26081491 0.20472765 0.077520311
2623 -1044 -104 -0.92688131 -0.07732071 0.36730438 0.11298858
2630 -1065 -104 -0.92904514 -0.14736947 0.33934855 0.11214015
2631 -1087 -91 -0.87696719 -0.22068849 0.4268783 0.08432778
2633 -1051 -89 -0.77970111 0.12078857 0.61439103 0.12428882
2635 -1070 -90 -0.84336734 -0.040494964 0.53580934 0.11834922
2628 -1062 -103 -0.93394291 -0.14434716 0.32697797 0.10916075
2625 -1080 -104 -0.94126987 -0.2559723 0.22020267 0.081914894
2623 -1041 -102 -0.91944444 -0.060750078 0.38849878 0.11727037
2622 -984 -189 -0.95715231 0.27619138 -0.087050125 0.09478315
2628 -1049 -99 -0.8752439 0.020470016 0.48324859 0.1171506
2647 -990 -239 -0.65588897 -0.31018609 -0.68818182 0.17249854
2648 -976 -239 -0.62983149 -0.19400525 -0.75211322 0.17836837
2621 -1000 -189 -0.98262799 0.11330754 -0.14698185 0.09320087
2650 -963 -239 -0.68504941 0.26113808 -0.68008399 0.15581737
2607 -1013 -187 -0.98667336 0.059782863 -0.15133293 0.076315254
2631 -1086 -97 -0.91020972 -0.19912882 0.36313352 0.089752048
2618 -1023 -144 -0.99865305 -0.049645357 0.015080871 0.085015573
2629 -1068 -98 -0.91667777 -0.14422433 0.37269461 0.10722607
2617 -1041 -143 -0.98453575 -0.17129877 0.036688898 0.074060634
2612 -1004 -144 -0.98420995 0.17597292 0.019090192 0.095970452
2615 -1035 -120 -0.97416133 -0.15358731 0.16559172 0.07470569
2638 -1069 -73 -0.74485815 0.038773116 0.66609532 0.080418728
2616 -1054 -120 -0.96344668 -0.19893813 0.17942739 0.072219983
2646 -1091 -73 -0.719118 0.081636108 0.69007599 0.095564015
2635 -991 -211 -0.93995023 0.073266774 -0.33335501 0.12779795
2625 -1006 -210 -0.93360692 -0.04123424 -0.35591847 0.11061721
2629 -1006 -178 -0.98829263 0.12437177 -0.088370465 0.12047635
2625 -1060 -130 -0.96004212 -0.2381185 0.14703295 0.08346317
2622 -1023 -131 -0.99212158 -0.057893366 0.11109933 0.10298467
2622 -1039 -176 -0.98330861 -0.1031152 -0.1499044 0.094455265
2633 -1002 -226 -0.83808506 -0.1370108 -0.52805448 0.12156912
2626 -1022 -177 -0.99166638 0.083577082 -0.098044731 0.10545037
2632 -967 -216 -0.91085744 0.3113057 -0.27097499 0.12114971
2633 -989 -218 -0.9076367 0.0018333846 -0.41975248 0.13225737
2628 -1050 -95 -0.83782572 0.062162329 0.54238719 0.1184025
2633 -1090 -97 -0.90100044 -0.23956031 0.36167532 0.086080909
2632 -1071 -96 -0.90767998 -0.14720374 0.39299878 0.10948598
2641 -1102 -74 -0.75014424 0.14679381 0.64477527 0.13363814
2611 -1044 -120 -0.97002769 -0.18610033 0.15624657 0.067496277
2637 -1080 -74 -0.77758884 -0.058777053 0.62601995 0.076746866
2626 -1070 -121 -0.95457017 -0.22831169 0.19149297 0.079558797
2624 -1029 -120 -0.96508449 -0.035451952 0.25952852 0.12708968
2609 -1047 -146 -0.97933924 -0.20199622 0.0096019227 0.062564336
2649 -968 -244 -0.62622881 0.024467193 -0.77925533 0.1773245
2615 -1013 -147 -0.99703181 0.075525254 -0.014953478 0.096493244
2608 -1027 -192 -0.98332417 0.019218825 -0.18084297 0.092954367
2609 -991 -193 -0.97623587 0.17610554 -0.1262944 0.064593598
2615 -1031 -147 -0.99408311 -0.10845143 0.0060969158 0.083534434
2638 -979 -243 -0.76074266 -0.13544108 -0.63476485 0.14239357
2608 -1009 -193 -0.98516172 0.077446423 -0.1531612 0.076174349
2633 -1045 -119 -0.93278742 -0.010581158 0.36027163 0.14924945
2635 -1066 -119 -0.96050274 -0.14383943 0.23821148 0.12049107
2647 -1096 -71 -0.67419487 0.18747227 0.71436363 0.11741214
2617 -1020 -118 -0.98457479 -0.062086277 0.16357824 0.097233936
2649 -1077 -72 -0.61656523 0.23425615 0.7516458 0.094747186
2621 -1048 -173 -0.95414823 -0.25505137 -0.15668447 0.10615513
2628 -999 -219 -0.90398806 -0.023084268 -0.42693415 0.12029615
2617 -1025 -172 -0.99275547 0.029320674 -0.11651959 0.08302433
2641 -983 -218 -0.8770076 -0.048432115 -0.47802931 0.14370255
2626 -1055 -128 -0.95796257 -0.21472843 0.19026141 0.10406725
2620 -1031 -126 -0.97943062 -0.12731233 0.15654774 0.081787482
2625 -1007 -171 -0.99259031 0.026458932 -0.11859363 0.10167693
