# .PCD v0.7 - Point Cloud Data file format
VERSION 0.7
FIELDS x y z normal_x normal_y normal_z curvature
SIZE 4 4 4 4 4 4 4
TYPE F F F F F F F
COUNT 1 1 1 1 1 1 1
WIDTH 415
HEIGHT 1
VIEWPOINT 0 0 0 1 0 0 0
POINTS 415
DATA ascii
2530 -1799 185 -0.92064828 0.38695559 -0.051692225 0.078843474
2527 -1808 190 -0.94482356 0.32404447 -0.047996148 0.078019157
2523 -1826 201 -0.99087965 0.13469574 0.0038206414 0.080286436
2528 -1819 196 -0.97895432 0.2040116 -0.0052632471 0.081538908
2551 -1803 181 -0.8632558 0.48540631 -0.13845591 0.12412687
2524 -1837 207 -0.99925435 -0.016460016 0.034924503 0.077106193
2525 -1847 212 -0.99079299 -0.10174198 0.089318477 0.082683839
2544 -1872 173 -0.9474414 -0.26186129 0.18380287 0.12165921
2557 -1889 180 -0.88011903 -0.47244665 0.046740793 0.14521611
2553 -1906 197 -0.8223877 -0.54725534 0.15553157 0.087250099
2573 -1908 187 -0.70303875 -0.70497996 -0.093486607 0.15719835
2539 -1859 167 -0.97208625 -0.18895547 0.13908306 0.11151581
2537 -1850 161 -0.97748405 -0.13235994 0.16433445 0.13155955
2567 -1910 193 -0.7484253 -0.64626753 0.14898969 0.090260431
2533 -1843 175 -0.95511675 -0.087242909 -0.28309119 0.087889761
2538 -1861 165 -0.96670556 -0.17245701 0.18904737 0.11053728
2547 -1896 195 -0.91280192 -0.38857439 0.12570813 0.09834037
2531 -1833 180 -0.97082669 0.038283758 -0.23670638 0.077635519
2537 -1870 211 -0.92966938 -0.35355124 0.10351955 0.075290971
2552 -1886 155 -0.77977282 -0.41527337 0.46851081 0.16915891
2532 -1873 205 -0.93962198 -0.34173325 -0.018133909 0.053554405
2534 -1866 159 -0.87853807 -0.23873132 0.41373688 0.11593022
2542 -1913 154 -0.74974197 -0.3328481 0.57192582 0.097321272
2535 -1881 200 -0.92351413 -0.3835167 0.0060451049 0.066164404
2523 -1818 184 -0.97445607 0.16639864 -0.1508207 0.077367343
2542 -1857 170 -0.99031043 -0.13872474 -0.0063856211 0.11600608
2551 -1896 143 -0.62282777 -0.35175124 0.69882518 0.13567324
2529 -1812 189 -0.9598518 0.26533529 -0.091004394 0.082775317
2559 -1896 150 -0.57309365 -0.53459358 0.62110651 0.19002415
2554 -1776 214 -0.6662693 0.72632021 0.16895051 0.064687595
2542 -1790 204 -0.84904879 0.51093346 0.13439898 0.073223367
2562 -1769 219 -0.57662654 0.79402918 0.19240482 0.071811222
2546 -1781 209 -0.76249045 0.62636238 0.16210654 0.06973955
2533 -1794 199 -0.89363909 0.4422493 0.076319769 0.073946938
2533 -1805 194 -0.92482537 0.38039115 0.00067387574 0.079363458
2549 -1782 229 -0.75269347 0.57692146 0.31719729 0.055656243
2537 -1795 208 -0.87167251 0.45523855 0.18150711 0.065795906
2537 -1790 213 -0.8498069 0.47514659 0.22817524 0.059708416
2528 -1801 185 -0.93011743 0.36518377 -0.039016813 0.078870013
2544 -1790 219 -0.81130987 0.50234276 0.29904515 0.053342365
2526 -1802 180 -0.93957651 0.33615389 -0.06478107 0.084536545
2536 -1798 202 -0.88734764 0.44434753 0.12316462 0.069348663
2549 -1789 224 -0.78176302 0.53752881 0.31608444 0.050263945
2529 -1800 191 -0.91915631 0.39389241 0.00056583277 0.072741382
2531 -1798 197 -0.90716028 0.41524971 0.06802804 0.06906198
2564 -1830 177 -0.56768245 0.11823317 -0.81471318 0.17852248
2567 -1788 236 -0.54225039 0.49356446 0.67996967 0.10857882
2544 -1809 166 -0.93039745 0.25534648 -0.26298034 0.10938244
2536 -1855 162 -0.95992267 -0.17957553 0.21517687 0.10893795
2563 -1797 168 -0.78191262 0.57632506 -0.23761763 0.18643728
2531 -1840 160 -0.99912393 -0.039067868 -0.015002801 0.12503795
2548 -1907 159 -0.76503044 -0.35027376 0.54040426 0.13071418
2540 -1793 163 -0.86263067 0.45128378 -0.22849792 0.11630066
2551 -1882 160 -0.81059361 -0.41925192 0.40885937 0.1750928
2531 -1813 161 -0.95471293 0.17712511 -0.23906048 0.095823586
2560 -1781 165 -0.63191152 0.76788706 -0.10505882 0.12320932
2554 -1785 147 -0.70604235 0.64083934 -0.30137873 0.11387749
2562 -1777 158 -0.64288491 0.75838172 -0.10749935 0.11280701
2558 -1781 152 -0.65305763 0.74160606 -0.15341541 0.12365916
2570 -1775 163 -0.53521711 0.84354132 -0.04450465 0.12982698
2529 -1838 191 -0.99434501 -0.026283799 -0.10289384 0.081274264
2545 -1810 172 -0.93235642 0.29780149 -0.20500213 0.11338908
2534 -1836 197 -0.99870163 -0.0016698268 -0.050913196 0.087408394
2531 -1843 186 -0.9771542 -0.10086714 -0.18707091 0.079768173
2533 -1851 175 -0.98213118 -0.13190126 -0.13423999 0.089616664
2538 -1812 167 -0.95646775 0.22427425 -0.18673624 0.095228083
2530 -1813 161 -0.95622849 0.17371038 -0.23548198 0.097938791
2547 -1795 183 -0.86080605 0.50721228 -0.041815769 0.10043947
2524 -1815 156 -0.95841277 0.10992076 -0.26336756 0.10866459
2553 -1791 188 -0.7843802 0.61645836 -0.068752386 0.10704707
2546 -1803 177 -0.91153109 0.39916041 -0.098903969 0.10725329
2533 -1848 181 -0.96582699 -0.15550344 -0.20735709 0.07662119
2562 -1898 192 -0.85544986 -0.50760436 0.10268126 0.11342914
2541 -1828 193 -0.98866701 0.11466212 -0.096902385 0.099070087
2545 -1858 192 -0.95809746 -0.25862762 -0.12312982 0.085719883
2535 -1870 196 -0.94241494 -0.32631701 -0.073288925 0.058273926
2529 -1803 182 -0.93619484 0.34178662 -0.08198157 0.085282788
2545 -1897 201 -0.88691819 -0.43247223 0.16230838 0.078333259
2555 -1896 149 -0.64594126 -0.43533233 0.62709308 0.16871311
2529 -1844 191 -0.98442978 -0.11409076 -0.13372087 0.082067721
2546 -1793 179 -0.83543032 0.54583251 -0.064211071 0.10313868
2526 -1821 186 -0.97718543 0.15045506 -0.14990613 0.081396528
2551 -1886 190 -0.92251652 -0.37402105 0.095244899 0.08853285
2532 -1815 189 -0.96851379 0.22845413 -0.098942727 0.087569572
2536 -1846 189 -0.97612399 -0.14949298 -0.15758723 0.091581695
2546 -1796 190 -0.86793369 0.49663156 -0.0069437586 0.092078477
2553 -1773 190 -0.6305176 0.7755903 -0.030120445 0.067892894
2545 -1868 176 -0.96221817 -0.25256684 0.10171597 0.10774911
2536 -1835 177 -0.95360523 -0.0032129579 -0.30104271 0.088590652
2546 -1791 180 -0.83136642 0.55246723 -0.060083065 0.10481489
2557 -1773 182 -0.60815102 0.78973013 -0.080489963 0.086565897
2539 -1812 178 -0.94858485 0.27095702 -0.16361256 0.085185707
2547 -1791 180 -0.82676053 0.55947113 -0.058813348 0.10232519
2553 -1785 191 -0.7540291 0.65648973 -0.021475246 0.090929754
2559 -1783 196 -0.66185188 0.74801606 -0.04923461 0.094931729
2561 -1777 201 -0.60877949 0.79295307 0.024756854 0.077226475
2545 -1794 175 -0.85471284 0.51025438 -0.095427468 0.11130137
2554 -1791 186 -0.78421474 0.6170395 -0.065341972 0.10852604
2566 -1774 207 -0.56070107 0.82538748 0.065953255 0.073055848
2541 -1795 169 -0.88010132 0.45091802 -0.14864244 0.11354524
2541 -1806 219 -0.8815251 0.39361519 0.26073107 0.064354807
2554 -1788 221 -0.74641156 0.57615316 0.33304244 0.076565869
2531 -1827 218 -0.95556742 0.12293091 0.26791599 0.075346187
2549 -1874 164 -0.91301811 -0.31175154 0.26307622 0.1609211
2533 -1835 215 -0.97962195 0.045316994 0.19567157 0.085828856
2556 -1882 163 -0.79262704 -0.49687013 0.35335875 0.1959029
2563 -1915 162 -0.58284974 -0.58702767 0.5618583 0.18916997
2531 -1808 181 -0.94220078 0.31221992 -0.1215586 0.08121115
2535 -1832 186 -0.98364419 0.031659156 -0.1773183 0.093879171
2547 -1884 196 -0.9042412 -0.42036122 0.075128742 0.091247894
2552 -1802 178 -0.86711413 0.47704539 -0.1433209 0.13176548
2540 -1857 190 -0.95623279 -0.24459894 -0.16059335 0.079318687
2555 -1877 170 -0.94227523 -0.31827211 0.10402062 0.17511813
2532 -1821 180 -0.96892583 0.15189916 -0.19521634 0.079728246
2563 -1815 182 -0.83871055 0.35795563 -0.41040501 0.18033719
2565 -1782 237 -0.55114394 0.55754644 0.62079167 0.10404806
2536 -1851 179 -0.96231723 -0.17408112 -0.20890519 0.087964982
2542 -1839 225 -0.87170309 -0.018609984 0.48968104 0.10189532
2528 -1823 183 -0.97556406 0.12682503 -0.17941637 0.082653426
2533 -1826 190 -0.9864229 0.129289 -0.10126317 0.089444272
2541 -1825 179 -0.96840751 0.10706651 -0.22521901 0.093777791
2535 -1824 185 -0.97260368 0.15357551 -0.17451799 0.080485344
2533 -1822 194 -0.98356533 0.17167848 -0.055908348 0.088496156
2534 -1833 208 -0.99483329 0.059831023 0.082018115 0.097083904
2550 -1841 173 -0.92023981 -0.079501033 -0.3831948 0.1135869
2527 -1829 218 -0.96640313 0.098441422 0.23743278 0.072053745
2534 -1829 178 -0.9665373 0.058421258 -0.24978492 0.087492362
2557 -1832 175 -0.79923052 0.030196985 -0.60026562 0.15950103
2536 -1831 196 -0.99424261 0.068192296 -0.082652077 0.08943972
2532 -1830 202 -0.99531567 0.096487269 -0.0060765846 0.094908945
2534 -1834 213 -0.98510832 0.05674376 0.16230132 0.095883913
2532 -1824 189 -0.9829815 0.14098357 -0.11777515 0.084055752
2555 -1776 193 -0.63745379 0.77016455 -0.022343446 0.08031714
2542 -1782 182 -0.80969185 0.58658916 -0.017669398 0.084081963
2537 -1821 200 -0.98092365 0.19335456 0.020071771 0.096515991
2564 -1805 178 -0.79217285 0.54680485 -0.27104744 0.16419604
2542 -1812 216 -0.891922 0.35848817 0.27561101 0.076993167
2551 -1781 188 -0.73437417 0.67754179 -0.040395137 0.094619252
2539 -1819 206 -0.97022849 0.22753808 0.082964547 0.096647039
2546 -1809 222 -0.86162221 0.38906887 0.32593328 0.06596484
2566 -1775 198 -0.55952442 0.82878751 -0.0066064107 0.078249417
2542 -1816 211 -0.94645894 0.28123921 0.15849252 0.090929523
2563 -1774 186 -0.55885571 0.82232434 -0.10706578 0.088052817
2537 -1824 199 -0.98670596 0.16222382 0.0097343139 0.095920563
2538 -1852 164 -0.99737531 -0.06844525 0.023617052 0.12657748
2559 -1915 194 -0.74467206 -0.66030514 0.097265638 0.082746655
2552 -1883 176 -0.91097927 -0.39856479 0.10612639 0.13551955
2545 -1792 184 -0.85485482 0.51869416 -0.013396279 0.095518529
2567 -1912 189 -0.75081122 -0.6599381 0.02764765 0.10888045
2539 -1800 189 -0.90415972 0.4257811 -0.03472133 0.086501159
2536 -1811 194 -0.94781041 0.31883448 9.990931e-05 0.084005088
2526 -1839 209 -0.99688941 -0.045561042 0.064310066 0.077541083
2534 -1833 204 -0.99811381 0.041266058 0.04545356 0.095783763
2562 -1900 183 -0.83326566 -0.5528248 0.0072848424 0.13256072
2528 -1852 215 -0.97927678 -0.15353966 0.13207041 0.083350658
2543 -1866 170 -0.97144413 -0.20525393 0.11902545 0.11703631
2524 -1826 216 -0.96778077 0.12111821 0.22075064 0.074579783
2529 -1819 221 -0.92740321 0.2277329 0.29675078 0.058966555
2550 -1892 193 -0.90931326 -0.39530158 0.12994641 0.098072983
2523 -1845 206 -0.99626929 -0.085820511 0.0090824766 0.070887327
2542 -1877 197 -0.92772514 -0.37312713 -0.010110691 0.069252223
2522 -1835 211 -0.99538779 0.023218868 0.093080275 0.0707573
2538 -1865 202 -0.95030606 -0.30392644 -0.067432113 0.066930436
2546 -1819 227 -0.85919946 0.27606776 0.43077022 0.0696842
2561 -1814 178 -0.81111783 0.37908563 -0.44540086 0.15066946
2545 -1790 181 -0.8432889 0.53709853 -0.019721322 0.097499251
2548 -1780 186 -0.7642954 0.6446206 -0.017797995 0.086204186
2549 -1872 172 -0.94621837 -0.29273352 0.13776065 0.14325164
2550 -1784 224 -0.75848371 0.5729093 0.31060815 0.050119661
2532 -1828 223 -0.93781179 0.123811 0.32431462 0.072444804
2565 -1767 226 -0.53764361 0.8051995 0.25018618 0.081262559
2547 -1810 224 -0.85956556 0.37438297 0.34782812 0.060711939
2541 -1824 199 -0.98429108 0.17454799 0.026533388 0.095976926
2559 -1784 179 -0.67528147 0.73115897 -0.096961439 0.11536989
2547 -1803 189 -0.8946268 0.44528046 -0.036989618 0.098126553
2549 -1790 184 -0.79730809 0.59990263 -0.066457734 0.10497446
2541 -1811 193 -0.94385237 0.32961461 -0.022293134 0.092298724
2537 -1834 204 -0.99884915 0.043138061 0.020963708 0.094068266
2543 -1843 158 -0.98527569 -0.001436479 -0.17096758 0.13483657
2544 -1864 170 -0.97675049 -0.19541073 0.088166215 0.11956529
2527 -1834 204 -0.99955297 0.028742744 0.0082211038 0.081991307
2546 -1895 200 -0.88343203 -0.43367782 0.17740181 0.086135179
2538 -1853 164 -0.99647933 -0.076685958 0.033886105 0.12634301
2524 -1849 215 -0.98218471 -0.11614861 0.14772519 0.086554222
2524 -1841 209 -0.9979828 -0.053943064 0.033474855 0.078011967
2533 -1830 199 -0.99655145 0.073929317 -0.03767968 0.089196362
2557 -1900 151 -0.59353471 -0.53379428 0.60231239 0.19551106
2539 -1804 183 -0.92384255 0.37713116 -0.065475255 0.077425458
2546 -1874 176 -0.94131649 -0.30039665 0.15389968 0.11201497
2537 -1813 188 -0.95966983 0.26697913 -0.088067733 0.088972151
2535 -1821 193 -0.98207259 0.17797101 -0.062126849 0.088194653
2550 -1888 188 -0.9266665 -0.35952622 0.10968192 0.10475992
2546 -1880 182 -0.93247068 -0.33435303 0.13677171 0.097746104
2553 -1896 194 -0.89431387 -0.41709262 0.16197655 0.10498296
2531 -1828 208 -0.98772293 0.12029874 0.099657342 0.090752408
2544 -1809 209 -0.8960284 0.4063839 0.17884408 0.079400919
2536 -1860 208 -0.95805013 -0.28371376 0.040576708 0.06736435
2556 -1878 157 -0.76889956 -0.40685153 0.49321929 0.19675864
2559 -1909 157 -0.62643331 -0.5116877 0.58801115 0.17682922
2554 -1788 210 -0.77476215 0.61212736 0.15825213 0.083396077
2532 -1823 212 -0.97586668 0.17179839 0.13479424 0.091118917
2550 -1827 177 -0.92393726 0.094637573 -0.37065306 0.12136479
2535 -1822 223 -0.92311513 0.21585889 0.31821907 0.064005718
2538 -1827 207 -0.98526776 0.15288728 0.076634862 0.099984057
2535 -1821 184 -0.97112566 0.17202097 -0.16529883 0.080063522
2542 -1823 178 -0.96326649 0.14313361 -0.2272232 0.090461485
2535 -1824 217 -0.96571821 0.15810174 0.2058934 0.08526694
2535 -1824 195 -0.98573536 0.1567643 -0.061243404 0.090209626
2540 -1829 201 -0.99244559 0.12110619 -0.019624233 0.097928762
2541 -1807 198 -0.9107821 0.40625754 0.073693678 0.091413431
2530 -1810 181 -0.94605362 0.29284659 -0.13864806 0.08576864
2539 -1809 193 -0.93281931 0.36024866 -0.0083113601 0.09242145
2535 -1823 189 -0.9833259 0.15304996 -0.098213471 0.085227109
2532 -1808 187 -0.93850189 0.33285323 -0.09177646 0.081331953
2545 -1799 209 -0.86956888 0.4603377 0.17871508 0.07340131
2547 -1806 204 -0.89534718 0.42397031 0.13639148 0.087646827
2552 -1798 215 -0.83076 0.47892123 0.28367633 0.080625974
2553 -1792 220 -0.77790076 0.52634853 0.3432602 0.079352394
2562 -1783 230 -0.62389141 0.62505734 0.46910849 0.10119823
2557 -1788 225 -0.70611864 0.58687979 0.39619246 0.080793917
2547 -1791 200 -0.83123183 0.5474956 0.096447803 0.075271457
2539 -1798 184 -0.90810734 0.41781682 -0.027751096 0.079581901
2558 -1788 212 -0.72460687 0.65906537 0.20143925 0.093307041
2554 -1812 180 -0.89984399 0.36725795 -0.23537704 0.12550534
2552 -1789 206 -0.80845541 0.57181364 0.13938817 0.084271669
2548 -1796 195 -0.84860468 0.52779251 0.036127489 0.090298273
2569 -1782 223 -0.57241428 0.70703816 0.41525781 0.10699134
2568 -1788 217 -0.63600904 0.7043432 0.31526667 0.11769605
2542 -1796 190 -0.87991834 0.4750573 0.0080185244 0.084867455
2549 -1912 162 -0.73139745 -0.41861406 0.53834939 0.13724816
2539 -1814 218 -0.90585911 0.35270229 0.23456398 0.069622643
2529 -1835 217 -0.97648209 0.031299032 0.21331446 0.082653314
2563 -1893 164 -0.73824459 -0.6541301 0.16464733 0.22280881
2551 -1795 219 -0.82008404 0.48098588 0.31002399 0.076282233
2571 -1782 221 -0.55959421 0.72514784 0.40126652 0.10208589
2542 -1805 217 -0.87911099 0.41142148 0.24061646 0.067059048
2557 -1787 219 -0.70872128 0.61972457 0.33712843 0.088653751
2531 -1856 217 -0.96237189 -0.22128569 0.15771167 0.0841887
2527 -1823 217 -0.9529646 0.17690229 0.24609764 0.068598762
2554 -1779 184 -0.66851711 0.74018204 -0.072217546 0.092712723
2534 -1793 183 -0.90286213 0.42988434 -0.0062714382 0.083641142
2541 -1857 183 -0.96638352 -0.19730057 -0.16484922 0.087018557
2539 -1826 183 -0.9707092 0.12117489 -0.20746163 0.09105733
2532 -1837 211 -0.99386543 0.016323419 0.10938497 0.090881422
2538 -1814 212 -0.92502916 0.33436754 0.18033132 0.08022771
2553 -1798 214 -0.83060861 0.49243945 0.25998583 0.084068917
2560 -1888 159 -0.71145707 -0.54780763 0.44015417 0.21978357
2535 -1865 210 -0.94293857 -0.3272346 0.061516847 0.067789584
2567 -1782 216 -0.61888331 0.75080866 0.23080264 0.092644013
2557 -1884 175 -0.90283203 -0.42317089 0.076294184 0.17973323
2544 -1844 229 -0.77757585 -0.12671782 0.61588836 0.10729846
2545 -1846 174 -0.92294115 -0.10669338 -0.36985955 0.10750235
2553 -1792 229 -0.74257046 0.51123136 0.43270263 0.06490308
2555 -1898 196 -0.876562 -0.44531855 0.18256609 0.10824129
2530 -1822 194 -0.98448533 0.16927709 -0.046194028 0.0810064
2541 -1859 195 -0.95772457 -0.27144089 -0.095307373 0.075793467
2538 -1799 195 -0.89639854 0.44223875 0.029910257 0.081706248
2553 -1782 196 -0.71801478 0.6960277 0.00052257883 0.082234852
2548 -1853 161 -0.98370808 -0.15396452 0.092807546 0.1497785
2537 -1850 213 -0.97765601 -0.16557139 0.12951809 0.10272729
2536 -1848 166 -0.99454623 -0.049790572 -0.09164492 0.12202717
2538 -1810 173 -0.95210135 0.2618809 -0.15786512 0.090287514
2536 -1835 195 -0.9953565 0.014720094 -0.095125161 0.090120897
2558 -1816 169 -0.79806393 0.26923597 -0.53907877 0.14938504
2536 -1844 207 -0.99523968 -0.093979821 0.025802189 0.10372923
2547 -1861 178 -0.96804452 -0.21681993 -0.12601161 0.1040879
2539 -1852 172 -0.98254985 -0.087622412 -0.1640677 0.11244232
2537 -1823 184 -0.96918935 0.15946358 -0.18773189 0.085251026
2534 -1838 201 -0.99957794 -0.01181222 -0.026541699 0.089353614
2536 -1829 190 -0.9874863 0.097728081 -0.12377372 0.095308073
2536 -1816 178 -0.96242446 0.20229031 -0.18115699 0.081717551
2540 -1859 190 -0.95083892 -0.26091191 -0.16682404 0.077954896
2542 -1816 206 -0.94933778 0.29271179 0.11435741 0.099959768
2551 -1859 158 -0.70521575 -0.41718239 0.57326221 0.1755645
2565 -1814 166 -0.58042198 0.21238577 -0.78613138 0.17967516
2536 -1834 184 -0.97614002 0.017862173 -0.21640612 0.090749547
2532 -1838 173 -0.94876266 -0.028046072 -0.31474242 0.084960051
2537 -1847 163 -0.99820542 -0.017090376 -0.057392128 0.13039541
2531 -1851 206 -0.98489946 -0.16839303 0.040210284 0.079684749
2530 -1839 168 -0.95185667 -0.063542396 -0.29988554 0.092552833
2535 -1837 179 -0.96228403 -0.023392925 -0.2710391 0.090295605
2546 -1812 212 -0.89551669 0.37741333 0.23581557 0.095910303
2538 -1858 195 -0.9602946 -0.25076017 -0.12228512 0.076269075
2539 -1859 201 -0.95838761 -0.27766246 -0.066307291 0.082298011
2536 -1823 195 -0.98362547 0.17044365 -0.058565021 0.088660896
2537 -1829 190 -0.9877243 0.093543239 -0.12510143 0.092810616
2541 -1858 184 -0.96548629 -0.22443898 -0.13214928 0.084770575
2540 -1821 201 -0.97714579 0.2085202 0.041296277 0.096297972
2545 -1792 170 -0.84869695 0.50612229 -0.15347226 0.11364304
2566 -1780 186 -0.56812268 0.8141799 -0.11978234 0.0909907
2552 -1780 180 -0.69359833 0.71526676 -0.08552666 0.10649784
2549 -1787 175 -0.77990538 0.62219065 -0.068017893 0.11603659
2554 -1915 159 -0.69440925 -0.44239739 0.56752115 0.15276167
2544 -1883 154 -0.74770039 -0.42047119 0.51395339 0.14353438
2554 -1807 174 -0.88125199 0.42152357 -0.21380557 0.14673629
2547 -1830 190 -0.98944831 0.057020765 -0.13319422 0.11756954
2558 -1800 169 -0.828381 0.5184921 -0.21201612 0.15977643
2567 -1784 158 -0.57277793 0.81642848 -0.073280565 0.13820662
2559 -1790 163 -0.70824003 0.67859161 -0.19470367 0.1592149
2546 -1811 179 -0.93380779 0.31675723 -0.16633669 0.10165219
2545 -1819 184 -0.96866709 0.20774996 -0.13610291 0.10033212
2573 -1776 154 -0.52136081 0.84843105 -0.091365166 0.12326912
2547 -1875 140 -0.74251729 -0.28516802 0.60609186 0.14923103
2576 -1903 183 -0.6880095 -0.71244287 -0.13808751 0.20499997
2555 -1886 187 -0.92729998 -0.37076533 0.051457237 0.097921766
2546 -1860 166 -0.97208261 -0.20551255 0.11322519 0.14068452
2561 -1881 179 -0.93259567 -0.34705022 -0.099103391 0.17348075
2544 -1852 160 -0.97418201 -0.14479074 0.17321967 0.13047652
2563 -1891 191 -0.84431326 -0.53025955 0.077200465 0.14402576
2560 -1885 184 -0.90586579 -0.42252493 -0.029662568 0.16008335
2554 -1871 172 -0.96489227 -0.25859931 0.045928549 0.15335163
2545 -1846 154 -0.91401976 -0.19527221 0.35557941 0.13733526
2564 -1892 153 -0.57428467 -0.71886069 0.39170957 0.23298444
2549 -1879 146 -0.66687381 -0.39627028 0.63106984 0.16413477
2568 -1903 191 -0.79125649 -0.61047453 0.035130516 0.15675361
2536 -1825 190 -0.98571342 0.13695738 -0.098038942 0.08752422
2549 -1779 192 -0.74308717 0.66919464 -3.6461224e-05 0.078413956
2543 -1857 190 -0.95428962 -0.23571223 -0.18376923 0.080236338
2536 -1797 191 -0.89859885 0.4386861 -0.0086378185 0.079203121
2564 -1791 194 -0.71282834 0.69944388 -0.051517662 0.10287145
2566 -1906 193 -0.77987927 -0.59690869 0.18838349 0.10120942
2541 -1859 192 -0.95467371 -0.25863662 -0.14732698 0.077404298
2537 -1800 192 -0.91093028 0.41255426 -0.0022300461 0.083031394
2536 -1827 192 -0.98915082 0.11714686 -0.08864107 0.088560164
2540 -1805 195 -0.91212082 0.40919104 0.024459546 0.090041928
2542 -1804 201 -0.90044469 0.42733166 0.081160031 0.093042694
2552 -1820 180 -0.92942929 0.20628469 -0.30595401 0.1221116
2552 -1798 218 -0.82586586 0.45411626 0.33425155 0.072834685
2531 -1804 184 -0.92966503 0.3622447 -0.06709604 0.081020668
2568 -1792 234 -0.52793521 0.48519656 0.69704276 0.11311109
2556 -1795 223 -0.77208263 0.51446491 0.37311423 0.083557852
2568 -1785 239 -0.50794125 0.44456059 0.73780859 0.092444047
2546 -1803 207 -0.88487786 0.44348931 0.14250733 0.082772821
2557 -1791 228 -0.71007055 0.55192709 0.43723705 0.080096848
2548 -1800 212 -0.86265284 0.4573181 0.21607922 0.074785419
2532 -1803 190 -0.92235607 0.38461882 -0.036437772 0.07950151
2526 -1843 186 -0.98323882 -0.084651142 -0.16147965 0.076660201
2528 -1823 181 -0.9731999 0.11430863 -0.1995382 0.080953009
2533 -1805 178 -0.93981326 0.32522702 -0.10477819 0.085269712
2541 -1790 174 -0.86212963 0.50086105 -0.076620564 0.10217739
2544 -1878 191 -0.93335229 -0.35895973 0.0011463531 0.072147831
2544 -1899 196 -0.89423466 -0.42173767 0.14993881 0.079858325
2544 -1855 165 -0.99101019 -0.12169378 0.055581674 0.13516328
2538 -1816 219 -0.91011834 0.33468747 0.2442721 0.070906088
2535 -1842 218 -0.97425342 -0.032225467 0.22314067 0.097115293
2549 -1797 220 -0.83066493 0.45116544 0.32625982 0.072910376
2560 -1777 221 -0.62708414 0.74578738 0.22487028 0.081104659
2541 -1801 190 -0.90040398 0.43464494 -0.018876031 0.08645916
2534 -1799 184 -0.91974086 0.38999146 -0.044535231 0.076575875
2555 -1788 217 -0.75598413 0.6032626 0.25409088 0.080220431
2542 -1799 195 -0.88618702 0.46187329 0.036682468 0.08460737
2547 -1798 201 -0.86672574 0.48360348 0.12212364 0.087971486
2553 -1792 212 -0.80996346 0.5551154 0.18922506 0.082804643
2551 -1796 207 -0.83716518 0.52602601 0.14983734 0.086298853
2529 -1798 178 -0.9319281 0.35777497 -0.05921999 0.08770401
2555 -1819 175 -0.88850862 0.22143255 -0.40189552 0.13954654
2555 -1781 222 -0.68515283 0.66912353 0.28781798 0.073529311
2571 -1786 228 -0.54859734 0.68607509 0.47785139 0.12183908
2548 -1880 155 -0.74699831 -0.41855335 0.51653326 0.1639524
2559 -1776 216 -0.62597275 0.75578576 0.19221351 0.073680915
2531 -1843 214 -0.98781341 -0.071250618 0.13837636 0.088505268
2551 -1867 165 -0.93951768 -0.2762602 0.20245184 0.17094612
2534 -1816 214 -0.93478525 0.29639584 0.19577023 0.072868116
2545 -1795 215 -0.84711397 0.47437307 0.23951647 0.069679126
2569 -1781 219 -0.58022058 0.72773451 0.36571378 0.103007
2561 -1782 213 -0.65235168 0.74498385 0.13941418 0.09482348
2540 -1844 180 -0.9592995 -0.12405428 -0.25368297 0.088659339
2534 -1842 221 -0.9548313 -0.033071503 0.29530218 0.091403969
2538 -1832 192 -0.9915719 0.036918316 -0.12418557 0.095821515
2536 -1826 187 -0.98378325 0.12109488 -0.13231257 0.094477475
2534 -1820 181 -0.97155231 0.17017028 -0.16470614 0.082486391
2534 -1838 191 -0.98926657 -0.029866487 -0.14303702 0.092392534
2535 -1840 209 -0.99672502 -0.021054868 0.078076318 0.094684355
2535 -1840 186 -0.97662383 -0.062274192 -0.20573747 0.092517674
2535 -1834 198 -0.99944115 0.024013598 -0.023253867 0.088849358
2534 -1836 204 -0.99985856 0.012634986 0.011103885 0.093291067
2541 -1844 175 -0.94545895 -0.1052855 -0.30825675 0.087496109
2530 -1838 215 -0.98528171 0.018760281 0.1699056 0.087269053
2569 -1778 217 -0.57401848 0.78653026 0.2277564 0.088783346
2532 -1835 197 -0.99823087 0.020431276 -0.055836391 0.088973664
2559 -1780 212 -0.64000362 0.7587111 0.1214608 0.087274082
2537 -1808 180 -0.93858081 0.32105744 -0.12644432 0.08431223
2534 -1825 219 -0.95343721 0.14226396 0.26592937 0.0782215
2555 -1826 176 -0.86977088 0.10985549 -0.48107213 0.14677021
2533 -1831 208 -0.99372756 0.082698479 0.07527525 0.097565763
2550 -1782 206 -0.75910151 0.63562983 0.14049774 0.073090494
2540 -1797 190 -0.88344508 0.46850985 0.004823409 0.086419389
2543 -1793 196 -0.86925912 0.49176037 0.050600477 0.085621215
2535 -1835 202 -0.99981487 0.013786383 0.013429176 0.090830743
2544 -1786 201 -0.81184924 0.57592577 0.095971346 0.073177978
2531 -1827 213 -0.97693169 0.12677608 0.17184947 0.090941072
2533 -1799 185 -0.91980803 0.3897475 -0.045277029 0.075755358
2540 -1825 224 -0.90506232 0.15250826 0.39699304 0.080133229
2540 -1796 193 -0.87880176 0.47661719 0.023312157 0.08723367
2539 -1852 207 -0.97625303 -0.21630265 -0.011967236 0.098538764
2538 -1814 197 -0.96070778 0.27721453 0.013883306 0.090480693
2549 -1870 160 -0.87643313 -0.2779848 0.39317876 0.16595891
2535 -1831 202 -0.99662292 0.081781618 0.0073798955 0.094049424
2545 -1780 189 -0.7588439 0.65084159 -0.023689339 0.079767607
2547 -1832 175 -0.93080503 0.0019566782 -0.36551085 0.11440796
2547 -1860 174 -0.97789866 -0.17855783 -0.10877153 0.11279435
2560 -1780 231 -0.65057856 0.64638513 0.39866486 0.082855314
2557 -1900 200 -0.84126884 -0.48857126 0.23144087 0.093282878
2534 -1827 199 -0.98903143 0.14416265 -0.032155983 0.089713037
2550 -1784 201 -0.77219111 0.63269597 0.05845296 0.074963935
2544 -1862 199 -0.95434672 -0.29393592 -0.053142257 0.082199156
2539 -1804 200 -0.90300012 0.42056829 0.087824225 0.087590195
2556 -1893 190 -0.90254009 -0.42438865 0.072908655 0.11009426
2539 -1859 185 -0.96082932 -0.25026715 -0.11905221 0.083636194
2530 -1831 180 -0.97115219 0.055482786 -0.23191598 0.078464232
2541 -1911 164 -0.82032764 -0.31086829 0.4800244 0.11108312
2540 -1860 202 -0.95883 -0.27536714 -0.069411628 0.082638018
2554 -1902 160 -0.70949441 -0.49618322 0.50041962 0.18558002
2537 -1817 192 -0.97234356 0.22799192 -0.050672472 0.085790165
2539 -1839 197 -0.9944073 -0.036619406 -0.09906131 0.10623479
