# .PCD v0.7 - Point Cloud Data file format
VERSION 0.7
FIELDS x y z normal_x normal_y normal_z curvature
SIZE 4 4 4 4 4 4 4
TYPE F F F F F F F
COUNT 1 1 1 1 1 1 1
WIDTH 533
HEIGHT 1
VIEWPOINT 0 0 0 1 0 0 0
POINTS 533
DATA ascii
2811 118 -116 -0.53376484 0.8429842 0.06687817 0.12567063
2798 60 -205 -0.53017819 0.56923366 -0.628398 0.12512572
2801 103 -115 -0.76827568 0.61525702 0.1766672 0.13972293
2816 75 -207 -0.57333416 0.41204602 -0.70817089 0.11333663
2780 83 -160 -0.92934942 0.2542249 -0.26772985 0.08906953
2774 68 -160 -0.96295732 0.061802853 -0.26247591 0.10118238
2819 45 -207 -0.53562301 0.59955204 -0.59468079 0.14542979
2800 88 -115 -0.85746127 0.47865823 0.18880264 0.16017371
2843 114 -71 -0.51391584 0.57448238 0.63707173 0.10660679
2791 98 -161 -0.81183547 0.50560004 -0.29204759 0.10228503
2813 84 -196 -0.55091649 0.5232116 -0.65018499 0.1364492
2803 67 -195 -0.7405929 0.31606418 -0.59298027 0.1367293
2800 50 -195 -0.59653437 0.57304078 -0.56193501 0.14908499
2788 109 -113 -0.78049207 0.60438919 0.15983023 0.12882595
2837 103 -68 -0.5610972 0.38154525 0.73457003 0.10346781
2775 81 -113 -0.82106423 0.5705449 -0.018220183 0.14203486
2790 96 -113 -0.83755958 0.52383775 0.15520284 0.13494596
2806 96 -88 -0.71048665 0.3578203 0.60594833 0.11338776
2772 75 -133 -0.88814586 0.43210196 -0.1564762 0.12587905
2776 103 -133 -0.864977 0.49524897 -0.080890313 0.11134312
2811 111 -88 -0.65904003 0.53085697 0.5327825 0.083133973
2781 89 -133 -0.89827257 0.4276709 -0.101015 0.10850884
2801 102 -161 -0.65391737 0.67931968 -0.33304191 0.10347384
2796 69 -160 -0.97175175 0.045163244 -0.23164389 0.11812615
2800 75 -205 -0.69586611 0.32514927 -0.6403501 0.11644904
2807 59 -206 -0.52023923 0.54722494 -0.65566456 0.1261915
2804 85 -160 -0.77057844 0.53335989 -0.34890699 0.11957428
2799 92 -84 -0.70169663 0.49808803 0.5094409 0.12170433
2811 106 -85 -0.67583936 0.43622378 0.59409595 0.084776513
2811 120 -85 -0.64773399 0.49088579 0.58264208 0.079057455
2824 63 -220 -0.53752923 0.59292358 -0.59958643 0.1120766
2779 99 -116 -0.84546965 0.5203529 0.12005752 0.12660739
2779 86 -116 -0.83861607 0.54460156 -0.011492605 0.12705159
2766 72 -115 -0.72988176 0.66583252 -0.15472454 0.14259699
2821 122 -71 -0.59718144 0.4333491 0.6749689 0.072107725
2825 108 -71 -0.58828491 0.45810342 0.66637981 0.08051756
2778 113 -116 -0.83043832 0.535151 0.15487279 0.1285625
2840 94 -71 -0.57283491 0.14066125 0.80751133 0.11173922
2804 109 -90 -0.68213892 0.51617843 0.51792508 0.090668425
2820 123 -91 -0.53566283 0.74086326 0.40519983 0.086145632
2809 95 -91 -0.72144794 0.38830054 0.57335466 0.11951241
2803 55 -191 -0.81150377 0.22108525 -0.54090947 0.1452021
2813 71 -192 -0.7057246 0.33230084 -0.62572271 0.13809794
2812 88 -193 -0.55105525 0.55614424 -0.62212676 0.13319959
2785 94 -146 -0.87510729 0.45416924 -0.16708523 0.098339573
2808 112 -100 -0.66889268 0.63096786 0.3930167 0.10758831
2802 61 -191 -0.8126263 0.18924619 -0.55120265 0.13615084
2789 81 -146 -0.87860417 0.43193796 -0.20367715 0.10314696
2784 66 -146 -0.94769549 0.23487777 -0.21611503 0.10335679
2795 75 -191 -0.80175215 0.27596599 -0.53012848 0.12028687
2798 84 -100 -0.80132365 0.44946644 0.39479154 0.14824978
2817 99 -100 -0.67333996 0.56874853 0.47237515 0.13703609
2801 47 -191 -0.65483135 0.5202058 -0.54825348 0.16740374
2774 79 -117 -0.82529134 0.56091428 -0.065340199 0.14067498
2807 88 -198 -0.62478691 0.4632844 -0.6284973 0.12642571
2809 72 -198 -0.67775357 0.35325485 -0.64487302 0.13786572
2801 95 -152 -0.76612914 0.58892822 -0.25731224 0.099420421
2811 57 -198 -0.68100142 0.396128 -0.61588937 0.13531698
2799 79 -152 -0.89861196 0.3707068 -0.23467635 0.11795393
2780 84 -106 -0.80595845 0.58575839 0.085545346 0.13746354
2831 110 -71 -0.57650578 0.4682672 0.6696021 0.081038214
2830 96 -71 -0.60230207 0.37236857 0.7060976 0.10499424
2824 124 -71 -0.58250117 0.43878773 0.68422043 0.071614802
2783 95 -114 -0.84090811 0.5235765 0.13689888 0.12774979
2779 109 -114 -0.83402056 0.52077627 0.18221377 0.12539409
2831 117 -69 -0.56738573 0.43507767 0.69912869 0.085739106
2822 103 -69 -0.60335678 0.43039429 0.67135787 0.083610833
2779 81 -114 -0.83694512 0.54724228 -0.0069881431 0.13831046
2802 86 -158 -0.78890222 0.51985246 -0.32769918 0.11746247
2804 60 -203 -0.59852529 0.51005173 -0.61774975 0.12470539
2799 70 -158 -0.96253061 0.13659066 -0.23426037 0.12933642
2809 76 -204 -0.61081624 0.37811032 -0.69565517 0.11919022
2806 43 -203 -0.5180555 0.60022771 -0.60938096 0.15119033
2799 103 -108 -0.77731532 0.56218821 0.28235665 0.13160412
2788 89 -107 -0.83180958 0.51969069 0.19497274 0.14950012
2795 117 -108 -0.73322719 0.61639118 0.28712323 0.11852262
2826 106 -86 -0.6084162 0.56261253 0.55972934 0.11027705
2807 64 -176 -0.85305363 0.25153628 -0.45719683 0.132963
2781 78 -175 -0.94209766 0.13395301 -0.30742255 0.099253483
2783 92 -175 -0.90837175 0.27454254 -0.31541583 0.10320374
2794 114 -132 -0.79021668 0.61256498 -0.017933853 0.12194232
2798 100 -132 -0.83520597 0.5484708 -0.040133625 0.12477975
2791 86 -131 -0.89884967 0.43561211 -0.04807638 0.12897581
2819 72 -211 -0.56024808 0.44018781 -0.70168144 0.1144798
2820 55 -211 -0.55012763 0.52856135 -0.64651567 0.11452993
2798 82 -197 -0.68338883 0.41479614 -0.6007694 0.12558818
2805 66 -197 -0.70166427 0.35307607 -0.61887366 0.13732129
2817 115 -100 -0.52743852 0.80241638 0.27917123 0.092159905
2792 85 -190 -0.79741788 0.33241168 -0.50361413 0.11714587
2800 70 -190 -0.77627468 0.29266447 -0.55834138 0.13717234
2790 75 -143 -0.93970317 0.30659032 -0.15152641 0.11603957
2819 100 -100 -0.66099572 0.59031451 0.46326393 0.13119563
2794 90 -144 -0.83272135 0.52048582 -0.18886393 0.10741147
2801 84 -99 -0.7942223 0.41870087 0.44034141 0.14104484
2789 104 -144 -0.82781971 0.53987581 -0.15247495 0.097560771
2803 55 -190 -0.8304199 0.20113735 -0.51956379 0.14553617
2783 103 -127 -0.8537696 0.52056891 0.0092439866 0.1191344
2830 111 -82 -0.5494718 0.65558875 0.51796162 0.092905924
2829 97 -82 -0.66299361 0.15149105 0.73313707 0.097160406
2777 75 -126 -0.87826025 0.46101809 -0.12696932 0.12865996
2785 89 -127 -0.88314539 0.46806681 -0.031106776 0.1249413
2844 111 -67 -0.51534384 0.5076527 0.69044155 0.10176122
2785 89 -112 -0.81505448 0.57041192 0.10157003 0.13979504
2787 116 -112 -0.75072467 0.6255818 0.21227327 0.13223097
2789 102 -112 -0.80855352 0.5627507 0.17190957 0.13003266
2774 75 -111 -0.79813987 0.60096169 -0.042636558 0.15041904
2802 63 -182 -0.85404086 0.14502206 -0.49958265 0.13766354
2794 78 -182 -0.86182499 0.26615131 -0.43176508 0.1100833
2800 103 -138 -0.81368387 0.57192463 -0.10402325 0.12900415
2790 72 -137 -0.90589446 0.40051863 -0.13762307 0.12468606
2803 88 -138 -0.81792408 0.55708039 -0.14374131 0.13352311
2798 116 -129 -0.7189852 0.69501251 -0.0042442558 0.13179293
2785 88 -129 -0.89438224 0.44482279 -0.047044832 0.12300945
2790 102 -129 -0.83383763 0.55117387 -0.030367898 0.11635387
2829 95 -83 -0.66587037 0.13931616 0.73294449 0.09953744
2823 109 -83 -0.60939056 0.52976972 0.58990437 0.088781156
2773 73 -128 -0.86884338 0.47361439 -0.14422409 0.12953749
2802 69 -192 -0.75422764 0.28989315 -0.58915418 0.13491897
2807 53 -193 -0.80653137 0.24099091 -0.53984308 0.14871535
2793 99 -113 -0.81761205 0.54143745 0.19584686 0.13814387
2791 113 -113 -0.7594856 0.62355131 0.18537906 0.1319575
2786 85 -113 -0.83899093 0.53897864 0.074808054 0.14775229
2806 54 -178 -0.91458857 -0.10201285 -0.39130694 0.13532804
2836 46 -226 -0.51568699 0.68998796 -0.5079208 0.10514414
2799 86 -178 -0.75797176 0.48452559 -0.43670794 0.12084659
2803 70 -178 -0.83245945 0.30292311 -0.4639492 0.12947543
2787 64 -155 -0.97727484 0.030080738 -0.20983087 0.098349079
2789 82 -112 -0.84512496 0.52661097 0.091895357 0.16109741
2789 92 -155 -0.83522242 0.48133758 -0.26592773 0.089995734
2791 78 -155 -0.88205355 0.38409758 -0.27285635 0.098201662
2844 105 -69 -0.52074385 0.33252332 0.7862913 0.12523438
2800 59 -203 -0.578852 0.53350353 -0.61668819 0.13469763
2797 97 -112 -0.81962609 0.52714723 0.22434092 0.14583261
2786 73 -202 -0.8265236 0.152147 -0.54195011 0.11548177
2797 111 -112 -0.73377001 0.64424866 0.21569729 0.130933
2803 80 -183 -0.77853674 0.38652155 -0.49445093 0.1324506
2803 114 -131 -0.71559215 0.69837081 -0.014354629 0.13407494
2783 79 -177 -0.93037266 0.15689144 -0.3313483 0.099334799
2822 105 -89 -0.63110268 0.5340687 0.56256551 0.10473225
2781 71 -130 -0.88416195 0.45246473 -0.11633251 0.14279488
2787 85 -131 -0.90160275 0.42816713 -0.061525147 0.12714659
2791 99 -131 -0.83919513 0.54150921 -0.050192505 0.12036068
2788 94 -177 -0.85169798 0.37412369 -0.36693597 0.10881471
2782 65 -177 -0.94106543 0.059955914 -0.33286816 0.095120557
2819 106 -80 -0.64089578 0.43379349 0.63330543 0.078704283
2807 92 -79 -0.683254 0.42166328 0.59612423 0.10310393
2815 120 -80 -0.63615674 0.50794959 0.58076817 0.073780254
2799 120 -102 -0.6855762 0.63098896 0.36309534 0.10892707
2795 106 -101 -0.75480932 0.55472535 0.35006085 0.10537221
2771 72 -147 -0.92834443 0.30234054 -0.21625663 0.10624369
2799 92 -102 -0.79510427 0.41488522 0.44235677 0.13724229
2799 59 -148 -0.91029942 -0.41352618 -0.018735344 0.13141629
2774 100 -147 -0.86620682 0.47398931 -0.15817688 0.095665134
2805 119 -122 -0.60519266 0.79368037 0.061751161 0.13299799
2785 104 -121 -0.8231231 0.56542832 0.052526489 0.12345844
2783 90 -121 -0.84853995 0.52889132 -0.015938595 0.13157386
2781 76 -121 -0.88132733 0.46791917 -0.065678999 0.14917195
2807 76 -166 -0.74812579 0.51385456 -0.41983488 0.12134437
2799 92 -166 -0.75355226 0.53686249 -0.37939113 0.11063995
2796 59 -166 -0.96121341 -0.10854458 -0.25354838 0.11142641
2824 68 -213 -0.55344188 0.47869602 -0.68158072 0.11051895
2828 52 -214 -0.55877733 0.55783677 -0.61366612 0.1182218
2786 89 -164 -0.8785345 0.37535644 -0.29543978 0.10133355
2848 104 -75 -0.50478494 0.53203732 0.67980033 0.13926147
2806 111 -121 -0.6768167 0.73027933 0.092796959 0.1498697
2799 83 -120 -0.90362346 0.42398509 0.060838647 0.16328417
2791 75 -164 -0.93311858 0.21599446 -0.28746489 0.10595012
2788 61 -164 -0.96984947 -0.092699341 -0.22538565 0.10252409
2810 97 -121 -0.75773752 0.64795208 0.077407993 0.1644467
2813 70 -209 -0.5454362 0.482104 -0.68562019 0.11107631
2787 78 -125 -0.88208926 0.46740559 -0.058741115 0.13482116
2791 107 -125 -0.79531419 0.60598695 0.015974948 0.12188136
2777 86 -171 -0.93796808 0.19874913 -0.28410333 0.10125385
2829 99 -83 -0.65952545 0.26831326 0.70216393 0.1058636
2776 72 -171 -0.9678027 -0.049552858 -0.24678397 0.096853487
2788 93 -125 -0.86323553 0.50475544 -0.0068068206 0.1261279
2808 104 -119 -0.71899867 0.68591416 0.11208282 0.15912953
2839 109 -73 -0.55561823 0.48157576 0.67777073 0.11194184
2789 84 -162 -0.88396913 0.36672044 -0.29002529 0.093454137
2795 90 -118 -0.85959369 0.50878656 0.047274411 0.1428528
2788 70 -162 -0.96590638 0.085705422 -0.24429375 0.10039795
2821 66 -208 -0.51826972 0.52710652 -0.67346501 0.12416738
2787 55 -162 -0.96990669 -0.022403788 -0.24244413 0.10918073
2795 76 -118 -0.90734816 0.41666442 0.055769403 0.1742942
2771 75 -115 -0.75787085 0.64038432 -0.1246587 0.14398505
2806 118 -117 -0.59209257 0.79804039 0.11206167 0.13538703
2782 103 -116 -0.8506754 0.50874746 0.13239101 0.12654668
2827 98 -70 -0.60797107 0.41570193 0.6764341 0.090081558
2826 111 -70 -0.58859563 0.41805589 0.69194245 0.074979499
2782 89 -116 -0.83539265 0.54895055 0.027793106 0.13111421
2780 67 -167 -0.96862251 0.015117173 -0.24807622 0.094834723
2779 74 -120 -0.88485044 0.46200883 -0.05989496 0.15213068
2782 53 -167 -0.94306445 0.099007078 -0.31753278 0.11544289
2783 81 -167 -0.93899244 0.18992545 -0.28674307 0.09428028
2798 103 -122 -0.78304309 0.62071931 0.039384358 0.14089267
2777 95 -167 -0.92127293 0.28987342 -0.25928694 0.11192825
2803 89 -122 -0.84710371 0.52954209 0.044725832 0.15815605
2814 117 -123 -0.51112241 0.85922396 0.02209324 0.13280627
2786 95 -149 -0.86672759 0.46328887 -0.18478842 0.096134864
2808 101 -107 -0.75576836 0.55424398 0.34875181 0.13654029
2809 115 -107 -0.57578242 0.78520823 0.22786517 0.11722239
2790 81 -149 -0.87327528 0.43191403 -0.22547862 0.09975712
2794 86 -106 -0.84229308 0.44144669 0.30930096 0.15926594
2794 67 -149 -0.9876402 0.034536127 -0.15288582 0.12382369
2792 60 -196 -0.65856415 0.50196958 -0.56064236 0.13866159
2785 74 -195 -0.89358068 0.049938772 -0.44611636 0.11874966
2799 47 -196 -0.56262738 0.59521288 -0.57373524 0.14684433
2810 92 -107 -0.80338532 0.40794945 0.43376181 0.14705531
2796 100 -152 -0.79463762 0.55574751 -0.2443272 0.094849028
2811 107 -107 -0.63139683 0.73334134 0.25208834 0.13417096
2778 70 -151 -0.96906179 0.13085842 -0.20927364 0.095598407
2808 67 -200 -0.64760435 0.41070983 -0.64181459 0.12859622
2791 85 -152 -0.86461288 0.43395999 -0.25322589 0.095593132
2820 52 -201 -0.55345303 0.51867735 -0.65166217 0.14416608
2796 89 -107 -0.84300441 0.44050145 0.30871031 0.15572283
2793 116 -107 -0.72622168 0.63428503 0.26511267 0.11871172
2782 75 -107 -0.82395035 0.56394339 0.0554398 0.17617273
2800 103 -107 -0.76750767 0.55488348 0.32099262 0.12932555
2846 112 -62 -0.5014571 0.43392035 0.74850106 0.10661646
2827 122 -72 -0.55480993 0.57164705 0.6044879 0.078021578
2830 94 -72 -0.60924125 0.34716928 0.71295065 0.10612439
2825 108 -72 -0.59269339 0.46337822 0.65878314 0.078182064
2781 100 -117 -0.84576201 0.5224663 0.1082388 0.1265967
2783 114 -118 -0.78663599 0.60839492 0.1051638 0.13032158
2770 72 -117 -0.75974983 0.63150764 -0.1548494 0.15107392
2786 86 -118 -0.84759873 0.53058535 0.0074633267 0.13915826
2791 60 -205 -0.55531317 0.56853545 -0.60695523 0.12278136
2798 53 -158 -0.96816486 -0.151859 -0.19898658 0.11673073
2804 115 -116 -0.66997367 0.73011708 0.13440377 0.1334465
2798 95 -159 -0.75169259 0.57702547 -0.31937414 0.098685436
2802 101 -116 -0.78689396 0.59922844 0.14738761 0.14755566
2792 67 -158 -0.97553355 0.010088112 -0.21961892 0.1105555
2843 110 -73 -0.52773345 0.52848589 0.66498131 0.12084542
2800 87 -116 -0.86646748 0.47913715 0.14022006 0.15991895
2795 81 -159 -0.86901504 0.39566076 -0.297095 0.10205755
2825 32 -207 -0.62155056 0.60042363 -0.50315642 0.17795677
2795 113 -110 -0.74089205 0.61693412 0.26546416 0.12943694
2787 85 -110 -0.83772069 0.5322656 0.1221369 0.14885284
2797 99 -110 -0.7901752 0.55612677 0.25757757 0.13698025
2806 107 -128 -0.76766837 0.64066041 0.015473784 0.15026249
2830 102 -83 -0.62343645 0.46663892 0.62735564 0.11050358
2830 117 -83 -0.50888854 0.7325688 0.45207888 0.081646875
2794 77 -127 -0.92672604 0.37573513 -0.0013985974 0.1490933
2797 92 -127 -0.85607672 0.51622975 -0.025287878 0.1383018
2832 49 -220 -0.51254445 0.64267153 -0.56944835 0.11223161
2791 57 -173 -0.93932265 -0.0051158825 -0.34299681 0.11382669
2788 72 -173 -0.94063926 0.08178129 -0.32940784 0.10161027
2792 86 -173 -0.82316881 0.41866311 -0.38355488 0.10380059
2805 75 -154 -0.92025226 0.31054896 -0.23810744 0.13652076
2802 91 -154 -0.77647507 0.56234306 -0.28435332 0.10218689
2822 53 -201 -0.55576539 0.52039915 -0.64831287 0.14441749
2802 60 -154 -0.92763567 -0.37325978 -0.013004831 0.12451217
2813 68 -200 -0.62767082 0.41744018 -0.65709448 0.12859115
2820 37 -201 -0.6578607 0.50118542 -0.56216764 0.18236089
2827 116 -84 -0.55002534 0.68800437 0.47341532 0.081383556
2782 81 -129 -0.87229931 0.47822365 -0.10196085 0.13144718
2819 102 -84 -0.67444623 0.36778215 0.64020193 0.090281561
2781 67 -129 -0.84645319 0.51293075 -0.14289571 0.1532274
2786 95 -129 -0.86108088 0.50652158 -0.044448484 0.1136279
2781 109 -129 -0.82267791 0.56806421 -0.022451062 0.11296519
2807 72 -195 -0.7013163 0.34182346 -0.6255495 0.13390897
2809 55 -195 -0.74510145 0.31048796 -0.59027213 0.13938668
2837 48 -221 -0.52692711 0.65781909 -0.53816521 0.10078199
2806 88 -173 -0.7120074 0.54149175 -0.4470259 0.12043647
2806 72 -173 -0.78821856 0.40723276 -0.46138155 0.12986822
2805 55 -173 -0.93280965 -0.14771815 -0.32870275 0.12167618
2788 62 -150 -0.98151517 -0.0040394589 -0.19134158 0.10795622
2798 72 -197 -0.76958746 0.25006476 -0.58753955 0.12186975
2812 101 -106 -0.71640635 0.58959627 0.37301236 0.13883853
2805 86 -106 -0.81564587 0.39718133 0.42067659 0.15666778
2811 42 -198 -0.62028795 0.49186748 -0.61099046 0.17980894
2794 77 -150 -0.87903011 0.40899727 -0.24500458 0.1083783
2790 91 -150 -0.85625142 0.46847162 -0.21764171 0.097855672
2809 57 -198 -0.67576367 0.40417778 -0.61642838 0.13542217
2809 116 -106 -0.57283956 0.78428733 0.2382189 0.1158446
2806 49 -181 -0.88191563 -0.11379386 -0.45746666 0.14209671
2806 103 -135 -0.81724846 0.57258201 -0.065228656 0.13703036
2793 72 -134 -0.93086487 0.35679981 -0.078642048 0.14263241
2805 88 -135 -0.82876468 0.54724318 -0.11693577 0.14265539
2809 65 -181 -0.81597549 0.21487941 -0.53666639 0.14209719
2797 80 -180 -0.82252175 0.36089358 -0.43956098 0.12388072
2795 81 -183 -0.83632058 0.31456468 -0.4490177 0.11289132
2822 106 -96 -0.60560566 0.67837781 0.41598722 0.11814618
2780 70 -139 -0.87281531 0.45787385 -0.16895215 0.11163826
2801 67 -184 -0.83419853 0.2219398 -0.50483215 0.13193034
2792 99 -140 -0.84582222 0.51828092 -0.1263711 0.1030165
2807 119 -96 -0.66804439 0.58858001 0.45529133 0.089340471
2802 91 -96 -0.7719453 0.43286908 0.46553713 0.12777156
2792 85 -140 -0.89067352 0.43767211 -0.12305974 0.11408941
2801 53 -184 -0.90274656 -0.080395378 -0.4225935 0.13714127
2776 80 -117 -0.83710873 0.54361987 -0.061044972 0.13813123
2775 107 -117 -0.84982979 0.51041293 0.13140737 0.13007724
2780 94 -117 -0.83892697 0.54100364 0.059300128 0.12450387
2818 102 -72 -0.61104536 0.48154324 0.62828308 0.080799043
2820 116 -72 -0.61871368 0.41093969 0.66956848 0.068889275
2772 66 -117 -0.707138 0.69650656 -0.12179656 0.15653649
2795 102 -103 -0.7751835 0.53701156 0.33272961 0.1185175
2795 88 -103 -0.81875294 0.44125199 0.36734229 0.14950222
2780 74 -103 -0.77778208 0.62694281 0.044696055 0.16629307
2791 115 -103 -0.73677313 0.58568311 0.33784702 0.11744414
2831 118 -71 -0.55336642 0.54823804 0.62707317 0.093264736
2824 104 -71 -0.60210991 0.42877564 0.6735096 0.084446557
2793 92 -143 -0.84703159 0.50790697 -0.15674165 0.10760065
2797 87 -98 -0.77616084 0.50385511 0.37908369 0.1456148
2797 62 -143 -0.99252105 -0.058981888 -0.10687921 0.14231892
2809 117 -99 -0.58675992 0.73449683 0.34092095 0.10122368
2798 72 -190 -0.79020095 0.28929782 -0.54026771 0.13889806
2811 58 -191 -0.76562935 0.24966224 -0.5928579 0.15292041
2813 102 -99 -0.71883684 0.47190079 0.51047361 0.12275109
2794 77 -143 -0.91238678 0.36614186 -0.18300378 0.12461585
2806 57 -156 -0.90196341 -0.43129295 -0.021174481 0.13333456
2812 47 -202 -0.55059969 0.5789935 -0.60133725 0.14606228
2809 73 -156 -0.801606 0.51014841 -0.31173125 0.14973123
2807 63 -201 -0.63743103 0.46077579 -0.61754942 0.12947476
2808 87 -101 -0.78625655 0.31142685 0.5336796 0.13912961
2788 83 -144 -0.87547094 0.44820994 -0.18071705 0.10415207
2792 49 -191 -0.64315015 0.54630375 -0.53657264 0.15697142
2808 101 -101 -0.74414909 0.50845414 0.43326271 0.12921144
2791 69 -144 -0.974352 0.16955744 -0.14794767 0.12071735
2789 63 -191 -0.81168646 0.28976023 -0.50715303 0.13352494
2786 77 -190 -0.901254 0.097350828 -0.42221335 0.10553893
2813 116 -102 -0.55233818 0.78745735 0.27355698 0.10119888
2788 97 -144 -0.86839926 0.47363865 -0.14679594 0.099704988
2807 102 -90 -0.69590592 0.47194508 0.54127884 0.096570991
2792 88 -90 -0.73343945 0.57176095 0.36763567 0.12911725
2797 116 -90 -0.69455481 0.51467085 0.50270033 0.089947514
2787 94 -116 -0.85481113 0.5078423 0.10674258 0.13404511
2829 116 -71 -0.57756346 0.40657777 0.7078948 0.083298512
2821 102 -71 -0.61406535 0.41948977 0.66854477 0.080787264
2779 80 -116 -0.84405154 0.53600955 -0.016457897 0.14260077
2781 108 -116 -0.83153093 0.5385499 0.13608967 0.12750961
2797 93 -99 -0.78866589 0.4331488 0.43633509 0.13575728
2790 120 -98 -0.7273677 0.54423052 0.41803038 0.10201032
2798 107 -99 -0.73240757 0.56526202 0.37954965 0.10643368
2837 130 -62 -0.5012356 0.56606239 0.65447402 0.09598805
2823 101 -62 -0.53445339 0.63091016 0.56241614 0.1034224
2826 57 -216 -0.52570349 0.5802682 -0.62203258 0.10550874
2812 107 -118 -0.59044123 0.80370086 0.073783569 0.15406494
2809 93 -118 -0.7701593 0.62677866 0.11833507 0.17384005
2810 68 -210 -0.56630754 0.46187168 -0.68262017 0.11126404
2802 78 -118 -0.93592966 0.32900232 0.12567054 0.17420439
2824 53 -211 -0.54128963 0.55474532 -0.63187265 0.12616053
2787 89 -164 -0.85647011 0.41397136 -0.30836129 0.10189347
2791 74 -164 -0.94272423 0.19009972 -0.27410427 0.10733482
2788 59 -164 -0.96827173 -0.056080908 -0.24352567 0.103741
2781 81 -104 -0.79342932 0.60204613 0.089500733 0.14234988
2791 95 -105 -0.80911809 0.51060969 0.29087064 0.13370736
2795 109 -105 -0.75344479 0.59084409 0.28848618 0.1125964
2818 106 -96 -0.59716713 0.69527674 0.39997709 0.11115714
2786 97 -139 -0.88504773 0.45176691 -0.11223679 0.10102076
2807 91 -95 -0.75020564 0.40832239 0.52006179 0.13166238
2790 78 -182 -0.88825834 0.20036441 -0.41334146 0.10894877
2794 50 -182 -0.88167804 0.10063356 -0.46099526 0.15176702
2783 69 -138 -0.89834315 0.41767722 -0.13610765 0.12629876
2793 83 -139 -0.89534891 0.4289591 -0.11976795 0.11515598
2802 64 -182 -0.85082543 0.16945221 -0.49737516 0.13552831
2807 94 -91 -0.72991222 0.38857386 0.56235081 0.12260149
2786 87 -137 -0.90847337 0.40704209 -0.094831109 0.10869636
2818 108 -91 -0.64976025 0.53010446 0.54479438 0.10161763
2780 101 -136 -0.87373501 0.47745502 -0.092864886 0.10876705
2774 73 -136 -0.86654961 0.47041905 -0.16672635 0.12654755
2801 85 -176 -0.72462904 0.51889479 -0.45349857 0.11890782
2804 69 -176 -0.83382869 0.30515242 -0.46001279 0.13194357
2808 52 -176 -0.91046178 -0.11944978 -0.39596862 0.13945697
2790 104 -116 -0.80659217 0.575167 0.1363522 0.12499876
2794 118 -116 -0.73012531 0.65951264 0.17877416 0.13018295
2791 90 -116 -0.86553442 0.4964647 0.066127963 0.14674072
2782 76 -115 -0.85401928 0.52023369 0.002826775 0.16118155
2803 78 -185 -0.78481424 0.34636876 -0.51390195 0.1336749
2800 62 -185 -0.85980684 0.10888477 -0.49887499 0.13109291
2807 114 -97 -0.67964202 0.570472 0.4611381 0.099215083
2774 71 -96 -0.61453587 0.78508067 0.077421524 0.1294982
2804 100 -97 -0.74875474 0.4582904 0.47889057 0.1198988
2783 85 -96 -0.76634705 0.61073822 0.19927597 0.13178116
2796 87 -163 -0.83089423 0.45199099 -0.32452869 0.099614292
2786 78 -119 -0.87554467 0.48275095 -0.019316789 0.1499109
2789 101 -163 -0.80469 0.51276416 -0.29924408 0.10674683
2791 73 -162 -0.95844877 0.13550194 -0.25102827 0.10851634
2799 107 -120 -0.77979571 0.62137783 0.076212071 0.13769418
2794 92 -120 -0.8570115 0.5150767 0.015075583 0.1414205
2787 80 -209 -0.74931264 0.18556198 -0.63568658 0.10995247
2796 66 -210 -0.53132606 0.55038315 -0.64402723 0.11752754
2796 88 -103 -0.81661606 0.43936831 0.37429097 0.14698189
2778 68 -149 -0.94899946 0.21517159 -0.23043704 0.096594878
2794 116 -103 -0.73562038 0.5878101 0.33666313 0.1122961
2776 96 -149 -0.8710835 0.45479479 -0.18540585 0.097140826
2805 102 -103 -0.74820673 0.53363621 0.39423233 0.12955919
2775 109 -149 -0.85598522 0.4911862 -0.16132411 0.095297225
2790 74 -135 -0.90825456 0.40341532 -0.11103979 0.12565479
2810 65 -182 -0.81417829 0.20921734 -0.5416103 0.14412004
2805 89 -136 -0.80828243 0.57148433 -0.14172246 0.13593724
2802 49 -181 -0.90463436 -0.091697529 -0.41620699 0.13725993
2806 105 -137 -0.81035662 0.58246595 -0.063683696 0.14134935
2791 80 -181 -0.87835968 0.25197995 -0.40618995 0.1096435
2817 96 -71 -0.61126477 0.52026689 0.59638721 0.093589112
2779 74 -117 -0.86213017 0.5052042 -0.038733285 0.16301352
2831 110 -72 -0.57874787 0.46945718 0.66682893 0.080341928
2791 89 -117 -0.86537749 0.49723068 0.062316287 0.14534181
2789 102 -117 -0.82368785 0.5561676 0.11052608 0.12463664
2807 87 -125 -0.86710107 0.49708289 0.032314222 0.17213577
2793 64 -169 -0.95593649 -0.00712597 -0.29348704 0.11238076
2794 79 -169 -0.84544241 0.37744972 -0.37783435 0.11186827
2789 71 -124 -0.90102565 0.42999128 -0.0570985 0.16290572
2815 49 -171 -0.91357559 -0.18430327 -0.36250779 0.14480142
2807 103 -124 -0.76226217 0.64496219 0.054591712 0.15267974
2822 121 -72 -0.59819478 0.47041708 0.64874554 0.068358101
2831 108 -72 -0.59482378 0.40570545 0.69396532 0.079873659
2833 94 -73 -0.61422181 0.246592 0.74961585 0.10221224
2787 100 -118 -0.83234924 0.55081147 0.061655823 0.12425549
2783 86 -118 -0.85295558 0.52181345 -0.013317066 0.13118762
2765 72 -117 -0.73759645 0.65288633 -0.17231077 0.15043324
2802 114 -118 -0.6988495 0.70614046 0.11390825 0.13431683
2777 77 -108 -0.80090773 0.5985955 0.015171648 0.14476697
2794 91 -108 -0.84349525 0.46652821 0.26620892 0.14934935
2801 119 -109 -0.70410836 0.6601854 0.26150852 0.11944007
2786 105 -108 -0.82579958 0.50221831 0.25657707 0.12931331
2848 107 -70 -0.52258372 0.30493918 0.7961899 0.1328958
2785 91 -159 -0.83460671 0.47527954 -0.27846175 0.095342562
2826 38 -206 -0.59412187 0.5965932 -0.53953284 0.18244691
2799 81 -113 -0.90562475 0.34680307 0.24407281 0.17223522
2806 96 -114 -0.78447336 0.58687514 0.20044728 0.16112521
2820 53 -206 -0.53368121 0.55908298 -0.63451612 0.13151444
2812 111 -114 -0.56704038 0.81657648 0.10801864 0.13251466
2802 68 -205 -0.63152695 0.42573392 -0.64801568 0.11800906
2790 76 -159 -0.92758161 0.25821438 -0.27003279 0.095957421
2788 61 -159 -0.9745838 -0.13155933 -0.18132465 0.10922692
2805 82 -108 -0.84516108 0.29969218 0.44259164 0.17163268
2796 96 -107 -0.79056472 0.55234379 0.26443106 0.13464326
2791 110 -107 -0.72921693 0.62324017 0.28251424 0.12012967
2798 124 -108 -0.66466725 0.70902228 0.2355949 0.12996158
2793 92 -161 -0.83083826 0.47650787 -0.2874856 0.099671163
2808 76 -162 -0.76732254 0.52376467 -0.36998188 0.13245264
2806 60 -161 -0.97138631 -0.13049732 -0.19844171 0.12917317
2816 50 -207 -0.50005835 0.59684211 -0.62747204 0.130436
2809 66 -207 -0.57045949 0.47118032 -0.67272967 0.11489726
2808 72 -186 -0.76527643 0.32318792 -0.55668801 0.14400241
2808 56 -186 -0.85495371 0.01457518 -0.51849943 0.14400358
2822 101 -92 -0.65552092 0.4795416 0.58337992 0.11467619
2785 68 -134 -0.86477178 0.4803583 -0.14637509 0.14299971
2786 62 -180 -0.93263441 0.015123552 -0.36050567 0.10465812
2785 90 -180 -0.89466518 0.26310319 -0.36104158 0.10791471
2791 96 -134 -0.8589704 0.50768447 -0.066529527 0.11931816
2791 82 -134 -0.8975032 0.43422747 -0.077036299 0.12297884
2784 76 -180 -0.93114752 0.1137573 -0.34644413 0.098444588
2789 109 -134 -0.79973114 0.59488237 -0.080901794 0.11246091
2827 115 -92 -0.55891913 0.68176991 0.4720161 0.093592606
2788 73 -169 -0.94517487 0.12587051 -0.30133224 0.10288244
2788 78 -123 -0.88994765 0.45439917 -0.038917422 0.1487402
2787 59 -169 -0.95662409 -0.0041943532 -0.29129505 0.10112821
2833 104 -79 -0.58394378 0.52801526 0.61661136 0.098051049
2827 66 -217 -0.53963327 0.53459847 -0.65038478 0.10363463
2832 51 -217 -0.51116776 0.62964553 -0.58502483 0.11028015
2801 108 -124 -0.76563376 0.64167988 0.045297228 0.13832098
2784 88 -169 -0.91249597 0.2670716 -0.30987713 0.10348185
2797 93 -123 -0.83873773 0.54443538 -0.010447191 0.14359111
2818 119 -95 -0.54003304 0.76354343 0.35407016 0.088730887
2811 105 -94 -0.70197892 0.4746151 0.53100467 0.10653371
2806 90 -94 -0.74771315 0.39242759 0.53565454 0.12679487
2781 83 -139 -0.90330797 0.41033325 -0.12514536 0.1048353
2771 69 -139 -0.88835633 0.42017275 -0.18514283 0.11778439
2773 97 -139 -0.91054809 0.40076599 -0.10143342 0.10200218
2798 112 -141 -0.73615599 0.65600932 -0.16651179 0.11680665
2785 91 -185 -0.88151741 0.22123015 -0.41711426 0.10626575
2786 68 -138 -0.92276442 0.35955864 -0.1386482 0.12540355
2783 76 -184 -0.92650694 0.081251204 -0.36740053 0.10492522
2792 63 -185 -0.90741742 0.011945976 -0.42006063 0.11497026
2793 82 -138 -0.89197373 0.43780619 -0.11273239 0.12266143
2792 110 -138 -0.80324608 0.58579344 -0.10789698 0.10997438
2819 116 -96 -0.54270351 0.76680493 0.34275827 0.091878131
2815 87 -96 -0.74024987 0.18420795 0.64660454 0.13426515
2793 49 -185 -0.84922385 0.28976661 -0.44142291 0.16289912
2795 97 -138 -0.85145575 0.51456827 -0.10120597 0.11499774
2809 101 -96 -0.72829133 0.45420617 0.51311642 0.11391363
2835 107 -66 -0.53855401 0.44489264 0.71556282 0.0916273
2785 99 -111 -0.8432501 0.50014168 0.19694532 0.12676577
2834 121 -66 -0.55205971 0.45196748 0.70068216 0.088915952
2786 112 -111 -0.7672618 0.60781038 0.20463581 0.12545197
2780 85 -111 -0.81615925 0.57539403 0.052970149 0.13516423
2786 71 -111 -0.84333861 0.5348708 0.051896766 0.17945662
2793 72 -110 -0.84406799 0.52365613 0.11547052 0.19210002
2840 122 -64 -0.50179458 0.54605502 0.67083991 0.096608512
2786 113 -109 -0.75662839 0.61191881 0.23036671 0.12521681
2788 99 -109 -0.81827593 0.53591478 0.20789376 0.12282734
2831 108 -64 -0.54897326 0.52164686 0.65307957 0.087826274
2786 86 -109 -0.8336457 0.53460467 0.13868192 0.14817734
2797 96 -115 -0.81701887 0.55597597 0.15287529 0.14557505
2786 82 -114 -0.85431933 0.51665032 0.056663975 0.14781289
2796 110 -115 -0.76172155 0.62283957 0.17846888 0.12741017
2844 104 -69 -0.52144301 0.33510599 0.78472996 0.12652685
2803 68 -187 -0.78435946 0.27903351 -0.55400407 0.13313362
2809 84 -187 -0.67381358 0.48561028 -0.55691826 0.14255676
2795 62 -141 -0.99265671 0.032936387 -0.11639543 0.13481914
2805 52 -186 -0.88305056 -0.096376643 -0.45927465 0.14263752
2808 93 -142 -0.80649662 0.56266391 -0.18158352 0.1362951
2825 118 -94 -0.5264706 0.76211119 0.37684914 0.083790824
2820 104 -94 -0.6223833 0.62699074 0.46853122 0.11385559
2783 77 -182 -0.92657965 0.10230927 -0.36191574 0.10000491
2812 90 -94 -0.7417298 0.28388333 0.60765713 0.11446304
2795 84 -136 -0.87791324 0.46848959 -0.098924316 0.12388398
2784 70 -135 -0.87847054 0.45424163 -0.14816897 0.1380564
2794 98 -136 -0.85741454 0.50945884 -0.072746746 0.11878052
2792 63 -182 -0.92889547 0.015663346 -0.37001064 0.11199545
2814 111 -109 -0.54692763 0.81656706 0.18463066 0.13310023
2806 82 -109 -0.84456128 0.37504256 0.38217703 0.17583467
2798 58 -197 -0.60848814 0.52989882 -0.5907194 0.14047998
2792 62 -153 -0.97529644 -0.16709121 -0.14449005 0.12044594
2811 97 -109 -0.77391505 0.5039686 0.38349846 0.13968036
2789 76 -153 -0.92184001 0.30702135 -0.23653518 0.091815479
2801 72 -197 -0.7321617 0.3057344 -0.60865897 0.12567057
2789 90 -153 -0.84568703 0.47350839 -0.24617745 0.094868675
2790 104 -153 -0.82192141 0.52432817 -0.22254257 0.096464068
2807 44 -198 -0.55135894 0.5812332 -0.5984742 0.16532683
2804 84 -183 -0.7152971 0.48883045 -0.49939439 0.12760548
2812 68 -184 -0.77440768 0.28644145 -0.56413126 0.14613834
2801 52 -183 -0.90755332 -0.081698716 -0.41191304 0.13952906
2801 98 -108 -0.79035312 0.51380473 0.33368647 0.1412521
2799 112 -108 -0.734676 0.6207853 0.2736364 0.11229319
2787 84 -107 -0.8295365 0.53624904 0.15590468 0.15503415
2792 104 -106 -0.77302575 0.56538486 0.28769967 0.12300584
2797 118 -106 -0.71578145 0.63348395 0.29386222 0.11392325
2778 76 -106 -0.78813237 0.61440909 0.036726922 0.15014285
2796 90 -106 -0.83007914 0.44514653 0.33587679 0.15067422
2799 111 -110 -0.7318179 0.63361132 0.25095659 0.12279368
2780 83 -109 -0.8166402 0.57520628 0.047291573 0.14284304
2798 97 -110 -0.8007707 0.5327903 0.27368006 0.14087221
2831 109 -92 -0.60662967 0.56529188 0.55896825 0.1120443
2817 94 -92 -0.70377707 0.26231921 0.66021693 0.11057939
2795 101 -136 -0.83830994 0.54050934 -0.071317114 0.11157085
2792 83 -183 -0.85449725 0.28141305 -0.43662468 0.11375602
2795 68 -183 -0.87274277 0.17533013 -0.45560887 0.12226739
2796 54 -183 -0.86599249 0.12675525 -0.48372528 0.14201422
2785 71 -136 -0.91761023 0.38131979 -0.11219068 0.12836972
2798 86 -136 -0.87653589 0.47263142 -0.091127872 0.12389197
