# .PCD v0.7 - Point Cloud Data file format
VERSION 0.7
FIELDS x y z normal_x normal_y normal_z curvature
SIZE 4 4 4 4 4 4 4
TYPE F F F F F F F
COUNT 1 1 1 1 1 1 1
WIDTH 600
HEIGHT 1
VIEWPOINT 0 0 0 1 0 0 0
POINTS 600
DATA ascii
2548 -825 289 -0.98589963 0.11017247 0.12595235 0.14348201
2563 -795 290 -0.83271569 0.48537064 -0.26645812 0.15227745
2578 -782 292 -0.89858848 0.43833852 -0.019955382 0.14041202
2560 -812 290 -0.94634235 0.31293559 0.08066868 0.15204456
2576 -975 295 -0.79029119 -0.57898438 0.20054157 0.073688701
2539 -858 243 -0.94363678 -0.054009683 -0.32654637 0.14322913
2540 -857 289 -0.96706533 -0.089152597 0.23840387 0.084451653
2526 -835 287 -0.99833578 -0.04250747 -0.038972467 0.13875584
2551 -811 243 -0.91064173 0.32068506 -0.26056233 0.13323879
2542 -842 243 -0.92864937 0.12783082 -0.34823787 0.12298894
2539 -824 243 -0.90542567 0.23935986 -0.35058698 0.10989047
2574 -764 291 -0.7644065 0.52005154 -0.38108921 0.18868034
2547 -881 299 -0.97569257 -0.052875381 0.21266924 0.099476688
2533 -832 296 -0.97127372 -0.12912413 0.19988556 0.13713209
2545 -854 252 -0.97321624 -0.046893083 -0.22505806 0.13435204
2545 -850 298 -0.954252 -0.037497655 0.29664284 0.07931523
2571 -969 302 -0.80978757 -0.55316281 0.19558886 0.060903508
2547 -866 298 -0.95905942 -0.074694738 0.27317691 0.08715602
2536 -866 251 -0.98524463 -0.066034839 -0.15789987 0.14866625
2546 -840 252 -0.96474159 0.13904813 -0.22347087 0.11926029
2547 -825 252 -0.92974508 0.2548072 -0.26579595 0.10656203
2567 -798 299 -0.90762234 0.41299194 -0.075227752 0.16582637
2578 -771 300 -0.87035322 0.46817252 -0.15264256 0.17061524
2589 -760 301 -0.83390689 0.53258711 -0.14474197 0.16678734
2570 -784 299 -0.81327432 0.49224541 -0.310289 0.14823863
2552 -797 252 -0.90816659 0.39424083 -0.14073943 0.1350822
2562 -811 299 -0.94632602 0.2701869 0.17738701 0.15606594
2548 -811 252 -0.89255685 0.34077969 -0.29531607 0.11723989
2539 -819 297 -0.99352187 0.10921034 0.031422928 0.17663747
2559 -773 265 -0.92637461 0.30748665 0.21744446 0.14782299
2534 -844 268 -0.99699217 0.050661322 -0.058651879 0.11007696
2570 -772 310 -0.62731677 0.472381 -0.61913633 0.16813247
2543 -816 267 -0.94394106 0.29162991 -0.15468472 0.11856218
2560 -784 310 -0.59664261 0.36534742 -0.71452004 0.16493285
2564 -932 323 -0.91325456 -0.36560431 0.179721 0.087738618
2540 -830 268 -0.97460222 0.18569632 -0.12516911 0.10975801
2551 -802 266 -0.85435998 0.4459123 -0.26689169 0.11953252
2547 -932 276 -0.83965659 -0.20702726 0.50211197 0.10803499
2579 -758 310 -0.61834544 0.55691761 -0.55451936 0.20275268
2600 -993 285 -0.69505793 -0.71886969 0.010997906 0.071191609
2591 -746 310 -0.5998075 0.64884961 -0.46821478 0.18871833
2542 -891 317 -0.99823672 0.0068297875 0.058964238 0.090857632
2557 -809 256 -0.86952704 0.40594059 -0.2813094 0.1226024
2552 -821 256 -0.89433795 0.30222887 -0.32987475 0.11945098
2559 -769 256 -0.83235818 0.058801834 0.55110997 0.15712243
2560 -796 256 -0.90677297 0.41593048 -0.069025494 0.14513913
2543 -831 255 -0.94976091 0.21031249 -0.23178172 0.107357
2557 -940 276 -0.86980611 -0.23420595 0.43426374 0.12801446
2562 -926 277 -0.95707011 -0.11506714 0.2660383 0.19466713
2597 -990 281 -0.69479579 -0.71227729 0.099598281 0.083880015
2555 -829 275 -0.98359543 0.17190309 0.054673903 0.13120118
2538 -864 274 -0.98430276 -0.12861164 0.12086035 0.097503424
2560 -817 275 -0.93643481 0.33343318 -0.10914343 0.13339013
2547 -840 274 -0.99281251 0.066281602 0.09965007 0.11901386
2577 -769 276 -0.91903591 0.31045291 0.24288273 0.15380988
2570 -807 276 -0.90892106 0.41568273 -0.032715507 0.1252315
2572 -794 276 -0.89701444 0.44200021 -0.0009390784 0.13082047
2541 -851 274 -0.99289256 -0.037711516 0.11288122 0.11301829
2573 -781 276 -0.91459936 0.39779881 0.072554253 0.14259428
2558 -832 276 -0.98352319 0.16416216 0.075716443 0.13021678
2559 -859 323 -0.94218361 0.080918111 0.3251805 0.098803431
2541 -856 274 -0.99087501 -0.079313345 0.10897788 0.10605451
2560 -923 277 -0.93749565 -0.097330905 0.33410877 0.15510286
2553 -887 323 -0.98449212 0.016170075 0.17468242 0.10747188
2550 -935 276 -0.84633195 -0.2023845 0.49270964 0.10502018
2545 -899 322 -0.98958391 -0.049356874 0.13523161 0.10486951
2577 -883 279 -0.97185773 -0.21324344 -0.10009936 0.15488066
2556 -873 323 -0.9671213 0.15567389 0.20110177 0.084473215
2561 -818 276 -0.94370359 0.32139459 -0.078287967 0.13604711
2546 -843 275 -0.99351376 0.028835215 0.10999516 0.11636994
2563 -845 323 -0.87748951 0.028128222 0.47877026 0.089855999
2562 -830 322 -0.8710022 0.035706453 0.48997983 0.11447718
2606 -992 282 -0.69669962 -0.71330827 -0.076164082 0.090055846
2570 -806 277 -0.91081727 0.41269043 -0.0099211633 0.12416218
2579 -764 277 -0.92648071 0.292483 0.2368273 0.17491084
2566 -775 276 -0.9090119 0.40995395 -0.075067438 0.16259736
2572 -792 277 -0.89744705 0.4405019 -0.023385584 0.13592023
2544 -829 272 -0.98430479 0.16009092 -0.07426241 0.11656529
2555 -882 274 -0.98176754 -0.16267295 0.098335735 0.12616652
2559 -934 275 -0.88908821 -0.19067122 0.4161329 0.13967258
2556 -817 272 -0.93160927 0.33179569 -0.14837734 0.13327037
2568 -787 273 -0.8907935 0.44924664 -0.068296559 0.14769579
2553 -898 274 -0.96797675 -0.081983835 0.23727565 0.12733315
2558 -867 274 -0.97585899 -0.21055821 0.058004759 0.12811796
2551 -914 274 -0.90822273 -0.071188539 0.41238782 0.12139473
2565 -803 273 -0.8748939 0.4574205 -0.15914488 0.1248922
2608 -989 280 -0.69140273 -0.7124297 -0.12002616 0.09200386
2574 -773 273 -0.93448132 0.2786938 0.22152738 0.1409788
2581 -765 304 -0.84744668 0.47763509 -0.23173003 0.18602705
2599 -752 306 -0.77641881 0.62226951 -0.09977223 0.17079051
2562 -844 291 -0.95825583 0.023414599 0.28495187 0.098199435
2576 -766 290 -0.87939364 0.44628274 -0.16582657 0.17654431
2584 -970 295 -0.78539002 -0.60256702 0.14168815 0.069542408
2549 -829 247 -0.903732 0.2535778 -0.34491545 0.11910997
2587 -753 291 -0.85221738 0.51500034 0.092196852 0.18391173
2551 -813 246 -0.89258212 0.3441444 -0.29131049 0.1264714
2553 -874 290 -0.97193491 -0.12124086 0.20160156 0.092472486
2570 -946 293 -0.8972156 -0.39399636 0.19942659 0.096607886
2564 -927 292 -0.96913791 -0.22437164 0.10212316 0.13331839
2555 -907 291 -0.9923386 -0.10196222 0.069769792 0.11021233
2558 -892 291 -0.98724329 -0.1071094 0.117806 0.093715779
2553 -791 289 -0.74579817 0.45888546 -0.48291749 0.15145974
2539 -858 246 -0.9582178 -0.083862275 -0.27347007 0.14075181
2560 -777 289 -0.71821582 0.50629687 -0.47731492 0.16452806
2557 -799 247 -0.92854762 0.36036813 -0.08907377 0.13082862
2545 -821 288 -0.98098487 0.18265754 0.0656121 0.1446358
2542 -843 246 -0.94558007 0.11032517 -0.30611563 0.12114003
2556 -858 290 -0.9689613 -0.10040139 0.22590604 0.090318963
2557 -834 274 -0.98736668 0.15085636 0.048471171 0.13495424
2540 -842 273 -0.99741012 0.044081662 0.056831297 0.11363792
2575 -799 276 -0.88046706 0.47136983 -0.050874051 0.12293618
2569 -919 277 -0.99538511 -0.091702007 -0.028269159 0.20424455
2555 -874 275 -0.97730851 -0.20973679 0.029640889 0.12501971
2573 -785 275 -0.92045981 0.3872683 0.052697208 0.14259741
2560 -930 276 -0.90431261 -0.15631278 0.39722151 0.15776367
2566 -810 275 -0.90808678 0.40970472 -0.086719967 0.1381855
2560 -822 274 -0.95583105 0.29197994 -0.033685893 0.13820621
2542 -856 273 -0.99275756 -0.080193937 0.08944995 0.11102503
2601 -981 280 -0.69788229 -0.7089234 -0.10192138 0.10133522
2578 -773 275 -0.92654228 0.3203572 0.19720738 0.15533733
2552 -809 236 -0.9074468 0.27836508 -0.3147271 0.14149101
2561 -933 281 -0.91826475 -0.21842705 0.33027181 0.14060558
2559 -918 281 -0.96285945 -0.13764615 0.23228244 0.14086127
2598 -982 285 -0.71331787 -0.70068967 0.014542205 0.088791877
2560 -905 281 -0.98949152 -0.094844393 0.10913782 0.13568351
2542 -858 278 -0.97782451 -0.08184389 0.19277132 0.099107005
2550 -874 279 -0.97665697 -0.17509954 0.12442382 0.10140486
2567 -799 280 -0.87551951 0.47490865 -0.089036085 0.13526186
2579 -775 280 -0.91949564 0.38940427 0.053777453 0.14980848
2536 -842 277 -0.99331313 0.021267503 0.11347521 0.11008382
2583 -763 281 -0.90010464 0.31446311 0.30153707 0.17094764
2546 -832 278 -0.99092311 0.10986143 0.077471778 0.12342111
2559 -823 279 -0.9697873 0.22440164 0.095689714 0.14097732
2562 -810 279 -0.92370731 0.38304332 -0.0065280744 0.13481274
2569 -786 280 -0.89605111 0.44122887 -0.049085803 0.14652663
2574 -896 282 -0.97653478 -0.11596668 -0.18147075 0.14880231
2549 -856 259 -0.97867543 -0.10697435 -0.17535967 0.13704936
2552 -831 259 -0.94274336 0.22998352 -0.24154197 0.12493993
2543 -868 259 -0.97586733 -0.20851476 -0.064842738 0.1292402
2571 -796 261 -0.91276819 0.40847734 0.00074100017 0.14449763
2555 -805 259 -0.86285144 0.44487563 -0.23994392 0.12650114
2543 -881 259 -0.98735273 -0.076639175 0.13878459 0.13302493
2546 -815 258 -0.90069872 0.33132717 -0.28100565 0.11803696
2551 -844 259 -0.98852897 0.055869382 -0.14031744 0.13422012
2557 -822 285 -0.96412349 0.20676963 0.16646975 0.13910049
2557 -908 287 -0.9904449 -0.097667128 0.097365573 0.11322045
2565 -946 288 -0.8845225 -0.35716873 0.30008399 0.11440961
2573 -792 286 -0.87851572 0.45722136 -0.13841532 0.14409816
2574 -775 286 -0.9046191 0.41425973 -0.10026506 0.15364544
2551 -888 286 -0.9805159 -0.10898753 0.16343322 0.093829043
2551 -839 239 -0.88351208 0.15898313 -0.44060281 0.13818377
2559 -926 287 -0.97277588 -0.1531048 0.1739711 0.14568308
2556 -873 286 -0.97570157 -0.1342182 0.17318158 0.092747748
2565 -807 285 -0.91570604 0.39741647 -0.059520066 0.15074524
2558 -856 286 -0.97585344 -0.0895757 0.19921415 0.097993106
2535 -832 283 -0.99766695 0.065806732 0.018170649 0.13289087
2554 -857 239 -0.84817946 -0.089198515 -0.52214479 0.16823032
2576 -758 285 -0.90431345 0.41334191 0.10661026 0.17415752
2582 -971 290 -0.79501069 -0.59082615 0.13741367 0.073207617
2559 -894 327 -0.99643904 0.021053227 0.08164563 0.11234668
2547 -908 281 -0.96154666 -0.1057177 0.25347915 0.11201923
2551 -925 282 -0.91290939 -0.17894883 0.36684299 0.13241589
2562 -880 327 -0.98976159 0.10653818 0.094982222 0.10494731
2583 -889 285 -0.95060199 -0.11155919 -0.28967285 0.14015837
2557 -847 325 -0.90006989 -0.0015169571 0.435743 0.083104931
2562 -787 281 -0.82671076 0.50118637 -0.25565898 0.14411673
2527 -839 278 -0.99913406 0.030234775 -0.028580876 0.11277062
2571 -774 281 -0.90379369 0.42406982 -0.05763533 0.15260735
2556 -801 280 -0.84698039 0.47416791 -0.2403934 0.13100398
2571 -901 284 -0.98136777 -0.084514081 -0.17255321 0.13394386
2567 -865 327 -0.96733385 0.18193057 0.17654015 0.097465292
2546 -813 280 -0.94642699 0.29393315 -0.13371359 0.13985099
2586 -974 286 -0.75680995 -0.64535344 0.10371962 0.076757267
2569 -835 327 -0.82899582 0.07407786 0.55432689 0.093865909
2558 -945 283 -0.85809344 -0.30197263 0.415317 0.12240925
2536 -857 279 -0.97716463 -0.097837709 0.18861885 0.096103504
2530 -824 278 -0.95149601 0.18022728 -0.24934623 0.12828206
2574 -759 281 -0.93116289 0.32099861 0.17290325 0.18744142
2559 -883 326 -0.98900998 0.077282414 0.12604286 0.11275129
2547 -897 325 -0.97752416 -0.017863259 0.21006504 0.10532415
2557 -863 325 -0.94870085 0.15521909 0.27545178 0.082917668
2558 -845 324 -0.88533145 -0.01015628 0.46484947 0.085842207
2562 -828 324 -0.85953069 0.012828691 0.51092315 0.12173615
2556 -914 314 -0.98992884 -0.12844749 0.059515145 0.098912142
2556 -935 316 -0.91301858 -0.35904616 0.19360508 0.083148725
2568 -837 309 -0.89313906 0.10303716 0.43781954 0.09058547
2559 -854 310 -0.91889429 -0.027639326 0.39353448 0.085480683
2595 -746 305 -0.70739448 0.66778785 -0.23162988 0.19900905
2555 -893 312 -0.9977448 -0.0061623692 0.066837206 0.10862672
2553 -872 310 -0.96375996 -0.0066487561 0.26668796 0.10459596
2575 -760 304 -0.67796648 0.51159328 -0.52785772 0.20730063
2564 -776 304 -0.6346637 0.47769246 -0.60746348 0.17067213
2597 -983 289 -0.71569884 -0.69807619 0.021558667 0.069932997
2539 -828 273 -0.97771531 0.19063056 -0.087935716 0.11484211
2544 -815 272 -0.91883212 0.30251074 -0.2534458 0.12910651
2582 -889 281 -0.92167485 -0.11781113 -0.36964309 0.15384494
2551 -925 281 -0.90816754 -0.1765769 0.37954217 0.13261658
2532 -841 273 -0.99890107 0.039827805 0.024705054 0.10343423
2571 -931 293 -0.97042823 -0.24101394 0.01346714 0.14370321
2564 -892 289 -0.99078977 -0.12043968 0.061886314 0.10768522
2577 -879 289 -0.9955197 -0.089787319 0.029642886 0.13082862
2547 -838 240 -0.90876889 0.15557821 -0.38721386 0.12639324
2551 -857 241 -0.88458985 -0.10156733 -0.45517567 0.16023058
2566 -911 291 -0.99522161 -0.085998356 -0.046241812 0.12200484
2560 -802 282 -0.86908829 0.46119922 -0.17883152 0.13841113
2547 -804 237 -0.94502914 0.2623482 -0.19517539 0.13613045
2538 -813 280 -0.91772181 0.30575201 -0.2535792 0.13345592
2563 -786 281 -0.82384449 0.51020217 -0.24692918 0.14546663
2576 -756 279 -0.89353329 0.3292259 0.30530086 0.17156269
2571 -772 280 -0.9292171 0.36926028 0.014230668 0.16770099
2550 -822 239 -0.88514435 0.25255761 -0.39081213 0.1335699
2559 -919 282 -0.96769893 -0.13687469 0.21171714 0.13915496
2596 -974 289 -0.74878949 -0.6627171 -0.010969566 0.087999478
2563 -940 284 -0.89778882 -0.28070283 0.33938342 0.12738258
2572 -865 323 -0.97871125 0.16992688 0.11510491 0.10505085
2543 -842 275 -0.99215055 0.036157649 0.11970781 0.1129484
2553 -810 273 -0.88130766 0.38551795 -0.27326313 0.1364052
2567 -881 324 -0.99786645 0.064393856 0.010768859 0.1162571
2567 -904 282 -0.98760027 -0.077422842 -0.1365699 0.13487543
2563 -779 271 -0.89377892 0.4467546 -0.03961942 0.16325666
2552 -828 274 -0.98463738 0.17451264 -0.0058814571 0.1284883
2597 -749 316 -0.62360734 0.66423911 -0.4121896 0.16737114
2577 -849 322 -0.95516729 0.10664412 0.27619287 0.10934415
2565 -797 273 -0.86677474 0.466822 -0.17543887 0.13354921
2565 -899 325 -0.99992621 0.007459275 0.0095866835 0.10773665
2581 -761 316 -0.70811266 0.53711051 -0.45835441 0.17795996
2543 -860 276 -0.97782385 -0.11915743 0.1722265 0.10818155
2543 -832 263 -0.96825612 0.18834518 -0.16433534 0.11759897
2559 -792 261 -0.89996833 0.43264449 -0.053627267 0.14057304
2556 -930 271 -0.86762697 -0.155375 0.47231555 0.1478532
2536 -815 261 -0.91360867 0.31776029 -0.25366825 0.11100344
2537 -846 263 -0.99297291 0.035314765 -0.11295024 0.11755393
2542 -862 265 -0.98656702 -0.15501827 -0.051526241 0.12609419
2532 -874 265 -0.99238318 -0.09134163 0.082658343 0.11056232
2573 -951 304 -0.8610639 -0.460749 0.21512619 0.075829722
2554 -872 257 -0.95523065 -0.27132362 -0.11797433 0.14862327
2568 -846 302 -0.94258231 0.0040774243 0.33394906 0.092121921
2563 -832 257 -0.92570645 0.24201566 -0.29068187 0.14392956
2543 -823 299 -0.98066956 0.040595423 0.19141388 0.17005129
2544 -809 299 -0.94069409 0.25157136 -0.22761054 0.19466282
2572 -804 302 -0.93567914 0.32743984 0.13148265 0.15607744
2562 -901 303 -0.99898481 -0.043421701 0.011997074 0.099400386
2559 -845 257 -0.9833867 0.031747002 -0.17872523 0.15313584
2582 -971 306 -0.79820329 -0.59228092 0.10988501 0.063335784
2563 -873 302 -0.96795535 -0.026504884 0.24971956 0.10087426
2546 -883 256 -0.97549146 -0.053555403 0.21342029 0.14475763
2561 -860 257 -0.96590745 -0.22549108 -0.12718703 0.16867341
2563 -887 303 -0.99255782 -0.043264601 0.11382907 0.10637029
2568 -860 303 -0.95370394 -0.073131487 0.29172012 0.096949153
2567 -805 257 -0.86889344 0.43934742 -0.22803076 0.14410858
2568 -931 304 -0.94601667 -0.31070992 0.092258848 0.093762875
2562 -818 257 -0.89961636 0.34720969 -0.26483178 0.12061772
2559 -914 302 -0.99436015 -0.10568494 -0.0088651218 0.10236398
2589 -767 303 -0.87089306 0.49144742 0.0049757808 0.14561117
2573 -790 302 -0.90474176 0.42197162 -0.058158137 0.14714719
2586 -780 303 -0.85428786 0.50429821 -0.1259983 0.12984675
2581 -886 289 -0.97936523 -0.060781147 -0.1927418 0.12531365
2554 -908 286 -0.98632145 -0.1050916 0.12698725 0.11443399
2557 -925 287 -0.96200264 -0.1763957 0.20841165 0.14302363
2593 -973 291 -0.75293678 -0.65467453 0.066988736 0.070628926
2564 -944 287 -0.88127488 -0.34834275 0.3193931 0.11906903
2565 -893 334 -0.98207897 0.057683889 0.17942546 0.098576024
2581 -902 289 -0.95762229 -0.022214558 -0.28716889 0.14320421
2574 -789 286 -0.85663933 0.48206392 -0.18380281 0.14358689
2551 -829 284 -0.98245591 0.12325212 0.1399617 0.12545097
2543 -842 284 -0.9769991 0.028443323 0.21133813 0.098050356
2562 -817 285 -0.94162333 0.29433796 0.16343412 0.14162661
2548 -859 285 -0.96940929 -0.10264316 0.22295734 0.088428155
2569 -803 286 -0.89598048 0.44406912 0.0046380437 0.14270473
2567 -878 334 -0.97789794 0.1748817 0.11459529 0.10039119
2570 -847 333 -0.90629768 0.11989401 0.4052777 0.10553805
2574 -758 285 -0.84132636 0.50163668 -0.20132224 0.20459166
2560 -893 312 -0.99920541 -0.011037191 0.03829788 0.1165169
2553 -927 314 -0.96263903 -0.25821468 0.081555083 0.093345746
2555 -909 313 -0.99591458 -0.089426897 0.012532053 0.10010227
2562 -936 271 -0.86580569 -0.2039236 0.45694152 0.17450607
2538 -872 264 -0.99128431 -0.12216822 0.04929664 0.1223479
2565 -877 311 -0.99218589 0.069605738 0.10354754 0.1217422
2557 -791 260 -0.92364931 0.38319033 0.0060955063 0.13034932
2553 -842 263 -0.99162847 0.070930384 -0.10789783 0.13424289
2552 -807 261 -0.8692947 0.4263508 -0.25010377 0.11660196
2569 -789 304 -0.86306959 0.44658875 -0.2359436 0.17263296
2544 -822 261 -0.94454211 0.26115295 -0.19909637 0.11177386
2580 -775 304 -0.82982612 0.49864259 -0.25048801 0.16264234
2565 -859 310 -0.94344193 -0.013404936 0.33126688 0.098887518
2568 -842 309 -0.8959617 0.053002376 0.44095737 0.088740304
2538 -855 263 -0.9942745 -0.058884896 -0.089166984 0.11832467
2573 -959 301 -0.83515656 -0.50054455 0.22796656 0.068951137
2555 -911 296 -0.99355793 -0.10467336 0.043428827 0.10510479
2535 -824 287 -0.99103856 0.10972582 -0.076176256 0.14616434
2568 -936 299 -0.91810709 -0.33246231 0.21575023 0.10535518
2559 -892 295 -0.98717731 -0.087483771 0.13351965 0.094382718
2565 -755 284 -0.55651921 -0.26703882 0.78675073 0.22641057
2562 -793 287 -0.80423576 0.50778508 -0.3088026 0.14651921
2553 -850 291 -0.95913005 -0.024508577 0.2819021 0.084840558
2557 -811 288 -0.94508082 0.32635647 0.017715016 0.15027241
2569 -775 286 -0.82461232 0.46708253 -0.31913701 0.17474884
2555 -871 293 -0.9711706 -0.12221002 0.20467627 0.092573538
2567 -931 287 -0.95246542 -0.21737961 0.21343765 0.1522847
2552 -907 284 -0.97570449 -0.099320158 0.19528477 0.1174436
2555 -807 276 -0.87254786 0.42059377 -0.24851789 0.14131822
2542 -836 277 -0.99396592 0.058828909 0.09257976 0.12314877
2556 -857 280 -0.98071116 -0.1263179 0.14916228 0.10963386
2554 -823 277 -0.97209102 0.23211585 0.034077067 0.14149025
2563 -793 276 -0.83755857 0.49979243 -0.22068794 0.1360314
2564 -776 274 -0.8774628 0.45584759 -0.14920457 0.16881382
2574 -763 274 -0.92484683 0.22171783 0.30903009 0.17348951
2554 -874 281 -0.97556168 -0.16721833 0.14253946 0.1070605
2579 -757 320 -0.52111995 0.50915462 -0.68497849 0.19085845
2600 -746 322 -0.68839353 0.72465813 -0.031382553 0.17099899
2553 -891 282 -0.98236001 -0.10625198 0.15388075 0.10506252
2563 -814 283 -0.92656702 0.36680168 0.08324676 0.13506667
2583 -773 284 -0.86264223 0.48316574 -0.14966378 0.17248273
2554 -870 330 -0.95878243 0.18148023 0.21863444 0.073600546
2575 -786 284 -0.88121861 0.45804793 -0.11681511 0.14601845
2548 -898 329 -0.96037102 -0.03109107 0.27698541 0.10675451
2560 -856 330 -0.93704748 0.15078396 0.31497014 0.082971036
2561 -954 285 -0.82153749 -0.40185955 0.40445647 0.1157584
2548 -883 329 -0.97224659 0.16529448 0.16557278 0.086494967
2543 -838 282 -0.98223627 0.030046349 0.18522735 0.11133777
2552 -933 284 -0.91194385 -0.22977977 0.33994079 0.12884156
2563 -841 330 -0.81343997 0.044954959 0.57990909 0.098683052
2568 -828 330 -0.8143757 0.040247601 0.57894081 0.1164437
2592 -984 288 -0.72045642 -0.69073516 0.061866347 0.075754762
2573 -801 284 -0.87899542 0.47099856 -0.074347429 0.12878932
2561 -829 283 -0.96246934 0.19175279 0.19205141 0.1250878
2551 -857 260 -0.97791213 -0.15317655 -0.14221375 0.14980727
2568 -795 261 -0.91167998 0.41059285 0.015907697 0.13688515
2560 -806 260 -0.86183596 0.44281501 -0.24729276 0.12662764
2552 -830 260 -0.9428851 0.22089012 -0.24934977 0.12904131
2557 -845 260 -0.98953456 0.045136705 -0.13705494 0.15187164
2559 -819 260 -0.90986586 0.3451505 -0.23025031 0.12250832
2544 -882 259 -0.97953427 -0.06969282 0.1888267 0.13928854
2553 -925 261 -0.79590327 -0.17569782 0.57936889 0.13181579
2554 -871 260 -0.95024484 -0.28216776 -0.13196974 0.14990927
2559 -879 320 -0.99168468 0.10242236 0.077917799 0.11620945
2568 -848 318 -0.91299385 0.04199075 0.40580657 0.087417543
2555 -895 321 -0.99602884 0.0097194696 0.088498525 0.11379341
2558 -784 266 -0.92060477 0.39036307 -0.010177826 0.15375181
2597 -975 284 -0.72111589 -0.69175702 -0.038263444 0.097189397
2556 -800 267 -0.86472905 0.44566974 -0.23156479 0.12381635
2549 -831 269 -0.98801303 0.14449476 -0.054327182 0.11858613
2582 -893 277 -0.93700218 -0.11177378 -0.33095858 0.15252446
2535 -860 270 -0.99126852 -0.10879532 0.074500337 0.093852974
2552 -816 268 -0.91700029 0.32470515 -0.23168324 0.12963577
2568 -831 317 -0.87158394 0.13674526 0.47078893 0.10331273
2555 -919 277 -0.91796744 -0.11507081 0.37959778 0.14137529
2565 -864 319 -0.96727389 0.082903273 0.23980866 0.10131326
2538 -844 269 -0.99962831 0.026962856 -0.0040322333 0.11515313
2563 -942 279 -0.86909705 -0.3122308 0.38364342 0.1509579
2583 -775 268 -0.91976881 0.32347965 0.22223026 0.18542083
2575 -766 312 -0.64550197 0.45111313 -0.61629868 0.18993203
2588 -753 312 -0.67300802 0.58407921 -0.45377493 0.19335321
2573 -782 313 -0.78389412 0.49883434 -0.3696948 0.17205058
2574 -964 305 -0.82639974 -0.53664386 0.17051928 0.058513779
2552 -884 297 -0.98303586 -0.062774114 0.17233631 0.10327705
2569 -761 289 -0.76990789 0.46218589 -0.44002956 0.20354846
2546 -822 247 -0.90789598 0.27368879 -0.31752059 0.10346827
2549 -855 250 -0.97012138 -0.07618504 -0.23034847 0.14495887
2553 -852 294 -0.95563632 -0.010680441 0.29435545 0.082683705
2557 -869 296 -0.96195066 -0.097291276 0.25531432 0.09679471
2558 -919 300 -0.99279761 -0.11897022 0.014106011 0.10849185
2559 -790 290 -0.73342848 0.50443155 -0.45566586 0.14825262
2549 -803 290 -0.87126547 0.38146478 -0.30883813 0.15816814
2587 -751 290 -0.85203922 0.519665 0.06306728 0.17873433
2570 -942 303 -0.91634315 -0.36397856 0.16683784 0.097651258
2555 -901 298 -0.99449015 -0.075311527 0.072921604 0.097230621
2560 -774 289 -0.6881513 0.50923461 -0.51684415 0.16522655
2544 -833 292 -0.98153681 -0.002769053 0.19125344 0.12944302
2547 -870 251 -0.96215248 -0.19716746 -0.18811619 0.15901345
2550 -840 249 -0.94484329 0.1429977 -0.29465702 0.12880722
2603 -981 284 -0.68491393 -0.71507686 -0.13984957 0.095645033
2563 -877 279 -0.98319811 -0.17960586 0.032606184 0.12703733
2560 -916 279 -0.96577823 -0.12985365 0.2245225 0.13907348
2561 -903 279 -0.98861408 -0.084852494 0.12426662 0.13869989
2543 -830 277 -0.99083364 0.12892674 0.040330574 0.11932477
2562 -890 279 -0.99043697 -0.13795942 0.0012856137 0.12873292
2562 -809 278 -0.91771841 0.39694095 -0.015191342 0.13337353
2556 -820 278 -0.96378553 0.26654935 -0.008292974 0.13753979
2560 -851 234 -0.81148374 -0.027016699 -0.58375007 0.17697176
2567 -797 278 -0.87281096 0.47461104 -0.11377799 0.13553175
2586 -776 280 -0.87497365 0.47017747 -0.11556119 0.17273314
2582 -761 279 -0.90816844 0.34877408 0.23148824 0.171235
2564 -931 280 -0.94808924 -0.18497232 0.25867373 0.18412864
2578 -787 279 -0.89556456 0.44296268 -0.041811615 0.15513603
2556 -863 234 -0.78582764 -0.14235424 -0.60183895 0.17821147
2562 -884 312 -0.99483889 0.0076783029 0.1011758 0.11514749
2572 -786 265 -0.92617106 0.33786589 0.16749284 0.14514084
2572 -772 264 -0.92319256 0.21371007 0.3194426 0.16733322
2550 -895 311 -0.99672359 -0.038403045 0.071184136 0.1036991
2562 -813 264 -0.89287835 0.38404304 -0.23511542 0.13331826
2565 -930 313 -0.94413561 -0.3049598 0.12492956 0.09263172
2565 -799 264 -0.88784504 0.44089347 -0.131697 0.13548966
2554 -929 265 -0.80643612 -0.16499493 0.56783575 0.13239561
2547 -838 263 -0.98722476 0.12283166 -0.10148705 0.12069204
2567 -841 312 -0.89896744 0.050365869 0.43511006 0.086504124
2551 -910 311 -0.99451339 -0.10253487 0.020729477 0.09793824
2556 -826 264 -0.94839096 0.26401892 -0.17563759 0.13048713
2567 -855 312 -0.93328243 0.010575963 0.35898766 0.090557694
2593 -758 312 -0.71696305 0.5929231 -0.36661461 0.16276768
2561 -869 311 -0.96598488 -0.0061565284 0.25852516 0.10409887
2540 -865 263 -0.96717095 -0.22469637 -0.11870965 0.13253331
2539 -850 263 -0.99660289 -0.0095506096 -0.081801087 0.12102757
2574 -783 311 -0.79922706 0.50218278 -0.33022514 0.16993891
2557 -916 283 -0.97377807 -0.13422015 0.18368767 0.13631614
2602 -985 289 -0.69529504 -0.71603465 -0.062121935 0.087670051
2555 -884 283 -0.98477912 -0.14386781 0.097529992 0.099037446
2562 -934 284 -0.91932416 -0.24209897 0.31021166 0.13402456
2548 -897 282 -0.97575891 -0.099601045 0.19486982 0.10701162
2535 -830 280 -0.99185103 0.11628915 -0.052041795 0.13154179
2548 -819 281 -0.96539915 0.2574932 -0.041251998 0.13354385
2546 -839 239 -0.90902317 0.14656259 -0.39012358 0.12613763
2549 -855 239 -0.90138972 -0.065742716 -0.42798874 0.15208912
2546 -849 281 -0.97703373 -0.04711543 0.20781052 0.10435938
2549 -866 282 -0.97059411 -0.12915613 0.2031399 0.097271755
2566 -864 244 -0.67158502 -0.36102369 -0.6470204 0.21624304
2557 -835 258 -0.96050704 0.19617075 -0.19734044 0.13987839
2555 -875 259 -0.94357985 -0.28721741 -0.16481282 0.14852734
2565 -824 259 -0.92126864 0.28755143 -0.26187456 0.13348596
2560 -863 259 -0.94630396 -0.2813395 -0.15923853 0.15835537
2556 -848 258 -0.98243129 -0.024866277 -0.18496066 0.14962047
2566 -913 308 -0.99443418 -0.10409349 0.016284889 0.10834272
2562 -892 306 -0.99837732 -0.025167326 0.051082615 0.1060785
2565 -933 309 -0.94147998 -0.31280169 0.12558083 0.090228036
2553 -933 261 -0.78749317 -0.15275298 0.59709376 0.12126405
2573 -956 312 -0.83967775 -0.47322759 0.26645252 0.069859043
2548 -853 255 -0.98062855 -0.073433109 -0.18159069 0.13000792
2568 -875 305 -0.98019308 0.026138751 0.19631191 0.11687996
2584 -783 299 -0.84864312 0.51864249 -0.10399451 0.13254747
2575 -858 304 -0.95290703 -0.084351353 0.29129547 0.10302232
2582 -764 297 -0.88392633 0.46755528 -0.0081394976 0.19429632
2544 -809 297 -0.90735525 0.30071118 -0.29373324 0.18302375
2575 -799 299 -0.92977643 0.36500126 0.047852427 0.13473906
2545 -814 252 -0.89721906 0.33066678 -0.29267293 0.11552718
2546 -834 253 -0.95572394 0.18923225 -0.22535034 0.10736147
2543 -871 256 -0.9911992 -0.11564925 -0.064416081 0.14900619
2580 -744 295 -0.72143334 0.58952612 -0.36330822 0.2308141
2566 -835 301 -0.92086393 0.11138193 0.3736358 0.095835358
2564 -941 294 -0.92428833 -0.32707033 0.19676378 0.11649065
2600 -746 329 -0.70575684 0.7083407 0.012679002 0.16534448
2556 -856 287 -0.97066045 -0.095833145 0.220532 0.092904247
2582 -968 298 -0.80165362 -0.56942415 0.18195514 0.063173994
2568 -800 284 -0.85967565 0.49193251 -0.13769606 0.13793777
2564 -759 280 -0.87317407 -0.046290118 0.48520535 0.22717021
2563 -919 292 -0.99126208 -0.13169339 0.007512345 0.1191716
2563 -878 289 -0.98729354 -0.09766075 0.12535517 0.10120159
2571 -781 283 -0.88162386 0.4572933 -0.11671446 0.15303266
2559 -817 284 -0.9567793 0.27377447 0.098086834 0.14233415
2548 -834 285 -0.97725195 0.066654682 0.201335 0.11390491
2561 -898 291 -0.99127275 -0.10709102 0.076875761 0.10593992
2543 -848 251 -0.97547096 0.017954692 -0.21939483 0.12574582
2542 -833 250 -0.9419682 0.19757201 -0.27140579 0.11483822
2546 -864 253 -0.95493656 -0.20992982 -0.2098228 0.15406176
2562 -824 251 -0.8833006 0.293569 -0.36550969 0.13509849
2571 -850 301 -0.94783622 -0.015808871 0.3183654 0.083214387
2552 -848 253 -0.96699798 0.043847352 -0.25098285 0.13705811
2555 -819 253 -0.8776626 0.33805346 -0.3397471 0.12165764
2566 -923 301 -0.9794876 -0.1972319 0.04127435 0.10853248
2555 -904 300 -0.9966445 -0.072701082 0.037606779 0.096184783
2568 -804 300 -0.91826844 0.37219465 0.13510792 0.16164918
2546 -812 297 -0.98136514 0.18667799 -0.045538474 0.18831478
2546 -875 252 -0.98708355 -0.11530204 -0.11122733 0.16299738
2558 -890 300 -0.98993325 -0.068080477 0.12408565 0.10039472
2552 -833 252 -0.92643112 0.21689788 -0.30770218 0.13052246
2568 -940 302 -0.90730488 -0.35460195 0.22595432 0.10347378
2566 -863 300 -0.96114397 -0.081817031 0.26364392 0.092814222
2563 -877 300 -0.97592336 -0.050101347 0.2122816 0.10226857
2579 -962 303 -0.82208359 -0.53331089 0.19939411 0.067537241
2545 -827 298 -0.96533477 0.040540531 0.25784743 0.14558618
2557 -864 253 -0.94954175 -0.2558513 -0.18141259 0.16598803
2576 -792 300 -0.90590787 0.42334813 -0.010353915 0.13969685
2588 -765 301 -0.89680463 0.41594848 0.15075934 0.16123082
2579 -778 300 -0.82679147 0.5206145 -0.21301763 0.16526876
2589 -751 301 -0.83348209 0.55082679 -0.04356011 0.18273288
2601 -979 279 -0.69146329 -0.71776843 -0.081773899 0.097723551
2566 -930 275 -0.95235717 -0.2117878 0.2194577 0.19964948
2562 -787 272 -0.8855117 0.45754808 -0.08073961 0.13882443
2566 -772 272 -0.94538313 0.27111286 0.18096597 0.1668781
2551 -877 273 -0.97859108 -0.19537553 0.064714134 0.12810732
2584 -762 274 -0.90785736 0.31162676 0.28050613 0.16303854
2557 -895 273 -0.98717564 -0.10040299 0.12411106 0.13410325
2579 -758 317 -0.53755736 0.5250023 -0.65985203 0.18178155
2538 -857 271 -0.994717 -0.08133813 0.062627539 0.1070436
2558 -801 272 -0.87104106 0.45289782 -0.19018687 0.12324816
2539 -826 271 -0.96455556 0.21485808 -0.15319455 0.11531698
2600 -748 319 -0.67898607 0.72519994 -0.11429324 0.17484972
2565 -913 274 -0.99236435 -0.08772812 0.086699255 0.18390425
2550 -814 271 -0.92778444 0.32954383 -0.17497675 0.12165195
2528 -838 270 -0.99167776 0.093902126 -0.088076986 0.10620328
2560 -907 301 -0.9966417 -0.081821218 -0.0032528758 0.10243116
2548 -802 292 -0.8375935 0.40050697 -0.37152562 0.16180949
2560 -866 298 -0.95499349 -0.083786897 0.2845476 0.093328632
2578 -976 308 -0.78736943 -0.60997283 0.089344844 0.066035382
2565 -929 304 -0.94769049 -0.29666203 0.11778951 0.094629586
2563 -787 292 -0.74014074 0.51205164 -0.43588382 0.14968292
2563 -847 297 -0.94030726 -0.0029098664 0.34031424 0.086952224
2558 -885 300 -0.98290193 -0.053969938 0.17604269 0.10573699
2570 -769 292 -0.83704382 0.43292227 -0.33456844 0.17806208
2574 -946 294 -0.88587439 -0.40960148 0.21783726 0.10814026
2563 -911 293 -0.99526215 -0.089967765 -0.036864419 0.11807835
2553 -878 291 -0.97547573 -0.10320401 0.19441187 0.088741489
2597 -973 297 -0.76883036 -0.6385864 0.033274584 0.074596465
2546 -831 290 -0.98516262 0.031425487 0.16872154 0.13392743
2557 -864 291 -0.96633071 -0.098560244 0.23767808 0.088021964
2555 -849 291 -0.95817065 -0.0097731836 0.28603065 0.089007422
2568 -928 293 -0.97268003 -0.22245686 0.066382147 0.13404074
2556 -893 292 -0.98653328 -0.09292379 0.13460051 0.093403973
2575 -795 292 -0.90211177 0.42472199 -0.076194875 0.13982722
2586 -754 292 -0.87030119 0.47069335 0.14499499 0.18129824
2567 -807 292 -0.92342144 0.38327229 0.019879594 0.15924422
2551 -817 290 -0.96535957 0.24356771 0.093572319 0.14748171
2579 -767 292 -0.89317495 0.44832441 -0.035266455 0.1813153
2582 -782 292 -0.87093574 0.48515481 -0.078075804 0.14669907
2572 -920 272 -0.99575353 -0.030917123 -0.086711906 0.21288653
2564 -930 318 -0.94243133 -0.31063378 0.12381399 0.095934212
2558 -911 315 -0.99367416 -0.10823039 0.029963607 0.10119119
2532 -874 266 -0.99065506 -0.076403126 0.11298299 0.10907619
2558 -933 272 -0.85564727 -0.22324263 0.46693724 0.15797514
2555 -893 314 -0.99672383 -0.0074966443 0.080532819 0.10694009
2557 -878 313 -0.98874569 0.050959442 0.14065926 0.12017996
2548 -863 266 -0.97837925 -0.20522654 -0.02561605 0.1351615
2571 -850 312 -0.92297733 0.024245005 0.38408983 0.087935679
2578 -756 305 -0.56650877 0.57803553 -0.58731824 0.21148999
2564 -864 312 -0.94788259 -0.0075868508 0.31852946 0.11089601
2557 -786 261 -0.91833472 0.3940101 0.037647426 0.13312258
2564 -768 304 -0.55280733 0.41873699 -0.72046059 0.17853531
2542 -813 262 -0.89744937 0.34700027 -0.27235156 0.11620893
2539 -844 264 -0.996301 0.043878846 -0.073885217 0.11743782
2558 -782 305 -0.57925832 0.43779603 -0.68760049 0.15789114
2544 -830 263 -0.96240151 0.20147836 -0.18218091 0.11251287
2568 -910 284 -0.98927653 -0.11626043 -0.088404357 0.14205736
2572 -867 329 -0.97641981 0.18861288 0.10502179 0.091991559
2572 -852 329 -0.92519867 0.15464735 0.3465423 0.081909046
2575 -898 285 -0.97434866 -0.07694649 -0.21148039 0.13912646
2562 -922 284 -0.98134005 -0.1188072 0.15118401 0.14015527
2565 -940 284 -0.89736956 -0.32762191 0.29562089 0.13781947
2545 -845 281 -0.98369879 0.01672243 0.17904501 0.10605327
2587 -966 287 -0.80736059 -0.57947248 0.11126807 0.091577619
2540 -858 281 -0.97183222 -0.091904841 0.21701524 0.091071859
2560 -891 328 -0.98731571 0.044969294 0.15226719 0.10464983
2564 -878 328 -0.97072071 0.14023466 0.19502729 0.092918403
2578 -783 283 -0.91235965 0.40657333 -0.047936887 0.1464103
2572 -796 283 -0.8646099 0.48442224 -0.13336016 0.12939715
2553 -834 282 -0.97842634 0.10954639 0.17516096 0.11356357
2558 -821 282 -0.96842396 0.2217423 0.1139534 0.14046182
2562 -808 282 -0.91172153 0.40554747 -0.065537058 0.14107279
2571 -766 282 -0.94673103 0.31400225 0.071434528 0.17716105
2575 -831 312 -0.89212883 0.13035314 0.43256691 0.10076749
2535 -882 265 -0.95849109 -0.048810076 0.2809138 0.11430044
2569 -876 312 -0.9939456 0.07548698 0.079836473 0.11618128
2549 -809 265 -0.8730706 0.40995079 -0.26398507 0.12098942
2572 -845 312 -0.92082345 0.020527272 0.38943899 0.088056445
2582 -770 311 -0.79844105 0.52587169 -0.29317373 0.16578038
2550 -840 266 -0.99574333 0.09049166 -0.017506445 0.12138751
2562 -890 312 -0.99854487 0.005839658 0.053609338 0.11120227
2537 -867 265 -0.9857381 -0.16820821 -0.0051341024 0.11333022
2558 -936 312 -0.93005645 -0.33605441 0.14853455 0.084427327
2567 -781 310 -0.65308106 0.49999294 -0.56876367 0.18474975
2541 -853 265 -0.99930382 -0.037020702 -0.0046221483 0.1150099
2544 -823 265 -0.94874674 0.24945699 -0.19403777 0.11396544
2554 -795 265 -0.89357448 0.4245148 -0.14598577 0.12246619
2567 -784 266 -0.91561955 0.38907614 0.10129518 0.14145018
2570 -861 312 -0.96311504 0.022814482 0.26812139 0.10859244
2561 -905 312 -0.9982149 -0.055085521 -0.023075914 0.10270731
2570 -959 314 -0.83815992 -0.48293114 0.25350645 0.071446605
2557 -919 312 -0.98471457 -0.15347396 0.082358949 0.08729884
2549 -918 267 -0.85042238 -0.068597481 0.52160931 0.10664315
2581 -965 303 -0.80297202 -0.55461508 0.21826153 0.066284373
2569 -940 300 -0.91107005 -0.34468469 0.22614998 0.11372068
2562 -917 297 -0.9923231 -0.12200825 0.020221103 0.10508943
2562 -863 247 -0.90730608 -0.27093542 -0.32154259 0.18343784
2539 -831 289 -0.99023491 0.010580739 0.13900638 0.13713372
2570 -784 288 -0.85053819 0.47837284 -0.21850438 0.15061384
2559 -896 295 -0.9928 -0.086487643 0.082873933 0.093034908
2562 -800 288 -0.87323672 0.4488087 -0.18981124 0.14119655
2557 -875 294 -0.97201174 -0.086532451 0.21841544 0.091580905
2552 -816 288 -0.96041054 0.27478537 0.045876153 0.14808799
2553 -855 292 -0.96031743 -0.065670669 0.27106756 0.084759302
2543 -834 289 -0.98118693 0.010749788 0.19276096 0.12699926
2562 -925 292 -0.9761588 -0.20066322 0.082754262 0.13170135
2556 -909 291 -0.99415845 -0.099877819 0.040906552 0.10673638
2573 -945 294 -0.89311492 -0.40069073 0.20443276 0.11124625
2559 -882 291 -0.97875553 -0.10477904 0.17623563 0.097624511
2588 -748 292 -0.84319425 0.49511686 0.20948219 0.17219245
2582 -761 292 -0.89569378 0.40258816 0.18882652 0.1836634
2580 -774 292 -0.90351075 0.42711106 0.035276074 0.16472949
2556 -895 291 -0.98408097 -0.10981065 0.13973665 0.094552614
2570 -786 291 -0.82849944 0.50344157 -0.24522474 0.1423765
2583 -966 295 -0.80921596 -0.57335937 0.12817395 0.071644902
2568 -799 291 -0.87701529 0.46410289 -0.12430855 0.15151815
2553 -865 291 -0.96492583 -0.099841028 0.24279608 0.086019635
2546 -849 289 -0.9631626 -0.032141324 0.26699224 0.090377003
2549 -821 289 -0.97998857 0.1640889 0.11268152 0.14103268
2557 -810 290 -0.94200766 0.33265358 0.044308245 0.1571001
2554 -843 259 -0.98893529 0.0558904 -0.1374163 0.1318908
2550 -869 258 -0.95762563 -0.26789904 -0.10575102 0.14761625
2556 -817 258 -0.89016759 0.35009062 -0.29161307 0.12615642
2557 -831 259 -0.94453859 0.21142673 -0.25128767 0.1319142
2554 -857 259 -0.97969216 -0.16865022 -0.10844558 0.14775597
2565 -806 259 -0.86768019 0.43248904 -0.24512096 0.13630517
