# .PCD v0.7 - Point Cloud Data file format
VERSION 0.7
FIELDS x y z normal_x normal_y normal_z curvature
SIZE 4 4 4 4 4 4 4
TYPE F F F F F F F
COUNT 1 1 1 1 1 1 1
WIDTH 782
HEIGHT 1
VIEWPOINT 0 0 0 1 0 0 0
POINTS 782
DATA ascii
2540 -405 -391 -0.8307237 0.4202143 0.3651275 0.077653229
2577 -394 -357 -0.52558327 0.67473102 0.51817012 0.14320931
2535 -436 -397 -0.92220688 0.11154418 0.37025982 0.075367205
2538 -455 -398 -0.83669549 -0.31102505 0.45078173 0.10653692
2573 -483 -494 -0.68445361 -0.41182441 -0.60160118 0.070543855
2549 -402 -397 -0.77184427 0.56059366 0.29998538 0.094682716
2563 -428 -357 -0.72993916 0.28266802 0.62232435 0.10779197
2588 -510 -455 -0.61676109 -0.78408974 0.069347717 0.11669379
2585 -413 -359 -0.51338869 0.6061554 0.60745996 0.12090201
2533 -463 -443 -0.89074308 -0.39252394 -0.22913228 0.058305558
2561 -487 -449 -0.74146742 -0.65763515 -0.13319889 0.080064803
2567 -463 -492 -0.69398826 -0.30354172 -0.65287268 0.091130517
2535 -426 -441 -0.94618893 0.22210886 -0.2353598 0.068503492
2546 -419 -397 -0.86463958 0.33810955 0.37159169 0.084426425
2535 -445 -442 -0.96778834 -0.040753495 -0.24844487 0.06887383
2599 -417 -305 -0.57639778 0.73155546 0.36413205 0.082715385
2589 -429 -304 -0.61584616 0.72214311 0.31502819 0.096244931
2576 -441 -303 -0.6879127 0.64852893 0.32586223 0.13461369
2544 -415 -387 -0.83197027 0.32158029 0.45211893 0.073848404
2538 -423 -428 -0.94522482 0.32367319 -0.042257749 0.074080281
2582 -439 -306 -0.6797806 0.69109225 0.24553989 0.13371095
2592 -430 -351 -0.57208526 -0.3707203 0.7316317 0.21860676
2534 -458 -430 -0.94575649 -0.31147134 -0.092358813 0.076125033
2592 -413 -350 -0.5324688 0.66851115 0.5192011 0.13319264
2537 -440 -429 -0.99654967 0.048753265 -0.067170002 0.085931636
2558 -473 -481 -0.7471227 -0.41973519 -0.51539308 0.060948901
2546 -451 -389 -0.73999459 -0.33778074 0.58164608 0.10337138
2601 -424 -307 -0.59730697 0.73381019 0.32364634 0.095041499
2621 -410 -308 -0.52049166 0.74768502 0.41237798 0.077858202
2549 -453 -478 -0.81554133 -0.30228427 -0.49347407 0.054795798
2540 -432 -387 -0.86980772 0.16354872 0.46549585 0.067781217
2568 -482 -437 -0.65926862 -0.74462306 0.10440906 0.093602113
2561 -478 -350 -0.60227156 0.34193161 -0.72135401 0.17114165
2548 -398 -386 -0.74698162 0.5498637 0.37372229 0.097146548
2597 -430 -297 -0.59767485 0.74214548 0.30332321 0.096548542
2596 -411 -342 -0.52881682 0.71660793 0.4547812 0.12593943
2573 -422 -339 -0.65852594 0.59088594 0.46604446 0.10992049
2591 -395 -341 -0.53319985 0.68633533 0.49461269 0.16480152
2609 -417 -298 -0.51994687 0.75469148 0.40012002 0.074451096
2585 -442 -296 -0.65876687 0.5398438 0.52401805 0.14231145
2544 -461 -336 -0.87796831 0.39583483 0.26923311 0.13349216
2583 -414 -358 -0.52865726 0.58693886 0.61320812 0.116209
2578 -468 -493 -0.60693121 -0.28504276 -0.74187946 0.10234355
2535 -447 -441 -0.96381426 -0.084617831 -0.25278819 0.065004922
2535 -465 -442 -0.88223243 -0.41832027 -0.21604183 0.058818247
2536 -437 -396 -0.9208408 0.088899449 0.37966961 0.074635141
2562 -428 -356 -0.72056091 0.35346085 0.59653783 0.106474
2537 -419 -395 -0.88867873 0.28722832 0.35742146 0.067183055
2569 -393 -356 -0.65406185 0.46380726 0.59756666 0.15209471
2532 -428 -439 -0.9606626 0.19860275 -0.19412456 0.062957056
2531 -454 -396 -0.91760433 -0.12921865 0.37590533 0.097231396
2550 -403 -396 -0.76592541 0.56495196 0.30689994 0.09510278
2569 -489 -448 -0.71317303 -0.69941205 -0.046978433 0.097621746
2566 -507 -449 -0.71073353 -0.7013309 0.054705866 0.084918648
2543 -417 -388 -0.84370106 0.30353928 0.44275549 0.077579819
2588 -413 -349 -0.55492014 0.64940929 0.51993382 0.12590192
2592 -420 -308 -0.60797465 0.71441311 0.34638226 0.085164189
2538 -401 -387 -0.81710446 0.42120799 0.39360404 0.07975845
2584 -397 -348 -0.56171286 0.66933715 0.48627821 0.15302493
2568 -426 -347 -0.69135147 0.49813423 0.52335024 0.10567598
2603 -406 -309 -0.53873265 0.74002999 0.40264463 0.087343328
2570 -447 -306 -0.72434765 0.66265041 0.19030216 0.14464703
2581 -434 -307 -0.66698563 0.68717891 0.28795001 0.11441524
2542 -432 -388 -0.86853921 0.11276004 0.48262298 0.079604633
2534 -446 -388 -0.87801296 -0.033415843 0.47746891 0.08324606
2570 -434 -305 -0.67772257 0.68328255 0.2716929 0.10246787
2540 -413 -387 -0.83869559 0.34082511 0.42476818 0.067503609
2535 -429 -387 -0.87565869 0.18564084 0.44582435 0.062138986
2591 -412 -348 -0.54401451 0.66229314 0.5151853 0.12660213
2531 -444 -387 -0.89155638 0.019898865 0.45247251 0.07373178
2587 -420 -306 -0.60730284 0.70952541 0.35743108 0.081785433
2536 -397 -385 -0.81580412 0.41679257 0.40093344 0.082654081
2569 -425 -346 -0.69642454 0.50749612 0.50738609 0.10345204
2602 -407 -307 -0.54253054 0.7257362 0.42304575 0.089828677
2560 -448 -305 -0.73392057 0.65166765 0.19154604 0.13060769
2583 -395 -346 -0.59647018 0.60620064 0.52606475 0.17447306
2552 -404 -406 -0.76893312 0.60234928 0.21428312 0.097318284
2553 -428 -364 -0.74969083 0.20322123 0.62981325 0.084544137
2532 -437 -405 -0.95615119 0.11108203 0.27099025 0.076271132
2571 -491 -459 -0.74073344 -0.6471824 -0.18019117 0.096762635
2582 -451 -369 -0.52444661 -0.41942036 0.74097389 0.13788055
2557 -392 -363 -0.65622985 0.49439824 0.57002884 0.13002497
2564 -411 -365 -0.64600724 0.3632879 0.67133939 0.092979372
2538 -448 -451 -0.93482214 -0.15502085 -0.3194935 0.060780521
2522 -454 -404 -0.97114593 -0.060331233 0.23072882 0.091320358
2534 -420 -404 -0.91559976 0.29331988 0.27502835 0.063802585
2536 -466 -451 -0.86201358 -0.43627545 -0.25806263 0.057690468
2534 -429 -449 -0.92609698 0.18504371 -0.32879058 0.064546563
2577 -511 -461 -0.70881867 -0.69919997 -0.093249306 0.090654075
2556 -396 -382 -0.65928465 0.61118567 0.43794492 0.107867
2533 -455 -426 -0.96828955 -0.24813493 -0.029057659 0.081573725
2543 -430 -382 -0.83271587 0.12034182 0.54046464 0.07225161
2550 -471 -474 -0.79544961 -0.44137144 -0.41527233 0.054038506
2526 -417 -423 -0.94783831 0.31834647 0.016064458 0.060220234
2550 -413 -382 -0.78966439 0.36646155 0.49207324 0.084762737
2573 -423 -342 -0.6636849 0.55584615 0.50055701 0.1117084
2553 -474 -343 -0.55317038 0.44069886 -0.70695621 0.20520267
2552 -452 -473 -0.81418979 -0.29647112 -0.49919924 0.067039572
2529 -436 -425 -0.9887929 0.14896849 -0.0098457849 0.069014125
2558 -478 -432 -0.68794829 -0.71527302 0.1229296 0.076438561
2544 -448 -383 -0.78997898 -0.18963794 0.58306998 0.098868974
2604 -400 -336 -0.5255003 0.76741141 0.36732706 0.13209558
2523 -426 -414 -0.96353137 0.23940779 0.11954539 0.05845046
2547 -461 -463 -0.84798837 -0.40443429 -0.34256184 0.05548751
2543 -466 -419 -0.80254072 -0.57418531 0.16198608 0.080987021
2557 -481 -466 -0.77620888 -0.55360866 -0.30169058 0.059238948
2554 -423 -374 -0.74835938 0.14451265 0.64735949 0.085695252
2543 -439 -373 -0.79758584 0.10379378 0.59420854 0.085517161
2541 -463 -331 -0.88805723 0.36587587 0.2783688 0.14612174
2574 -503 -470 -0.74341142 -0.60582185 -0.28340662 0.076839119
2538 -440 -460 -0.91667622 -0.0029290481 -0.39962006 0.055588204
2530 -409 -414 -0.90768111 0.39460024 0.14284828 0.066659696
2558 -405 -373 -0.68027753 0.45586658 0.57394099 0.091026261
2524 -444 -415 -0.99321508 0.062490676 0.098075069 0.069753475
2598 -418 -336 -0.59722269 0.69453895 0.4011741 0.17169473
2538 -418 -421 -0.92507011 0.37600037 0.053563815 0.077736542
2545 -448 -469 -0.86412126 -0.20503886 -0.4596231 0.053184777
2552 -467 -471 -0.80971938 -0.44147804 -0.38658985 0.056014322
2548 -426 -381 -0.80235106 0.16546039 0.57345939 0.077640556
2554 -472 -425 -0.68780756 -0.70603108 0.16864409 0.078616537
2562 -395 -382 -0.57637739 0.6945979 0.43049142 0.11103651
2578 -443 -298 -0.65644544 0.51399469 0.55216742 0.14982435
2555 -466 -341 -0.92856067 0.35847756 -0.096275277 0.22608793
2532 -451 -421 -0.98727405 -0.14768821 0.058975354 0.09157823
2536 -441 -380 -0.82715142 0.014751067 0.56178558 0.07856711
2609 -414 -301 -0.52195436 0.74826711 0.40946296 0.076540239
2592 -428 -299 -0.60277826 0.73210019 0.31731325 0.090531625
2546 -409 -380 -0.7848804 0.35725302 0.5062933 0.079703145
2531 -433 -420 -0.98226047 0.17626332 0.063996784 0.069223091
2582 -419 -343 -0.63445258 0.58367682 0.50674576 0.12161679
2530 -430 -450 -0.92778844 0.18008077 -0.32677132 0.064589739
2559 -395 -365 -0.63309401 0.51445925 0.57838023 0.10431191
2531 -458 -407 -0.94477886 -0.23621579 0.22714545 0.10190336
2541 -450 -453 -0.91501337 -0.23340327 -0.32904914 0.064989299
2538 -404 -406 -0.83595008 0.51848173 0.17990041 0.083087422
2534 -422 -406 -0.92878348 0.27140519 0.25238946 0.064499192
2545 -469 -455 -0.82986146 -0.49474084 -0.25799492 0.056100558
2564 -414 -367 -0.65671611 0.33529398 0.67550123 0.096267924
2548 -429 -365 -0.77747357 0.17494656 0.60409325 0.077480987
2532 -440 -407 -0.96773994 0.081942774 0.23825367 0.076966554
2526 -448 -417 -0.99667019 -0.026997004 0.076939151 0.079374582
2516 -462 -416 -0.9840492 -0.17732677 0.01422847 0.071717083
2528 -432 -417 -0.97498363 0.20603085 0.083415672 0.066150278
2602 -407 -340 -0.52504385 0.75592315 0.391036 0.12679736
2548 -440 -375 -0.78456581 0.035364363 0.61903632 0.09504056
2556 -409 -375 -0.70629215 0.41792941 0.57138985 0.094780274
2527 -416 -416 -0.93600321 0.33518839 0.10745575 0.064267159
2557 -486 -423 -0.5360046 -0.77722347 0.32957971 0.04469071
2582 -440 -295 -0.63304055 0.51941562 0.57399231 0.1325935
2553 -463 -335 -0.87465668 0.40864411 0.26074052 0.17546745
2598 -427 -297 -0.58355004 0.74588722 0.32112554 0.090522707
2559 -425 -376 -0.72954732 0.07477095 0.67983079 0.10379621
2589 -421 -338 -0.63132405 0.63253808 0.44869316 0.15000969
2528 -457 -422 -0.97502422 -0.2220529 0.0045065028 0.077725902
2541 -453 -467 -0.86761063 -0.27690259 -0.41300926 0.055298965
2573 -426 -339 -0.67517126 0.5825485 0.4525274 0.11101399
2555 -398 -378 -0.66738015 0.55644906 0.49494261 0.10048781
2559 -482 -428 -0.61243594 -0.74123633 0.27475643 0.057054248
2567 -496 -474 -0.74760026 -0.56325489 -0.35190588 0.070225962
2551 -416 -378 -0.76692641 0.27061972 0.58188391 0.085024402
2527 -439 -421 -0.99369723 0.099974997 0.050702821 0.07446222
2599 -412 -341 -0.54385352 0.72191131 0.42786378 0.13290341
2582 -464 -342 -0.55519038 0.49555844 -0.66797113 0.17776406
2528 -421 -420 -0.95072937 0.30363196 0.062620066 0.065987058
2545 -433 -378 -0.79181916 0.049783461 0.60872322 0.078257807
2552 -474 -470 -0.79642439 -0.47954395 -0.36843693 0.05705037
2559 -454 -381 -0.661134 -0.41582429 0.62449336 0.12479651
2564 -492 -440 -0.66441935 -0.74119574 0.095790073 0.078884624
2583 -419 -350 -0.64107716 0.47939092 0.59933656 0.14111298
2558 -462 -480 -0.75202078 -0.35616198 -0.55462903 0.073272556
2608 -411 -309 -0.55022216 0.72948492 0.40633407 0.098956324
2562 -510 -441 -0.65242726 -0.73626125 0.17960522 0.07729084
2548 -403 -389 -0.76516366 0.53432965 0.35918841 0.091258258
2538 -456 -391 -0.74547452 -0.37887174 0.54838312 0.10181503
2524 -466 -432 -0.92431653 -0.36066931 -0.12472614 0.064592183
2587 -401 -350 -0.50405532 0.72466356 0.46988401 0.12939537
2546 -421 -390 -0.85079807 0.30354372 0.42895666 0.07950329
2529 -430 -430 -0.9731102 0.21641339 -0.078878127 0.060865808
2529 -448 -432 -0.99141401 -0.070624731 -0.11004682 0.070032567
2573 -484 -484 -0.70006913 -0.49857059 -0.51120502 0.075271472
2588 -426 -308 -0.61922652 0.71386397 0.32704252 0.092293292
2575 -442 -307 -0.70609248 0.64521211 0.29177859 0.12991513
2538 -438 -390 -0.87858939 0.035728607 0.47623962 0.082159765
2553 -470 -468 -0.80217534 -0.48685288 -0.34567189 0.056799948
2600 -408 -342 -0.51988089 0.73996246 0.42682475 0.12760499
2529 -455 -421 -0.98309803 -0.18123981 0.025893111 0.08298523
2576 -444 -297 -0.63482952 0.46051884 0.62041426 0.14423637
2591 -425 -341 -0.73075593 0.49886307 0.46597362 0.21603672
2552 -410 -380 -0.74719769 0.42938468 0.50727147 0.088958159
2535 -438 -421 -0.9940533 0.080399826 0.073443256 0.082904145
2534 -420 -420 -0.94373643 0.32180649 0.076171629 0.072211526
2541 -444 -380 -0.82600111 -0.017090775 0.56340927 0.090516903
2615 -415 -300 -0.50809282 0.75722122 0.41043603 0.076323353
2593 -429 -298 -0.60164565 0.73712635 0.30768058 0.092513189
2547 -427 -380 -0.79845905 0.15656464 0.58133525 0.075803474
2540 -469 -336 -0.92717481 0.31215045 0.20714499 0.17726123
2562 -490 -470 -0.74312705 -0.59046268 -0.31482682 0.072780274
2561 -496 -428 -0.53595102 -0.77392328 0.33734143 0.049075656
2584 -421 -337 -0.63586622 0.61075336 0.47186282 0.12941875
2542 -407 -375 -0.78617811 0.35370985 0.50676763 0.077025548
2600 -416 -296 -0.54372019 0.73369074 0.40751231 0.080174163
2599 -407 -338 -0.54722816 0.72291905 0.42181677 0.12996536
2544 -392 -375 -0.73971945 0.46760011 0.48390621 0.10360897
2583 -430 -295 -0.61596453 0.64527702 0.45189083 0.098662488
2581 -445 -296 -0.63481075 0.46476799 0.61725682 0.14952064
2544 -462 -334 -0.88557088 0.38945845 0.25315264 0.13478449
2541 -423 -376 -0.81057519 0.17418756 0.55913013 0.063273638
2524 -446 -396 -0.94705087 0.024549054 0.32014364 0.079133332
2567 -478 -492 -0.6902349 -0.40928844 -0.59670663 0.079899713
2570 -408 -359 -0.6227631 0.44299418 0.64492047 0.094739877
2552 -457 -489 -0.74625891 -0.16624218 -0.64456272 0.062793329
2533 -458 -439 -0.92234761 -0.33506534 -0.19236968 0.06270127
2631 -408 -321 -0.54408574 0.78437704 0.29786474 0.092694998
2535 -415 -397 -0.88746822 0.3313314 0.3203429 0.065110259
2576 -433 -316 -0.67424494 0.6717996 0.30672303 0.097782746
2529 -430 -396 -0.91636425 0.197473 0.34825438 0.069213919
2531 -441 -438 -0.97636259 0.032963939 -0.21361056 0.069011919
2553 -446 -313 -0.75170493 0.59528857 0.2838507 0.11097003
2559 -498 -445 -0.71329039 -0.70063066 0.018263217 0.070386171
2557 -423 -357 -0.70501101 0.33440292 0.62540722 0.082991831
2592 -419 -317 -0.61447251 0.69786769 0.36797333 0.098757453
2570 -391 -358 -0.61832374 0.55379891 0.55765808 0.15799841
2543 -399 -397 -0.7977258 0.52301246 0.30015251 0.094177887
2534 -424 -438 -0.95766181 0.23946072 -0.15982004 0.066277899
2550 -479 -443 -0.78521383 -0.60120636 -0.14829098 0.062441852
2598 -434 -342 -0.85870266 -0.3801865 0.34363928 0.28018233
2552 -452 -378 -0.76346993 -0.20300096 0.61311036 0.14954948
2589 -416 -340 -0.58301181 0.64808083 0.48998833 0.1277725
2554 -481 -425 -0.62258178 -0.75360864 0.21086937 0.061909176
2568 -461 -339 -0.75470161 0.45029527 -0.477137 0.23158814
2537 -413 -420 -0.90336245 0.42457154 0.060624067 0.079734348
2555 -420 -377 -0.75060338 0.2303133 0.61931449 0.095283434
2567 -500 -428 -0.54498118 -0.74711317 0.38054901 0.056310195
2585 -436 -297 -0.64107132 0.64559859 0.41500589 0.11926717
2523 -459 -419 -0.9833895 -0.18144879 0.0046352264 0.06886068
2529 -428 -419 -0.97192985 0.2239821 0.072002806 0.064717025
2542 -434 -376 -0.80426258 0.10770606 0.58443224 0.072843298
2600 -422 -299 -0.56792808 0.75114465 0.33651066 0.077829301
2549 -403 -376 -0.7379083 0.44325864 0.50893337 0.085961416
2528 -444 -419 -0.99808961 0.026270999 0.055919264 0.075254872
2567 -490 -441 -0.67555898 -0.73325962 0.077138096 0.08922568
2603 -413 -312 -0.57906014 0.71824831 0.38575742 0.098252386
2533 -419 -432 -0.93424201 0.3411234 -0.10405163 0.071773358
2574 -508 -442 -0.56207103 -0.79198015 0.23841861 0.096292466
2636 -402 -316 -0.50109237 0.79151529 0.34987143 0.068929866
2528 -451 -433 -0.98544902 -0.12325566 -0.11703938 0.068601541
2587 -427 -311 -0.63357872 0.70190823 0.32542703 0.10361329
2577 -405 -352 -0.56769472 0.61611456 0.54600883 0.10785528
2529 -435 -432 -0.98437446 0.14731039 -0.096470416 0.066091962
2538 -469 -435 -0.86907613 -0.47179022 -0.1487305 0.061108224
2576 -421 -352 -0.66911936 0.44066089 0.59841228 0.11979985
2584 -438 -353 -0.65670693 -0.43477127 0.61620617 0.21455421
2549 -410 -390 -0.80046713 0.44574359 0.40070552 0.088986032
2541 -441 -389 -0.84847873 -0.05643015 0.52621233 0.087710135
2569 -440 -309 -0.72175723 0.65541226 0.22248873 0.12237458
2550 -426 -390 -0.84181195 0.21131097 0.49668932 0.094116457
2539 -433 -404 -0.94011003 0.13833502 0.3115392 0.077112786
2545 -417 -404 -0.87583053 0.37658975 0.30182955 0.083025791
2535 -443 -449 -0.94363427 -0.03320954 -0.32931969 0.059548698
2618 -410 -328 -0.56567949 0.77504402 0.2816264 0.13203414
2565 -436 -323 -0.7078796 0.61901712 0.34018266 0.097171664
2569 -485 -458 -0.74015111 -0.65043724 -0.17060982 0.090020753
2526 -424 -446 -0.9459902 0.20869598 -0.24808976 0.061693948
2569 -503 -459 -0.73082197 -0.66783512 -0.14105153 0.088301465
2575 -413 -366 -0.57041264 0.48896435 0.65995699 0.11115447
2559 -428 -365 -0.72709525 0.15786467 0.66814017 0.096455947
2590 -423 -325 -0.61903059 0.6785565 0.39542657 0.12802991
2549 -451 -322 -0.80944669 0.50299317 0.30297518 0.10485044
2560 -393 -363 -0.64344925 0.48920122 0.58877432 0.12556633
2535 -461 -450 -0.87868929 -0.39439732 -0.26899064 0.057698622
2535 -450 -404 -0.93399447 -0.15397376 0.32240725 0.1037982
2551 -400 -403 -0.74197519 0.63596445 0.21218382 0.10047662
2569 -426 -357 -0.70402408 0.29846942 0.64441144 0.10893536
2576 -410 -358 -0.57649672 0.53621578 0.61654204 0.11052425
2538 -444 -438 -0.9727785 -0.016480369 -0.23115037 0.073874526
2578 -435 -314 -0.67372775 0.68101132 0.28690523 0.10824154
2616 -407 -318 -0.53646964 0.7648254 0.3567107 0.097938769
2548 -401 -396 -0.76469958 0.57379854 0.29324004 0.09601298
2531 -425 -436 -0.95854509 0.24064282 -0.15258552 0.065066136
2538 -433 -396 -0.91313678 0.16767073 0.37157473 0.069969848
2592 -420 -315 -0.61611348 0.69552279 0.36966497 0.10129273
2540 -417 -395 -0.87578547 0.33398494 0.34850225 0.075243235
2536 -450 -396 -0.87061775 -0.18353941 0.45644072 0.1041251
2584 -504 -448 -0.60179955 -0.78774625 0.13150389 0.10410817
2570 -484 -444 -0.70747495 -0.70662516 0.012651047 0.098434605
2556 -477 -488 -0.72884113 -0.4525443 -0.51380366 0.056238972
2546 -458 -485 -0.79202032 -0.2451065 -0.55913025 0.055677757
2566 -450 -313 -0.74826032 0.63916868 0.17767906 0.13876386
2534 -460 -438 -0.90403503 -0.38863081 -0.17800775 0.063011684
2536 -463 -448 -0.87582856 -0.40086541 -0.26875892 0.056620367
2545 -419 -403 -0.88056934 0.35857606 0.30987239 0.0835094
2576 -484 -500 -0.63805008 -0.40148762 -0.65703875 0.078359723
2531 -453 -402 -0.9509545 -0.10558534 0.29075319 0.098166756
2537 -436 -402 -0.93751901 0.10579248 0.33146045 0.081741452
2572 -465 -498 -0.62954563 -0.28562847 -0.72255707 0.099317983
2579 -412 -364 -0.51700503 0.57873696 0.63068968 0.10811964
2532 -426 -446 -0.93422991 0.20609704 -0.29109889 0.064714044
2556 -403 -404 -0.70646769 0.6814118 0.19126275 0.10149726
2569 -488 -455 -0.74196422 -0.65233088 -0.15476957 0.091585994
2567 -428 -363 -0.716488 0.13410862 0.68458742 0.10143042
2535 -445 -447 -0.94478136 -0.050698947 -0.32375571 0.058572728
2604 -418 -327 -0.60443413 0.71606743 0.34915149 0.14250447
2635 -407 -330 -0.57301784 0.77608305 0.26333529 0.11923145
2582 -445 -326 -0.79859042 0.59974581 0.050579581 0.2030369
2585 -430 -326 -0.66974384 0.6450308 0.36793813 0.14034128
2616 -399 -334 -0.51359522 0.79678518 0.31836033 0.10436402
2560 -439 -372 -0.7210331 -0.067312457 0.68962336 0.12327161
2559 -461 -329 -0.82755029 0.55460888 0.087002866 0.18470356
2556 -412 -415 -0.76938832 0.62583774 0.12793998 0.10146628
2547 -478 -460 -0.80377197 -0.53259069 -0.2651372 0.052231312
2571 -423 -373 -0.67166424 0.073307395 0.73721993 0.12809627
2617 -417 -335 -0.67882437 0.72492313 0.11697808 0.2158891
2597 -432 -333 -0.87858355 0.47632489 -0.034719992 0.26587394
2547 -429 -414 -0.95041698 0.22159913 0.21817741 0.092185393
2558 -499 -462 -0.74559098 -0.63637376 -0.19779412 0.063733503
2525 -461 -412 -0.95929003 -0.25548029 0.12038451 0.088086441
2571 -405 -372 -0.54981834 0.61554146 0.56463134 0.10467738
2535 -445 -413 -0.98241824 -0.033670548 0.18363173 0.086961746
2535 -458 -457 -0.88575894 -0.33046949 -0.32591569 0.055385046
2604 -428 -290 -0.52659804 0.67744941 0.51357257 0.092316188
2597 -441 -290 -0.51248831 0.30628502 0.80221277 0.12020271
2557 -400 -366 -0.64807749 0.47923574 0.59188575 0.094199732
2617 -416 -329 -0.6239416 0.74093622 0.24841563 0.17705946
2631 -402 -330 -0.53550482 0.80006003 0.27044117 0.088287361
2569 -450 -371 -0.63950682 -0.39367142 0.66034377 0.14665349
2595 -429 -327 -0.69966322 0.65128088 0.29377666 0.2005762
2565 -417 -368 -0.67360443 0.27376699 0.68651927 0.10151927
2579 -443 -326 -0.79341084 0.59481853 0.12919049 0.19659117
2550 -431 -367 -0.77657241 0.17444523 0.60539591 0.082147993
2553 -454 -324 -0.82411987 0.47083259 0.31487003 0.13314182
2531 -430 -413 -0.96463442 0.2090005 0.16062167 0.071237803
2542 -440 -370 -0.80733126 0.2453357 0.53668123 0.090193488
2529 -466 -414 -0.88193744 -0.45514345 0.12259983 0.082619391
2542 -462 -328 -0.88109303 0.39438006 0.26103526 0.13141769
2574 -506 -467 -0.71697134 -0.67157608 -0.18691622 0.088817723
2563 -426 -373 -0.70860791 0.057727832 0.70323706 0.10394879
2561 -408 -372 -0.66487533 0.45283395 0.5940389 0.09448754
2608 -420 -335 -0.71198785 0.6748569 0.1940143 0.22813222
2610 -402 -335 -0.51342285 0.79109007 0.33252594 0.11989616
2544 -464 -459 -0.84995872 -0.44382274 -0.28388667 0.05730895
2566 -491 -421 -0.51709712 -0.76486075 0.38418552 0.037605111
2551 -416 -416 -0.86978364 0.46349329 0.16926423 0.087888457
2526 -447 -413 -0.98979527 0.0046512592 0.14242049 0.079524174
2551 -483 -462 -0.79179835 -0.53759915 -0.2899009 0.052381705
2541 -430 -390 -0.88059986 0.19121312 0.43356821 0.069138139
2581 -426 -351 -0.71632075 0.29007646 0.63461816 0.17973909
2615 -406 -312 -0.51953763 0.75407124 0.4018175 0.092516653
2543 -461 -391 -0.71281379 -0.45191479 0.53634828 0.11094697
2544 -415 -390 -0.84411788 0.32610077 0.42558596 0.079313137
2581 -432 -309 -0.67364705 0.68693757 0.27261034 0.10858884
2587 -411 -351 -0.53791964 0.65792143 0.52705002 0.1247221
2592 -418 -310 -0.61457294 0.69400752 0.37503821 0.093738884
2534 -444 -390 -0.88488305 -0.017900908 0.46546909 0.082381807
2562 -403 -393 -0.64781475 0.70094866 0.29834038 0.10372289
2572 -446 -308 -0.732337 0.631625 0.25442553 0.14523178
2603 -412 -344 -0.53848398 0.73048097 0.42003879 0.15680608
2541 -444 -383 -0.8157227 -0.097900771 0.5700981 0.089766137
2581 -434 -301 -0.64512259 0.68259567 0.34333637 0.11344475
2544 -428 -383 -0.82958937 0.14464985 0.5393123 0.075099729
2576 -424 -342 -0.66167581 0.57379204 0.48264661 0.11706854
2594 -395 -342 -0.50643259 0.73117435 0.45706686 0.15775239
2599 -421 -302 -0.57100648 0.73895067 0.35763589 0.083716489
2539 -395 -380 -0.78947777 0.42824626 0.439693 0.092768915
2546 -413 -382 -0.81658071 0.31163689 0.48587909 0.078128017
2553 -469 -342 -0.93265212 0.31122574 -0.18247864 0.2358858
2575 -449 -301 -0.58410859 0.17392457 0.79282248 0.16811654
2547 -466 -455 -0.84348965 -0.47497645 -0.25084367 0.057481885
2567 -428 -368 -0.71309519 0.066157237 0.6979388 0.11149322
2534 -454 -407 -0.9296084 -0.24934745 0.27139294 0.10203641
2544 -419 -407 -0.88773865 0.35888252 0.28831139 0.082543746
2540 -446 -453 -0.93313366 -0.13736103 -0.33225524 0.060684472
2554 -444 -367 -0.79149568 0.17630485 0.58519334 0.15700798
2568 -410 -367 -0.61150533 0.44990146 0.65088403 0.10406986
2544 -437 -408 -0.94770455 0.064572655 0.31254825 0.096221894
2536 -472 -408 -0.72555161 -0.62844139 0.28042161 0.081282973
2549 -484 -456 -0.79574758 -0.56573814 -0.21616234 0.056348938
2582 -509 -463 -0.67035306 -0.73719931 -0.084640026 0.10570393
2593 -429 -311 -0.63087338 0.71637273 0.29800814 0.11299253
2622 -405 -314 -0.52211905 0.75651789 0.3937923 0.0774628
2582 -441 -310 -0.6961869 0.6871568 0.20770039 0.14723819
2601 -416 -312 -0.59934556 0.70037353 0.3876361 0.10095883
2574 -453 -310 -0.67766464 0.72582036 -0.11813293 0.17212288
2555 -481 -352 -0.62184471 0.14894116 -0.76884699 0.17853843
2582 -445 -308 -0.70638651 0.68319857 0.18508843 0.16138662
2622 -405 -310 -0.5040192 0.75364554 0.42188033 0.075340167
2606 -418 -309 -0.57486266 0.73113239 0.36739391 0.086527556
2590 -409 -352 -0.5192098 0.6812169 0.51610535 0.11724109
2583 -424 -352 -0.67530483 0.27448958 0.6845575 0.18240036
2590 -431 -308 -0.62214619 0.73289388 0.27531922 0.1104045
2531 -458 -419 -0.9434914 -0.31778792 0.09399341 0.08893276
2560 -477 -468 -0.77851719 -0.53327924 -0.3309446 0.063755132
2566 -419 -378 -0.69231868 0.28166142 0.66435057 0.12122602
2535 -441 -419 -0.99441141 0.03261381 0.10041104 0.086742431
2565 -459 -336 -0.82995248 0.55307412 -0.072718039 0.22585155
2564 -436 -379 -0.66187406 -0.1897053 0.72521353 0.10874453
2620 -414 -342 -0.72681081 0.64829344 0.22685173 0.22174141
2563 -400 -377 -0.58958834 0.65535688 0.47211537 0.099780723
2542 -437 -463 -0.89636087 0.013871117 -0.44310805 0.063667461
2554 -458 -466 -0.82184684 -0.43287462 -0.37038791 0.066768959
2598 -428 -339 -0.91542113 0.1533476 0.37214071 0.29168513
2542 -424 -420 -0.9420864 0.32791755 0.070309125 0.080594338
2549 -401 -383 -0.74502039 0.51650155 0.42210281 0.089880697
2551 -420 -384 -0.80590588 0.26605067 0.52889764 0.085306823
2591 -396 -345 -0.52170849 0.72777927 0.44514894 0.15215996
2583 -431 -346 -0.81534761 0.17752466 0.55108368 0.23496445
2524 -424 -425 -0.96322012 0.26827517 -0.015349639 0.062192913
2593 -415 -346 -0.54128975 0.66040426 0.52045333 0.14908224
2531 -462 -429 -0.92371285 -0.37317342 -0.086580314 0.071381472
2556 -479 -477 -0.76084757 -0.49442261 -0.42030609 0.054983348
2563 -486 -435 -0.63701463 -0.75523627 0.15437144 0.078112915
2555 -460 -476 -0.78173578 -0.37539217 -0.49796572 0.074398749
2564 -459 -388 -0.58184224 -0.53837389 0.60960084 0.083336532
2534 -444 -428 -0.99838454 -0.035416614 -0.044430666 0.079644106
2538 -436 -383 -0.85580933 0.10925537 0.50562197 0.072155811
2539 -424 -401 -0.90996349 0.25264347 0.32884294 0.070315853
2636 -399 -325 -0.50641394 0.80721211 0.30323851 0.071776256
2590 -427 -320 -0.63485539 0.68178034 0.36350265 0.1271071
2553 -456 -317 -0.80770016 0.5648101 0.1691449 0.13577759
2539 -452 -443 -0.93063134 -0.26378319 -0.25366077 0.07262788
2524 -456 -400 -0.94882423 -0.11540771 0.29396197 0.10022284
2570 -416 -362 -0.64227712 0.38686657 0.66167539 0.097596049
2579 -513 -453 -0.62376976 -0.77878016 0.066428311 0.10937268
2624 -415 -324 -0.61960149 0.74419361 0.24953921 0.15464519
2557 -431 -361 -0.74105549 0.26401338 0.61736029 0.097906917
2551 -472 -446 -0.80916047 -0.54642135 -0.21606266 0.063279912
2574 -442 -319 -0.74710822 0.6191566 0.24181466 0.13805622
2531 -440 -400 -0.94494164 0.082352787 0.31670707 0.078282185
2570 -398 -362 -0.53527337 0.63396215 0.55818838 0.098501705
2554 -412 -385 -0.76627284 0.44391203 0.46450832 0.10050591
2565 -492 -434 -0.60695291 -0.75850779 0.23722179 0.071489722
2533 -437 -427 -0.9930073 0.11636365 -0.019900035 0.074097715
2558 -429 -386 -0.76655978 0.045745712 0.64054155 0.11741752
2609 -416 -307 -0.54917502 0.74146241 0.38553897 0.085898474
2597 -430 -306 -0.61295652 0.7342099 0.29192495 0.11227947
2536 -422 -427 -0.93815261 0.34436685 -0.035793263 0.073397212
2563 -469 -346 -0.69548148 0.18120611 -0.69531995 0.21088925
2534 -453 -428 -0.9730792 -0.22614807 -0.044429135 0.081566907
2587 -424 -348 -0.72962952 0.27367562 0.62669158 0.21154615
2548 -444 -385 -0.76524734 -0.18084243 0.61781257 0.096489578
2583 -444 -305 -0.7057519 0.66754961 0.23725903 0.1644676
2524 -468 -427 -0.91475952 -0.39742517 -0.072582759 0.066343717
2602 -415 -305 -0.57038319 0.72085243 0.39374447 0.089659169
2595 -428 -304 -0.59841061 0.74798632 0.28709084 0.098686248
2577 -439 -302 -0.6827808 0.64630163 0.34074116 0.13554247
2628 -407 -318 -0.53774762 0.77670538 0.32795763 0.09221746
2600 -417 -315 -0.60188955 0.70568591 0.37381324 0.099561661
2572 -424 -357 -0.70003384 0.26701492 0.6623109 0.10917448
2560 -454 -311 -0.6307705 0.75082386 -0.19593906 0.14623457
2571 -409 -356 -0.6153304 0.48425478 0.62198538 0.094721422
2572 -442 -312 -0.72025532 0.64658326 0.25132099 0.12788399
2557 -436 -355 -0.75084704 0.38963404 0.53330487 0.11857993
2573 -394 -356 -0.59088689 0.56796312 0.57294899 0.15716176
2582 -429 -313 -0.65173852 0.69036651 0.31405565 0.10556715
2568 -429 -357 -0.71707213 0.28250444 0.63718045 0.11321248
2534 -424 -440 -0.95046502 0.23603167 -0.20225042 0.065303832
2545 -415 -398 -0.86126369 0.38088319 0.33638203 0.084751949
2580 -412 -358 -0.5384773 0.58327603 0.60813761 0.10604873
2623 -407 -319 -0.54970777 0.77030104 0.32319903 0.10136951
2589 -420 -316 -0.61387861 0.69945633 0.36594239 0.10317183
2574 -436 -315 -0.69771016 0.67167425 0.24910685 0.10527228
2563 -399 -400 -0.60619295 0.770244 0.19812691 0.11415977
2535 -431 -398 -0.92121273 0.17754869 0.34618425 0.072804838
2528 -448 -398 -0.94504672 -0.023427241 0.32609481 0.088576138
2560 -452 -315 -0.75576967 0.6314069 0.17360143 0.13273725
2580 -479 -494 -0.63521665 -0.3597039 -0.68345648 0.082772002
2566 -486 -449 -0.731224 -0.67502028 -0.098280616 0.086065613
2569 -458 -490 -0.66926342 -0.19259395 -0.7176308 0.10541211
2582 -508 -453 -0.61613125 -0.78223753 0.092123784 0.1107822
2534 -443 -441 -0.96879655 -0.010844993 -0.24762012 0.073267244
2530 -461 -441 -0.91106486 -0.35538921 -0.20894812 0.058804139
2590 -510 -448 -0.54832786 -0.81406343 0.19140893 0.11414686
2530 -425 -433 -0.96113348 0.25589633 -0.10363166 0.062770769
2561 -461 -483 -0.74202007 -0.32858887 -0.5843249 0.077236786
2592 -414 -353 -0.53380162 0.64176607 0.55062884 0.15107085
2533 -462 -435 -0.9028489 -0.39775762 -0.16325651 0.062447809
2570 -482 -486 -0.69984704 -0.46925861 -0.53852618 0.07070598
2553 -402 -390 -0.72026867 0.59893841 0.34997967 0.097108871
2536 -444 -435 -0.98644775 -0.025073556 -0.16214859 0.07850869
2561 -486 -442 -0.71802342 -0.69426584 -0.049370203 0.083290175
2540 -436 -390 -0.87697631 0.059280783 0.47686291 0.08157105
2550 -420 -391 -0.83281857 0.34272122 0.43469 0.087634437
2542 -455 -392 -0.72910768 -0.39416745 0.5594945 0.1013401
2572 -429 -351 -0.72888213 0.38115531 0.56872797 0.14596429
2539 -435 -388 -0.86961633 0.090787515 0.48530927 0.07799565
2592 -439 -307 -0.6578722 0.73479623 0.16516253 0.14532855
2625 -410 -310 -0.51691794 0.75564182 0.40224531 0.076977745
2551 -460 -478 -0.79962999 -0.3665196 -0.47566304 0.056150291
2537 -445 -429 -0.99669731 -0.026529478 -0.076750398 0.086368404
2598 -423 -308 -0.59667963 0.73169607 0.32953647 0.094802409
2573 -486 -437 -0.63626802 -0.74161178 0.21254402 0.10229715
2548 -402 -388 -0.76269168 0.53542227 0.36280075 0.091787867
2560 -479 -480 -0.73880333 -0.48122519 -0.47179654 0.062728085
2541 -411 -429 -0.84757769 0.52144265 -0.098537639 0.085616656
2540 -441 -475 -0.83942437 -0.082063988 -0.53724504 0.056936827
2532 -461 -429 -0.93108243 -0.35504299 -0.083845645 0.073475778
2587 -431 -352 -0.69755453 -0.28104436 0.6591143 0.21317324
2549 -475 -348 -0.87842304 0.084015571 -0.4704406 0.23363395
2567 -457 -392 -0.56458628 -0.52670836 0.6354689 0.068588629
2598 -415 -352 -0.54212511 0.63468337 0.55070627 0.17301948
2551 -420 -389 -0.82529682 0.3466242 0.44579896 0.087833397
2536 -428 -429 -0.95942819 0.27221927 -0.073444679 0.075509816
2535 -418 -407 -0.91794276 0.30120304 0.25818166 0.060181189
2595 -423 -329 -0.62775439 0.67885375 0.38089624 0.15366949
2522 -448 -406 -0.97829652 0.013400351 0.20677574 0.085799061
2559 -449 -325 -0.77318788 0.58198452 0.25194153 0.12619986
2560 -394 -365 -0.62890881 0.52227938 0.57593226 0.10386138
2543 -403 -408 -0.82485324 0.53160715 0.19238207 0.088466085
2588 -438 -328 -0.81576931 0.5617016 0.13788289 0.21961728
2571 -445 -368 -0.63604909 -0.3878879 0.6670717 0.14165425
2557 -470 -412 -0.56984192 -0.73923826 0.35889685 0.054824553
2567 -428 -367 -0.71096623 0.070508435 0.69968247 0.11149261
2573 -412 -367 -0.57793486 0.50084603 0.64431721 0.10545351
2620 -411 -331 -0.57816917 0.77665389 0.25005847 0.13386232
2532 -434 -407 -0.95680249 0.13586365 0.2570411 0.075623363
2631 -396 -332 -0.50465596 0.81482059 0.28528899 0.077291258
2558 -460 -471 -0.78566766 -0.41491261 -0.45888332 0.076259457
2556 -400 -383 -0.67750645 0.60510045 0.41813692 0.10156806
2610 -421 -303 -0.54819226 0.75571704 0.35829735 0.09851478
2537 -445 -425 -0.99787849 -0.05796212 0.029646555 0.089715302
2556 -477 -471 -0.77968323 -0.50715303 -0.36727354 0.060240664
2564 -419 -385 -0.74134254 0.32440132 0.58751601 0.12501103
2547 -440 -468 -0.87916672 -0.096851289 -0.46656802 0.054886747
2530 -462 -424 -0.93686992 -0.34962991 -0.0058042998 0.073569112
2562 -454 -386 -0.61659664 -0.46971604 0.63180339 0.09283714
2608 -416 -346 -0.63552213 0.61673456 0.46448901 0.24211597
2549 -434 -383 -0.79673421 -0.0083864452 0.60427177 0.088228539
2540 -428 -424 -0.96602553 0.25760409 0.020854333 0.080467395
2575 -465 -343 -0.63594741 0.41192669 -0.65260041 0.19228177
2596 -432 -345 -0.67502612 -0.4792144 0.56097531 0.25430095
2598 -437 -302 -0.60745466 0.73880762 0.29182544 0.14650801
2561 -456 -328 -0.80012858 0.57934707 0.15540677 0.17108996
2528 -434 -410 -0.96877569 0.16089667 0.18864223 0.067490444
2562 -432 -370 -0.72769868 -0.012850277 0.68577659 0.10475598
2574 -415 -371 -0.59849566 0.45694742 0.65802878 0.12191135
2528 -452 -411 -0.97811794 -0.11480241 0.17351013 0.085381262
2547 -474 -415 -0.63544506 -0.72028416 0.27820939 0.065553136
2535 -447 -455 -0.92932594 -0.083884239 -0.35960636 0.050973572
2548 -468 -458 -0.82584637 -0.49437624 -0.27123755 0.056536768
2547 -487 -459 -0.79604292 -0.55552149 -0.24023226 0.051503051
2618 -410 -333 -0.57490563 0.77391487 0.26559246 0.13613719
2596 -425 -331 -0.65142488 0.66995037 0.35610676 0.19121875
2576 -511 -466 -0.70463336 -0.69213676 -0.15632844 0.087307677
2547 -419 -412 -0.90052813 0.36525446 0.23587783 0.085657388
2570 -455 -331 -0.79443264 0.6073063 -0.0074687162 0.2094904
2618 -417 -336 -0.69977093 0.70588696 0.10974626 0.22197257
2553 -467 -330 -0.75575042 0.59752935 -0.26795518 0.18873563
2552 -402 -373 -0.68593824 0.49332801 0.53489834 0.091275424
2550 -447 -374 -0.79575062 0.072108403 0.60131627 0.12184338
2598 -435 -292 -0.57044208 0.53912663 0.61962759 0.12054737
2619 -401 -336 -0.53644145 0.78880745 0.30002248 0.10828197
2561 -418 -374 -0.70507634 0.25654611 0.66109872 0.10588349
2597 -429 -334 -0.78997177 0.58711201 0.17676008 0.26368564
2557 -433 -374 -0.72954726 -0.057751175 0.68148768 0.098603569
2599 -415 -314 -0.60119826 0.70069993 0.38416177 0.10039859
2537 -438 -395 -0.91493648 0.070844069 0.39733148 0.07850571
2540 -406 -393 -0.82961124 0.43947107 0.3443985 0.08023005
2579 -428 -313 -0.65578675 0.67921948 0.32955226 0.095433898
2617 -402 -316 -0.51907361 0.76801401 0.37512276 0.095209636
2546 -423 -395 -0.87175024 0.3173441 0.37328842 0.081788555
2584 -404 -354 -0.5046429 0.70410389 0.49957311 0.11705037
2575 -435 -354 -0.80869615 -0.10367617 0.57901806 0.20656992
2584 -420 -355 -0.61007357 0.44471708 0.65577197 0.1490968
2572 -443 -313 -0.73680961 0.63479686 0.23268977 0.1328661
2533 -453 -395 -0.888529 -0.16519071 0.42805174 0.10025122
2537 -420 -426 -0.93897563 0.34356949 -0.016876483 0.075196892
2535 -457 -428 -0.95018786 -0.30762002 -0.050130107 0.078444719
2554 -433 -385 -0.77828282 -0.0055782232 0.62788916 0.10477427
2614 -412 -348 -0.61911255 0.65454692 0.43389869 0.20595479
2541 -433 -471 -0.8822524 0.030554265 -0.46978417 0.060847364
2565 -417 -385 -0.71332413 0.4116357 0.56720775 0.12624249
2581 -425 -345 -0.67877901 0.49919847 0.53857219 0.16043791
2533 -438 -427 -0.99711406 0.073735088 -0.018073555 0.076309085
2557 -397 -383 -0.65852731 0.62343389 0.42151153 0.10791706
2563 -477 -345 -0.54157859 0.45889679 -0.70434821 0.14894688
2570 -476 -479 -0.72341222 -0.48449251 -0.49187571 0.080246769
2555 -454 -474 -0.78575391 -0.3012301 -0.54023254 0.069424912
2621 -413 -344 -0.73169231 0.62313443 0.27627859 0.2253177
2590 -438 -340 -0.98575515 -0.068450771 -0.15362702 0.28076267
2603 -444 -297 -0.57352525 0.38548294 0.72282195 0.1889814
2578 -465 -340 -0.59208834 0.48507452 -0.64353251 0.18017735
2537 -469 -441 -0.85525346 -0.47169918 -0.21457249 0.057098061
2569 -470 -490 -0.68998086 -0.3914642 -0.60883677 0.077609017
2566 -493 -447 -0.70085216 -0.71320528 -0.01201982 0.099034958
2582 -417 -357 -0.56254464 0.52665812 0.63731831 0.13051049
2539 -451 -440 -0.94762248 -0.22933491 -0.22229983 0.073167235
2570 -512 -449 -0.68354857 -0.72857428 0.044056151 0.10129928
2558 -431 -354 -0.74202514 0.39158621 0.54411298 0.10525753
2528 -458 -394 -0.90675741 -0.16007225 0.39008713 0.10536105
2535 -432 -439 -0.96101636 0.17803299 -0.21154647 0.068262063
2568 -397 -354 -0.64809799 0.41098139 0.64114207 0.13590901
2542 -424 -395 -0.88324338 0.27787474 0.37771243 0.074898332
2543 -406 -394 -0.82014811 0.45951828 0.34088114 0.081129089
2536 -441 -395 -0.91190249 0.030271064 0.40928915 0.082651421
2594 -417 -344 -0.57843029 0.64709103 0.49668053 0.1672992
2609 -426 -302 -0.55599642 0.77724224 0.29455474 0.10245932
2562 -459 -473 -0.76699179 -0.42582747 -0.47999424 0.081196211
2569 -479 -475 -0.71957356 -0.54670119 -0.42817247 0.08122237
2592 -441 -302 -0.65862638 0.70722604 0.2569876 0.14885165
2533 -445 -425 -0.99929702 -0.037449498 -0.0017315743 0.077902779
2571 -468 -344 -0.61791575 0.40197483 -0.67571908 0.18711059
2555 -400 -383 -0.68829566 0.59715408 0.41189325 0.099318631
2563 -457 -387 -0.60397279 -0.49714157 0.62295032 0.089253426
2547 -435 -384 -0.81493574 -0.010589889 0.57945454 0.086984128
2552 -418 -383 -0.79752332 0.31594503 0.51394099 0.088346489
2539 -427 -424 -0.96025419 0.27874887 0.014523548 0.077681921
2576 -490 -435 -0.53569639 -0.78443217 0.31256279 0.075890504
2530 -463 -426 -0.92833781 -0.36796623 -0.05281784 0.073326275
2547 -447 -381 -0.77485126 -0.14932683 0.61425322 0.10487567
2552 -430 -381 -0.77271342 0.039655849 0.63351518 0.089697503
2563 -395 -381 -0.56913155 0.70147812 0.42897281 0.10930318
2591 -424 -343 -0.69896138 0.50647575 0.50491112 0.21612875
2606 -408 -344 -0.50995344 0.76213324 0.3988741 0.13034965
2559 -413 -381 -0.72582805 0.40359131 0.55703479 0.10197465
2537 -436 -424 -0.98880005 0.14923735 0.0016241129 0.080443703
2580 -481 -433 -0.5256533 -0.78357065 0.33121839 0.083990507
2571 -473 -475 -0.74540538 -0.48172548 -0.46077251 0.080632247
2568 -453 -473 -0.73149776 -0.35371897 -0.58291852 0.093607955
2535 -417 -422 -0.93571472 0.34922087 0.049827013 0.070119262
2535 -454 -425 -0.96457833 -0.26284984 0.022330707 0.090313934
2557 -473 -341 -0.55904877 0.45094594 -0.69578177 0.19082741
2614 -417 -296 -0.51033831 0.75646228 0.40904722 0.07538832
2593 -427 -337 -0.7417866 0.56896633 0.35500699 0.23202573
2536 -458 -418 -0.9323864 -0.34075895 0.12057777 0.090472251
2542 -405 -417 -0.83083141 0.55079395 0.079657659 0.087039404
2564 -449 -379 -0.62192863 -0.40367177 0.67100954 0.11297112
2568 -482 -424 -0.50340515 -0.77294278 0.38618991 0.036996875
2554 -395 -376 -0.67119664 0.54895765 0.49813718 0.10145767
2548 -429 -376 -0.77832252 0.083175786 0.62233096 0.074444026
2555 -413 -376 -0.72429562 0.37985978 0.5754149 0.093066715
2534 -422 -416 -0.94557816 0.30900344 0.10197438 0.069026023
2530 -439 -416 -0.98810899 0.089041635 0.12534833 0.075385585
2608 -411 -338 -0.54693913 0.75195295 0.36800039 0.15281196
2546 -434 -460 -0.88720423 0.11543203 -0.44670367 0.07113488
2560 -455 -464 -0.81935394 -0.41983846 -0.39037764 0.075486019
2586 -430 -293 -0.59767103 0.62800521 0.49839628 0.094186485
2536 -467 -450 -0.8604849 -0.44462851 -0.24873933 0.052601103
2537 -449 -449 -0.93805623 -0.1918605 -0.28851351 0.064381503
2564 -491 -456 -0.75003427 -0.63319474 -0.19108379 0.080514595
2570 -510 -457 -0.71241307 -0.69632977 -0.08713454 0.086549982
2560 -430 -364 -0.73951733 0.14807977 0.65664792 0.10287113
2621 -409 -328 -0.56098211 0.78412884 0.26540738 0.12363855
2530 -435 -405 -0.95132321 0.14238042 0.27333483 0.070894092
2560 -395 -363 -0.6316548 0.49493027 0.59670448 0.11362033
2530 -430 -447 -0.93713737 0.17661867 -0.300964 0.065854132
2534 -418 -405 -0.91508508 0.30428791 0.26462844 0.061114125
2582 -438 -324 -0.73121881 0.62596172 0.27109227 0.16344167
2570 -414 -365 -0.6295523 0.3938818 0.66971719 0.1026156
2559 -452 -322 -0.78383982 0.58731174 0.20164315 0.13150218
2576 -467 -500 -0.59052974 -0.25053903 -0.76714069 0.10564038
2597 -423 -326 -0.61521286 0.69767648 0.36709762 0.1542405
2550 -402 -407 -0.75474739 0.63063669 0.18070352 0.09767881
2523 -451 -404 -0.97572309 -0.012513823 0.21864988 0.088242956
2540 -463 -456 -0.8619709 -0.41138953 -0.29625106 0.057469349
2552 -424 -368 -0.75191653 0.14870551 0.64226806 0.074350856
2529 -452 -409 -0.97535467 -0.11187662 0.19017604 0.086604618
2535 -416 -408 -0.91138625 0.34238076 0.2283649 0.06262441
2557 -407 -368 -0.67330474 0.43780866 0.59580553 0.086205557
2538 -444 -455 -0.93642145 -0.065021478 -0.34480006 0.058472946
2528 -433 -408 -0.96394742 0.16543102 0.2084178 0.066263385
2549 -442 -368 -0.79255289 0.24543549 0.55823058 0.10792739
2566 -390 -368 -0.51165324 0.71782708 0.4721601 0.10610759
2557 -485 -460 -0.76922935 -0.59005916 -0.2451863 0.064179026
2570 -506 -464 -0.72264653 -0.66952652 -0.17180282 0.080597699
2558 -475 -415 -0.54606569 -0.7621243 0.34782007 0.048469987
2567 -446 -317 -0.74446452 0.62543535 0.2336733 0.13641755
2554 -394 -359 -0.72169775 0.26570961 0.63917983 0.1295494
2596 -420 -320 -0.62882018 0.68322903 0.3711918 0.11498688
2560 -425 -361 -0.72368371 0.23478672 0.64896607 0.093200378
2630 -410 -324 -0.56164408 0.7808066 0.27367303 0.11489893
2559 -440 -361 -0.76474512 0.18381564 0.61755699 0.15782367
2578 -433 -318 -0.67267138 0.66582239 0.32279068 0.11272883
2569 -411 -361 -0.62547207 0.41861615 0.65844148 0.09488862
2606 -419 -303 -0.55182511 0.74744916 0.36987662 0.092945285
2599 -412 -344 -0.52997726 0.7198357 0.44828629 0.14127047
2540 -398 -380 -0.79632527 0.39904335 0.45456621 0.083128154
2546 -414 -382 -0.82053411 0.29636827 0.48876327 0.075841077
2582 -424 -342 -0.66901177 0.54989451 0.50003928 0.15419002
2571 -469 -342 -0.58616328 0.46125394 -0.66607624 0.17949905
2534 -443 -381 -0.85683668 0.025661116 0.51494896 0.072608478
2575 -445 -300 -0.68455601 0.56872147 0.45600319 0.15287006
2543 -429 -382 -0.83024168 0.12280356 0.54370773 0.072859377
2589 -432 -301 -0.61829644 0.73297411 0.28365204 0.11226247
2548 -402 -402 -0.78693944 0.5649758 0.24804989 0.095081672
2569 -507 -456 -0.70472747 -0.70730746 -0.055457521 0.096541561
2563 -410 -362 -0.64456159 0.40604359 0.64781868 0.089265279
2527 -435 -400 -0.94298273 0.14329989 0.30041414 0.073314019
2554 -426 -361 -0.74099535 0.2413545 0.62663698 0.087342471
2529 -427 -445 -0.94327801 0.1970716 -0.26718789 0.059338335
2563 -488 -454 -0.74655753 -0.64549696 -0.16120049 0.081253223
2556 -390 -360 -0.71625108 0.2947779 0.63252699 0.14471254
2520 -452 -400 -0.96608716 -0.021321906 0.25733438 0.09177465
2537 -418 -401 -0.89748812 0.30342758 0.32007319 0.067981794
2539 -465 -449 -0.85841495 -0.45097789 -0.2444233 0.058879465
2536 -446 -447 -0.94714385 -0.096836559 -0.30584517 0.065194301
2595 -425 -285 -0.54369015 0.59360117 0.59332842 0.06530381
2570 -485 -479 -0.7128374 -0.52720296 -0.46251476 0.079697914
2532 -432 -427 -0.98341304 0.18045908 -0.018254865 0.068768919
2581 -420 -345 -0.65027362 0.54520792 0.52904868 0.12846324
2551 -423 -386 -0.81565541 0.23279233 0.52963573 0.088125877
2560 -492 -435 -0.64587313 -0.74940372 0.14574601 0.066647165
2539 -470 -430 -0.86173785 -0.50101483 -0.079950318 0.065940835
2565 -465 -477 -0.74993044 -0.42723683 -0.5050475 0.073230758
2593 -429 -304 -0.61371738 0.73619926 0.28523964 0.10035678
2529 -449 -427 -0.99612045 -0.073131621 -0.048947424 0.076947004
2572 -443 -302 -0.70532209 0.62810719 0.32863659 0.15157907
2532 -438 -384 -0.88244861 0.14543618 0.44736207 0.064811714
2548 -404 -385 -0.76906818 0.48906469 0.41152138 0.086854592
2544 -415 -427 -0.88158059 0.47013456 -0.042296797 0.088241413
2610 -413 -305 -0.54144752 0.73128116 0.41480419 0.092791431
2552 -400 -387 -0.72970831 0.56260949 0.38858259 0.097112052
2618 -406 -308 -0.5083757 0.74921358 0.42453867 0.080476418
2593 -415 -349 -0.56440079 0.6248557 0.53945071 0.15898693
2542 -434 -387 -0.85319847 0.06379661 0.51767021 0.080323957
2550 -418 -388 -0.81796211 0.35504669 0.45263654 0.088767089
2564 -462 -477 -0.74466175 -0.4071753 -0.52885455 0.074044935
2543 -452 -388 -0.75515884 -0.31297567 0.57600462 0.1054863
2585 -432 -348 -0.8162896 -0.18728624 0.54643863 0.23832504
2530 -445 -428 -0.99804467 -0.030492341 -0.054561131 0.076694906
2529 -463 -429 -0.92519617 -0.36927173 -0.087466665 0.071124546
2563 -487 -435 -0.63289082 -0.75834608 0.15607809 0.077663198
2592 -419 -305 -0.60683012 0.70879275 0.35968032 0.087642908
2562 -481 -347 -0.5303852 0.48431921 -0.69579202 0.14705893
2587 -436 -305 -0.65966946 0.70683676 0.25537822 0.12246278
2568 -481 -479 -0.7120986 -0.51496315 -0.47720927 0.077790059
2531 -428 -428 -0.97141892 0.23306781 -0.044996541 0.059679057
2537 -417 -420 -0.92277247 0.38122994 0.056166258 0.076631136
2617 -415 -301 -0.51459497 0.74796993 0.41920513 0.080509834
2591 -421 -343 -0.65196842 0.56264442 0.50829965 0.18720318
2570 -468 -342 -0.60867119 0.44879314 -0.6542967 0.18327838
2539 -447 -467 -0.88641363 -0.12756763 -0.44496891 0.054757021
2568 -395 -382 -0.52728218 0.73307055 0.42962906 0.10241909
2537 -435 -421 -0.98507202 0.1602096 0.062975958 0.085134096
2550 -426 -381 -0.7944563 0.16238132 0.58521056 0.081867211
2538 -441 -379 -0.82995868 0.026384629 0.55720067 0.084249943
2598 -429 -300 -0.59410274 0.74469006 0.30410305 0.092455655
2582 -444 -298 -0.67423052 0.58347923 0.45273077 0.14883357
2548 -409 -380 -0.77245599 0.37514076 0.51242667 0.083820857
2554 -484 -471 -0.76837796 -0.53694397 -0.34826222 0.058677349
2537 -452 -421 -0.96336406 -0.24927974 0.098940872 0.097950816
2543 -470 -423 -0.76738292 -0.62957847 0.12146775 0.080232099
2557 -468 -471 -0.78455085 -0.4742454 -0.39946374 0.068399042
2569 -492 -428 -0.52453154 -0.76047426 0.38281259 0.046758618
2531 -465 -411 -0.88325649 -0.44081694 0.15980726 0.087066241
2606 -428 -291 -0.52770132 0.71184862 0.46346831 0.092503868
2543 -461 -327 -0.87047493 0.41349918 0.26700535 0.12282801
2569 -394 -370 -0.50289309 0.71679825 0.48301014 0.10344104
2537 -417 -411 -0.91249835 0.36485615 0.18500446 0.070876464
2529 -432 -410 -0.96547872 0.1850194 0.18335377 0.067618683
2522 -447 -409 -0.98633748 0.030290859 0.16192859 0.076235697
2564 -426 -370 -0.70686674 0.081409395 0.70264643 0.10931224
2558 -409 -369 -0.67988735 0.41110414 0.60724509 0.088137478
2595 -422 -332 -0.64306033 0.65930563 0.3896015 0.16676159
2550 -440 -368 -0.80120564 0.1948016 0.5657931 0.10709791
2620 -409 -335 -0.5781467 0.77080297 0.26759902 0.13970836
2569 -449 -329 -0.7819401 0.59615856 0.1821114 0.17873318
2564 -487 -417 -0.5074029 -0.77576673 0.37513763 0.034765936
2574 -432 -343 -0.73147577 0.49989313 0.46373487 0.15395582
2583 -438 -299 -0.6642921 0.64204478 0.38274589 0.12846482
2586 -405 -344 -0.55108905 0.66988289 0.49755195 0.12336799
2551 -472 -341 -0.84790599 0.39204431 -0.35687065 0.23268294
2612 -413 -302 -0.51600999 0.75546229 0.40374565 0.073579654
2584 -419 -344 -0.6339975 0.56168842 0.53155738 0.13463521
2602 -426 -301 -0.57483774 0.75040066 0.32628268 0.096740618
2546 -413 -393 -0.83238769 0.41107583 0.37168172 0.08577814
2588 -412 -353 -0.5159238 0.67507416 0.52734959 0.12035616
2529 -440 -434 -0.99088722 0.044620816 -0.12708868 0.067146093
2540 -423 -435 -0.93955374 0.30933452 -0.14680231 0.076432109
2538 -430 -392 -0.89143682 0.20750633 0.40284178 0.066078715
2568 -427 -352 -0.71990651 0.41297624 0.55783981 0.11774324
2567 -451 -310 -0.73834956 0.65427816 0.16358496 0.14902519
2556 -482 -441 -0.75430256 -0.64995199 -0.092682533 0.072635062
2528 -446 -392 -0.91030455 -0.012238813 0.4137581 0.083651334
2573 -504 -446 -0.65479904 -0.74651217 0.11814374 0.10264064
2583 -436 -311 -0.68506187 0.68413264 0.25030553 0.1279092
2571 -475 -486 -0.70337021 -0.44779012 -0.55204564 0.077785149
2616 -404 -313 -0.51951963 0.75752068 0.3952997 0.090201318
2596 -419 -311 -0.60441673 0.71034527 0.36068001 0.094033219
2530 -459 -436 -0.93151021 -0.32067761 -0.17162356 0.061476503
2525 -452 -408 -0.98058951 -0.054629117 0.18830781 0.085018769
2535 -417 -408 -0.91369653 0.33214369 0.23417766 0.062344249
2557 -408 -368 -0.67859191 0.41837114 0.60372061 0.088152215
2528 -434 -408 -0.96435362 0.16211504 0.20914328 0.068785742
