# .PCD v0.7 - Point Cloud Data file format
VERSION 0.7
FIELDS x y z normal_x normal_y normal_z curvature
SIZE 4 4 4 4 4 4 4
TYPE F F F F F F F
COUNT 1 1 1 1 1 1 1
WIDTH 809
HEIGHT 1
VIEWPOINT 0 0 0 1 0 0 0
POINTS 809
DATA ascii
2597 -49 319 -0.97604132 0.10174046 -0.19233382 0.12760794
2647 24 284 -0.98605496 -0.13699546 -0.094486952 0.19162892
2596 -33 319 -0.98808318 0.14021495 -0.063493639 0.11830535
2617 17 322 -0.91174412 0.41068578 -0.0077407272 0.13500299
2601 -16 320 -0.96887052 0.24719395 -0.013602898 0.11845435
2627 34 324 -0.92172766 0.38413543 0.053460818 0.17418684
2745 185 298 -0.66218662 0.7483989 -0.037523478 0.19087046
2622 40 282 -0.99793059 -0.058162965 -0.027416011 0.12602468
2634 109 284 -0.8859126 0.45230731 0.1028443 0.094084188
2618 74 282 -0.98242921 0.15444429 0.10478432 0.093010716
2692 164 291 -0.56040198 0.82477897 0.075427011 0.04836015
2661 145 288 -0.65989071 0.74525744 0.095580913 0.06299632
2643 52 326 -0.79844755 0.55651355 0.22972617 0.20387571
2648 127 286 -0.78402269 0.61175781 0.10517012 0.089521177
2629 92 283 -0.94628787 0.29624465 0.1295314 0.10411222
2620 57 282 -0.99497932 0.037429437 0.092817888 0.10804044
2620 26 335 -0.90915102 0.40603721 0.092617802 0.18477349
2657 -4 251 -0.72147101 -0.63641095 -0.27287504 0.20247768
2606 -3 333 -0.93649423 0.33037236 0.11761233 0.1517265
2627 24 248 -0.92499763 -0.37448707 -0.064333282 0.092128538
2612 63 292 -0.98616654 0.067818359 0.1512491 0.095349707
2634 98 250 -0.93409145 0.35503036 -0.037770163 0.099064171
2626 48 293 -0.98764479 0.049058791 0.14883173 0.13356322
2624 68 249 -0.9947558 0.094913691 0.038107652 0.10702307
2637 56 338 -0.8355329 0.54617244 -0.059836168 0.25138882
2625 54 249 -0.99824578 -0.056118052 0.018873567 0.10994963
2648 84 251 -0.96070373 0.26862815 0.069908686 0.17870227
2633 41 337 -0.90769768 0.39841864 0.13171014 0.22209835
2658 72 341 -0.52844179 0.54228711 0.65320283 0.21507098
2615 11 335 -0.89970046 0.40402272 0.16524187 0.17037645
2594 -32 331 -0.98652762 0.15956484 -0.036088925 0.13757563
2622 78 293 -0.95806706 0.16899604 0.23140419 0.11579292
2596 -18 332 -0.97655255 0.21203972 0.037206668 0.14097492
2638 9 249 -0.86034161 -0.46417728 -0.21059863 0.13651416
2635 39 249 -0.96089268 -0.2758745 0.02405235 0.11608186
2646 124 297 -0.80227607 0.56815988 0.18315946 0.089301094
2710 178 259 -0.69502306 0.71883518 0.014799558 0.13513753
2693 172 303 -0.55404317 0.83163911 -0.037584294 0.087279335
2628 108 294 -0.88681269 0.43982881 0.1418231 0.086279221
2630 113 250 -0.8895635 0.45362353 -0.053874817 0.085781887
2733 190 308 -0.55953163 0.72128832 -0.40824944 0.19562143
2686 161 257 -0.56395268 0.81894678 -0.10622356 0.05847783
2653 129 253 -0.72754747 0.67340094 -0.13117117 0.10121313
2686 156 302 -0.57329702 0.81672782 0.065469392 0.083169013
2681 146 256 -0.55219531 0.78443646 -0.28238216 0.072499037
2666 140 300 -0.6508075 0.73268342 0.19905941 0.08706186
2637 57 233 -0.99588901 -0.021977836 0.087875649 0.12822154
2736 180 286 -0.59516007 0.80254465 -0.041310571 0.15560815
2625 39 275 -0.98801357 -0.12834558 -0.085770488 0.12623373
2646 12 277 -0.87374759 -0.27399141 -0.40186295 0.19209464
2698 164 282 -0.51085585 0.85533953 0.08614292 0.082915485
2624 70 232 -0.99287426 0.11892439 0.0075993538 0.12189884
2649 26 278 -0.96275061 -0.25448033 -0.09138374 0.19981375
2638 -1 277 -0.83839184 0.04634697 -0.54309392 0.17226492
2636 97 233 -0.90948355 0.41219026 -0.054212578 0.14107789
2640 111 233 -0.8624016 0.47484317 -0.1754631 0.14527945
2633 84 232 -0.96204251 0.2725153 -0.014476254 0.12431683
2640 11 271 -0.92367321 -0.17190346 -0.34245726 0.1831063
2637 119 272 -0.85929883 0.5058037 0.075948119 0.090005152
2680 149 277 -0.58359885 0.8119967 -0.0085899606 0.04163241
2649 -1 271 -0.72362643 -0.39972329 -0.56265974 0.22606264
2639 106 272 -0.90078133 0.4305082 0.057059132 0.097445384
2612 71 226 -0.99433947 0.10621514 -0.0027104504 0.10196495
2646 133 273 -0.75447488 0.65248632 0.070917942 0.079561509
2705 164 280 -0.52632326 0.84379125 0.10488203 0.1007057
2627 111 228 -0.86992228 0.48735404 -0.075638965 0.093327485
2637 125 229 -0.76121736 0.61387545 -0.2090576 0.11256229
2642 25 271 -0.93288827 -0.33737552 -0.1260843 0.14793214
2614 44 226 -0.96113729 -0.27585584 -0.010887098 0.094226696
2615 58 226 -0.99679559 -0.079854876 0.0046666772 0.11172948
2733 180 284 -0.60046482 0.79475969 0.08831232 0.15350822
2625 -10 314 -0.9269681 0.33428138 -0.17025322 0.16357809
2657 49 319 -0.76677573 0.59816635 0.23292033 0.17234816
2604 -69 311 -0.91772145 0.023357827 -0.39653724 0.1393685
2631 99 272 -0.93452865 0.3552343 0.021557543 0.090003468
2605 -40 312 -0.96658164 0.078470394 -0.2440539 0.12571345
2631 4 315 -0.89134729 0.44035262 -0.10765477 0.15233581
2630 84 271 -0.96990365 0.23528498 0.062673151 0.10767767
2629 77 229 -0.9819532 0.18911709 -0.0015998541 0.12630542
2631 33 228 -0.92594421 -0.37611449 -0.034134828 0.093639128
2640 114 273 -0.86674649 0.48939288 0.096151844 0.086864136
2612 -25 313 -0.97398609 0.16623621 -0.15400191 0.14608304
2619 47 227 -0.97700238 -0.21316463 -0.005208259 0.10690062
2632 69 271 -0.99072355 0.098966926 0.093125559 0.11776758
2600 -84 311 -0.88551694 0.0023293102 -0.46460125 0.15975161
2639 18 229 -0.85390007 -0.5153268 -0.072752282 0.098886505
2601 -54 311 -0.93376464 0.067045622 -0.35155153 0.12246722
2636 24 271 -0.94507569 -0.27494475 -0.17674084 0.16294451
2618 62 228 -0.9994455 0.0081587723 0.032280963 0.1145771
2599 -113 311 -0.79858452 -0.17379184 -0.57624578 0.17085747
2601 -98 311 -0.91007447 -0.10605211 -0.40064609 0.19586599
2740 181 285 -0.62319434 0.78130138 0.034595981 0.15878536
2656 130 275 -0.7400462 0.6674909 0.08238592 0.081893221
2697 163 280 -0.52874917 0.84578174 0.071257308 0.073749796
2678 146 278 -0.61522621 0.78834039 0.0040087155 0.064131856
2627 30 297 -0.98611039 0.16328412 -0.03040651 0.15235987
2611 22 338 -0.92575765 0.37180975 -0.068776101 0.18780395
2616 -14 295 -0.87780964 0.27407691 -0.39285114 0.12110487
2615 15 295 -0.95246434 0.2374232 -0.19089739 0.14173031
2608 -43 294 -0.90294129 0.030988896 -0.42864522 0.11792739
2617 59 296 -0.96935785 0.077934705 0.23296238 0.1048467
2610 -28 294 -0.90006709 0.12274673 -0.41810578 0.13195589
2661 126 257 -0.70792121 0.69409502 -0.13068898 0.10806621
2602 -58 293 -0.88197953 0.014311149 -0.47107029 0.11506512
2644 21 254 -0.8891077 -0.45601776 -0.039181802 0.14299823
2642 95 255 -0.93454486 0.35143673 -0.055839214 0.14349371
2653 111 256 -0.81363255 0.54778194 -0.19477424 0.15726945
2619 0 295 -0.90335643 0.28631794 -0.31932619 0.12365782
2703 159 262 -0.54128629 0.82837433 -0.14423914 0.10597603
2678 142 259 -0.60454148 0.77351749 -0.19026387 0.068457931
2607 -90 303 -0.90661472 -0.027934395 -0.42103377 0.16658249
2606 -74 303 -0.87734622 -0.0046099839 -0.47983575 0.13302785
2609 -25 304 -0.92255682 0.15635701 -0.35276267 0.12210587
2610 -42 304 -0.94012725 0.066319838 -0.33430889 0.1178741
2610 -58 304 -0.90231204 0.022939676 -0.43047276 0.1179425
2630 39 307 -0.9764483 0.20811975 0.056875382 0.15105276
2640 110 267 -0.89031661 0.45370445 0.038584109 0.099921979
2632 102 222 -0.88214803 0.45204449 -0.13217619 0.12650633
2632 119 222 -0.81455594 0.56151992 -0.14558154 0.10028285
2616 70 220 -0.99341595 0.1091923 -0.034667585 0.12318834
2624 53 220 -0.98892707 -0.14572464 -0.028065322 0.11975508
2618 -9 305 -0.8898859 0.31328773 -0.33159289 0.12686257
2628 6 306 -0.90573931 0.32895401 -0.2672556 0.13203035
2666 144 271 -0.64417404 0.76381862 -0.040261686 0.061615404
2637 23 307 -0.93271744 0.34000942 -0.12013272 0.16399831
2702 163 275 -0.5040372 0.86344439 0.02025795 0.091077797
2655 127 269 -0.7646718 0.64440709 0.0040810485 0.092049599
2624 30 349 -0.88665426 0.43331105 -0.16151078 0.26456365
2625 71 307 -0.98437423 0.073118038 0.1601909 0.15297757
2604 -23 289 -0.90195143 0.1321989 -0.41110453 0.12239229
2600 -58 288 -0.90648335 -0.0010828562 -0.4222402 0.11583709
2598 -40 288 -0.92244965 0.024271272 -0.3853538 0.11854217
2616 11 290 -0.94785112 0.17952128 -0.26334476 0.139902
2639 47 293 -0.97454196 0.0073824851 0.22408363 0.16430126
2744 179 307 -0.79995537 0.52559984 0.28951022 0.19611412
2630 29 292 -0.99528897 0.089379452 -0.037567411 0.16510159
2647 101 295 -0.80863684 0.33916688 0.48069984 0.15312156
2629 10 325 -0.89437145 0.44147715 0.072095394 0.14638525
2632 35 283 -0.99249631 -0.11752491 -0.03374723 0.16511859
2617 -5 323 -0.93302697 0.35712677 0.043831687 0.1440032
2632 26 326 -0.90357858 0.41377535 0.11106676 0.16875352
2618 -38 323 -0.99227083 0.1192934 -0.034173377 0.1640617
2625 19 282 -0.93775111 -0.054714803 -0.34297118 0.17266744
2648 43 328 -0.76664847 0.56622154 0.30272657 0.18104832
2606 -21 322 -0.97587121 0.21798688 -0.012538759 0.14171201
2677 158 248 -0.59670043 0.78872657 -0.14784783 0.049695231
2706 176 251 -0.67405224 0.69876432 0.23954539 0.14582926
2649 123 245 -0.74782324 0.62822843 -0.21468461 0.12192316
2637 74 243 -0.98171771 0.18293813 0.052573714 0.1205072
2696 170 293 -0.53564 0.8423686 0.059201621 0.04930136
2641 90 243 -0.93325669 0.35718706 -0.038071048 0.14054923
2635 57 242 -0.99725717 -0.027086709 0.068879649 0.11464377
2660 140 246 -0.60167742 0.77568752 -0.19050755 0.081412755
2640 106 244 -0.8942762 0.43476126 -0.10607876 0.12373476
2618 72 266 -0.99077612 0.13053696 0.036371429 0.081501871
2625 2 308 -0.89543319 0.3657836 -0.25377506 0.13064466
2634 17 222 -0.86835486 -0.49213004 -0.06138289 0.094082505
2633 105 268 -0.91337693 0.40649596 0.022442628 0.09487471
2603 -62 304 -0.90612799 0.030832509 -0.4218784 0.11218444
2624 89 267 -0.96055251 0.27418503 0.046490982 0.079821885
2618 65 222 -0.99958009 0.023901559 0.016382201 0.11781558
2640 18 309 -0.90748143 0.39636061 -0.13919643 0.16868874
2611 -30 306 -0.93108791 0.1647688 -0.32546362 0.13004835
2616 -14 306 -0.90550697 0.28354865 -0.31568548 0.12714313
2606 -46 305 -0.93345869 0.061878078 -0.3533071 0.12010534
2642 100 311 -0.76236105 0.35816115 0.5390048 0.17137896
2645 35 310 -0.9144249 0.40193856 0.047671482 0.18959233
2662 51 312 -0.76539367 0.62803686 0.14050716 0.17869551
2660 139 272 -0.68276894 0.73025328 0.023595078 0.06787955
2644 122 270 -0.81160724 0.57853395 0.08119186 0.084394246
2741 178 281 -0.55277318 0.82687563 0.10352983 0.14977211
2685 158 275 -0.5523625 0.83345413 -0.015804915 0.049860742
2663 7 271 -0.609317 -0.79156339 0.046477955 0.23471044
2635 53 226 -0.99432921 -0.081577241 0.068224758 0.13757107
2639 40 226 -0.96022743 -0.27734777 0.032271653 0.12851186
2642 27 226 -0.8697356 -0.49169216 -0.042413153 0.099444218
2633 80 226 -0.9777447 0.20635913 0.037830964 0.13408132
2641 129 271 -0.78992313 0.61290157 0.01931617 0.082229428
2674 144 275 -0.6315037 0.7752105 0.015870668 0.067439832
2719 174 280 -0.5450266 0.82601231 0.14369951 0.10385524
2656 116 273 -0.79977369 0.59872884 0.04342597 0.14554854
2638 121 228 -0.75818741 0.59466863 -0.26743421 0.12552264
2695 159 278 -0.54939789 0.8355602 -0.001011503 0.083113246
2633 107 227 -0.85794532 0.49257842 -0.14593267 0.13024272
2640 94 227 -0.8404581 0.46690753 -0.27500466 0.16549855
2630 1 290 -0.9020735 0.19876236 -0.3830888 0.14040084
2635 105 246 -0.90523982 0.42231363 -0.046819352 0.10935028
2704 165 253 -0.5487352 0.80004346 -0.24252857 0.1102393
2751 179 302 -0.71681434 0.68652964 0.12187854 0.20351988
2649 120 248 -0.77351189 0.58505023 -0.24371199 0.123615
2646 44 291 -0.95387077 -0.048964668 0.29619762 0.17213367
2636 91 247 -0.94491327 0.32667664 -0.020525558 0.1140914
2633 76 246 -0.98001581 0.19464004 0.04103839 0.11920795
2661 134 249 -0.63676602 0.74351573 -0.20423868 0.092517495
2626 -12 290 -0.85756141 0.21256006 -0.46840864 0.13429996
2637 30 290 -0.99805015 -0.051676016 -0.035005886 0.1785043
2680 149 250 -0.57281667 0.75149548 -0.32731566 0.077735081
2612 9 337 -0.92447853 0.35231924 0.1456382 0.15235434
2602 -8 336 -0.95023566 0.26229027 0.16809556 0.15039806
2644 63 341 -0.6608085 0.5485478 -0.51227665 0.26245666
2604 -26 336 -0.96720022 0.19728266 0.16001022 0.15374094
2634 45 340 -0.88563782 0.45756519 0.079244785 0.2453628
2625 27 339 -0.86958402 0.44784001 0.20799729 0.21009332
2628 32 273 -0.9595558 -0.23286405 -0.15819931 0.14384219
2646 114 276 -0.85609555 0.51388961 0.054936197 0.098536015
2638 100 275 -0.92902821 0.35741302 0.095720656 0.12700099
2640 19 274 -0.93562871 -0.22240344 -0.27410862 0.17300642
2632 86 274 -0.9684999 0.24081717 0.063363403 0.10986704
2650 128 277 -0.76844704 0.63041312 0.10985612 0.079828836
2645 6 274 -0.84255022 -0.21499479 -0.49384862 0.20470874
2671 143 279 -0.64170188 0.76491702 0.055863246 0.05813013
2696 158 282 -0.52213037 0.8483417 0.087729231 0.083559729
2622 46 273 -0.99385428 -0.1106638 0.0026921674 0.10537512
2624 73 273 -0.98461109 0.15242246 0.085488677 0.10038486
2630 59 274 -0.9960745 0.035883892 0.080919154 0.12488339
2731 174 286 -0.58767879 0.7819559 0.20779459 0.13094065
2620 44 261 -0.98763984 -0.15629753 -0.011778104 0.091942251
2619 -35 304 -0.9197855 0.14300287 -0.36543778 0.14734644
2641 83 308 -0.76431853 0.30097571 0.57029009 0.15505032
2611 -20 303 -0.9139384 0.20496657 -0.35029313 0.1252154
2617 58 261 -0.99938637 -0.012659162 0.032657851 0.088142253
2644 14 263 -0.88820422 -0.42787108 -0.16739057 0.16808367
2615 8 304 -0.91470903 0.33430135 -0.22704627 0.13020004
2638 98 308 -0.74296373 0.37355983 0.55538988 0.1687246
2623 -65 305 -0.906124 -0.0049568159 -0.42298317 0.16485251
2619 103 262 -0.93058491 0.36542678 0.021796552 0.069044799
2638 53 307 -0.91768301 0.27108318 0.29046839 0.17757608
2624 1 349 -0.68350095 0.18450963 0.70624542 0.18229198
2620 88 261 -0.96367812 0.26660952 0.015612164 0.083193801
2627 31 349 -0.823699 0.44693655 -0.34895244 0.25982034
2612 -28 347 -0.90800452 0.11651689 0.40243226 0.18051562
2633 29 262 -0.94276965 -0.32638913 -0.068232141 0.12028398
2625 23 305 -0.94113231 0.32666251 -0.086957224 0.1507353
2619 73 261 -0.98793703 0.15154584 0.031848948 0.082766153
2631 38 306 -0.98176152 0.18680303 0.035340883 0.15264535
2634 68 307 -0.86532003 0.25509048 0.43145117 0.15980873
2627 16 349 -0.8392387 0.37189776 0.3966994 0.22037806
2613 -13 347 -0.88441002 0.2574867 0.38925502 0.1794477
2638 46 351 -0.5807243 0.28344828 -0.76316214 0.22779231
2605 -5 303 -0.89261693 0.32128245 -0.31624776 0.13151017
2638 119 264 -0.85243267 0.52269661 0.012113807 0.091293447
2669 150 268 -0.60513747 0.79041237 -0.095168442 0.038231086
2650 134 265 -0.72807467 0.6854955 0.0017757633 0.07716684
2708 168 272 -0.50394875 0.86362314 0.013808737 0.089719176
2606 -2 330 -0.93254948 0.35891992 0.039088495 0.15007703
2600 -20 329 -0.98095626 0.19417793 0.004447164 0.14040644
2622 15 332 -0.89489335 0.43326688 0.10698458 0.17094518
2621 34 254 -0.96626121 -0.25550181 -0.032528296 0.09301766
2620 47 254 -0.98758167 -0.15567042 0.021193095 0.084540009
2657 -5 257 -0.65526426 -0.6876052 -0.31277448 0.23052792
2623 74 254 -0.98728633 0.15513499 0.034624618 0.10097736
2631 20 254 -0.91153109 -0.38600874 -0.14180396 0.12606895
2639 7 255 -0.84028751 -0.46216163 -0.28341398 0.15809777
2617 60 254 -0.99921143 -0.0069007454 0.03910289 0.093911082
2627 87 255 -0.95841807 0.28536779 0.00036328693 0.092149943
2646 129 258 -0.77670908 0.62767923 -0.052361399 0.079216115
2712 174 265 -0.63813794 0.76827812 0.050285675 0.12482212
2674 144 261 -0.61547154 0.77307481 -0.15346029 0.065719061
2629 101 256 -0.92315763 0.38111758 -0.050293438 0.09179499
2635 115 256 -0.88113528 0.47055393 -0.046686791 0.088863894
2694 159 263 -0.53927082 0.83285522 -0.12465578 0.075589515
2602 -79 314 -0.91345048 -0.0052513159 -0.40691596 0.16025312
2603 -112 315 -0.88570935 -0.20096236 -0.4184891 0.18151845
2621 -11 317 -0.9448787 0.31054956 -0.10374565 0.15422273
2606 -95 315 -0.90007061 -0.079007566 -0.42852163 0.19721763
2648 39 321 -0.79860455 0.52859384 0.28778347 0.17827851
2612 -28 316 -0.97798091 0.15081444 -0.14425102 0.14941521
2632 21 232 -0.89089584 -0.44923213 -0.06704548 0.088521712
2635 11 277 -0.91584128 -0.03357175 -0.40013465 0.17464595
2609 -45 315 -0.96799338 0.076258913 -0.23910968 0.13834935
2623 38 232 -0.95915651 -0.28259322 -0.012640255 0.086945161
2607 -62 315 -0.95645517 0.040720325 -0.28902492 0.14934681
2616 54 231 -0.99170405 -0.12813479 0.010218433 0.099169329
2636 123 234 -0.81152236 0.57010776 -0.12809591 0.10624977
2612 71 231 -0.99545985 0.093761578 0.016383307 0.10312915
2640 114 279 -0.86995214 0.48004958 0.11285215 0.089462042
2671 150 284 -0.60643828 0.78905797 0.098082051 0.037533734
2619 79 277 -0.97903579 0.19459355 0.060185146 0.084517501
2652 132 281 -0.73996758 0.66086376 0.12532738 0.074892752
2638 97 279 -0.92000407 0.34424704 0.18731397 0.13713118
2702 169 287 -0.50992858 0.85726589 0.071190089 0.087754272
2631 105 234 -0.89350271 0.4468495 -0.044479672 0.10921869
2614 -95 314 -0.92963016 -0.14899713 -0.33702767 0.20161991
2610 -79 314 -0.89954591 0.0029358722 -0.43681639 0.17072183
2610 -33 314 -0.96301293 0.15837996 -0.21799475 0.14704475
2611 -64 314 -0.93651086 0.052002575 -0.34676084 0.15359069
2612 -48 314 -0.97196472 0.054845072 -0.22864079 0.14676884
2639 73 234 -0.98893023 0.14294375 0.039802097 0.12653936
2643 115 277 -0.85925341 0.50342482 0.090812519 0.090428352
2633 89 234 -0.94995368 0.31231582 0.0068470417 0.12436233
2636 104 234 -0.88833761 0.44977298 -0.092522703 0.13620536
2622 -2 315 -0.90246856 0.40153655 -0.15594532 0.12957229
2633 13 317 -0.89498413 0.44588754 0.013700162 0.14862907
2643 58 234 -0.99368441 -0.0079402458 0.11192945 0.13930458
2638 120 235 -0.82968682 0.54469115 -0.12219407 0.10475692
2661 137 237 -0.52256685 0.76572555 -0.37495109 0.10439686
2643 29 318 -0.89017642 0.44627535 0.091784351 0.17078786
2657 132 279 -0.73840213 0.66894227 0.085314162 0.078677975
2708 167 285 -0.51227409 0.85409653 0.0899681 0.088451959
2617 -17 315 -0.95577067 0.25025666 -0.15451245 0.14859307
2686 149 282 -0.57577914 0.8150841 0.064158782 0.064699151
2608 -31 307 -0.94169933 0.14670049 -0.30278918 0.1256319
2622 4 309 -0.90750879 0.36521715 -0.20747104 0.12029629
2630 22 310 -0.92962849 0.36408153 -0.056881629 0.14507851
2629 -5 355 -0.52127856 0.11738272 0.8452751 0.13879262
2604 -13 307 -0.91976082 0.25254151 -0.30043769 0.12210993
2634 75 311 -0.92146862 0.19581106 0.33548999 0.18096256
2652 58 313 -0.77610046 0.48026884 0.40866837 0.16812453
2635 40 311 -0.95320022 0.29805002 0.05074928 0.17053452
2612 -85 310 -0.89351821 -0.092624635 -0.43936989 0.1714291
2657 57 314 -0.7716282 0.52734935 0.35565805 0.18384455
2612 -14 309 -0.9179638 0.27732903 -0.28360382 0.12755495
2616 -67 311 -0.93562019 0.041518304 -0.35055825 0.16962567
2617 -32 310 -0.9565329 0.16459672 -0.24073373 0.15405455
2623 3 311 -0.90457958 0.37788534 -0.19732817 0.12190511
2645 39 313 -0.89053899 0.43948156 0.11745751 0.18077761
2633 21 312 -0.91954172 0.38843545 -0.059673876 0.15503007
2614 -49 310 -0.9441939 0.066442505 -0.32261941 0.14691234
2627 15 341 -0.84770924 0.41213807 0.33396292 0.18454273
2641 51 343 -0.86612427 0.49936715 0.021476343 0.27078131
2661 69 346 -0.67286819 0.67571622 0.30109149 0.22698382
2614 -2 340 -0.91427898 0.31378528 0.25618869 0.17869596
2632 32 342 -0.86614627 0.4152765 0.27809379 0.22082454
2608 -20 339 -0.95259428 0.24101254 0.18568002 0.16374631
2654 45 294 -0.9352814 0.087673888 0.34287313 0.2056983
2606 -29 290 -0.90766948 0.12477016 -0.40071002 0.11693972
2636 92 247 -0.94373322 0.33015296 -0.019145111 0.11458814
2642 107 247 -0.88333201 0.4542132 -0.11582257 0.12872873
2662 54 339 -0.69869453 0.61121833 0.37180394 0.1644907
2638 30 292 -0.99964249 -0.0031635405 -0.026546873 0.1809568
2607 -43 290 -0.90929103 0.043984406 -0.41382989 0.10978145
2649 122 248 -0.77308047 0.59667808 -0.2152254 0.12797983
2625 15 291 -0.95471895 0.14280477 -0.26099527 0.15457235
2632 9 335 -0.87122893 0.44203305 0.21346432 0.17337617
2640 39 336 -0.84013027 0.48874462 0.23518035 0.20297791
2611 -58 291 -0.89765048 0.019406244 -0.44028053 0.12357589
2632 24 335 -0.85961777 0.47891605 0.17803589 0.19274279
2660 137 249 -0.6082902 0.75874954 -0.23298529 0.089313239
2620 0 291 -0.89930409 0.26008204 -0.35158134 0.12873152
2628 62 246 -0.99708742 0.02530749 0.071945712 0.10890611
2613 -14 290 -0.8794179 0.24494724 -0.40819713 0.11700369
2631 77 246 -0.98031443 0.19407491 0.036313366 0.11490093
2740 185 303 -0.78496462 0.59453851 0.1742254 0.17244101
2682 153 251 -0.5519228 0.80317664 -0.22425097 0.066149712
2709 167 299 -0.54111707 0.78600103 0.29898944 0.12857151
2701 169 253 -0.55228269 0.81247139 -0.18674643 0.10148439
2633 70 280 -0.97554475 0.10350861 0.193903 0.12780695
2644 101 281 -0.90280813 0.34349781 0.25874028 0.14642492
2639 86 281 -0.92426318 0.24996909 0.28853607 0.13828883
2649 19 328 -0.85370618 0.5002588 0.1446614 0.18849425
2639 60 238 -0.99593037 0.01693997 0.088519253 0.12372602
2646 117 281 -0.83796442 0.53486091 0.10834865 0.087967984
2644 -7 282 -0.78594822 0.15724425 -0.59796286 0.17538711
2652 8 283 -0.8258931 -0.27768901 -0.4907029 0.22856365
2660 133 283 -0.72037905 0.6818679 0.12692574 0.074745812
2745 186 292 -0.60945338 0.78620112 -0.10224722 0.17836712
2678 150 285 -0.58517182 0.804268 0.10357097 0.039841149
2706 167 288 -0.52237445 0.84422719 0.12002255 0.097732835
2639 38 253 -0.95742571 -0.28461358 0.048281386 0.13578379
2642 24 253 -0.88465875 -0.46475223 -0.037206575 0.13346693
2650 32 298 -0.9831444 0.17766486 -0.043153465 0.20227638
2630 60 296 -0.95458496 0.13289227 0.26665944 0.12898895
2635 80 254 -0.97422403 0.22512786 0.014316174 0.11057684
2642 74 298 -0.8088699 0.26844493 0.52313179 0.15274777
2655 17 298 -0.91245764 0.26536879 -0.31144884 0.2302047
2633 46 296 -0.98260784 0.08773572 0.16365886 0.14647526
2628 66 253 -0.99636233 0.068972729 0.050049074 0.10722444
2655 10 255 -0.79038817 -0.60667259 -0.085058548 0.17166862
2631 52 253 -0.99743736 -0.061799612 0.036049433 0.11877258
2637 89 297 -0.88456744 0.23964484 0.4001385 0.15043259
2641 109 255 -0.89012355 0.44950578 -0.074997328 0.11134769
2698 155 261 -0.53860074 0.81874561 -0.19890912 0.09391176
2692 149 305 -0.5156197 0.66958672 0.53459328 0.15224031
2639 103 298 -0.84218591 0.40990695 0.35028446 0.13011426
2673 133 302 -0.57186913 0.65857494 0.48912641 0.12412263
2715 171 263 -0.57720196 0.81658083 -0.0057994723 0.11099126
2650 124 256 -0.77251977 0.62826383 -0.092183225 0.10074068
2637 95 254 -0.93771416 0.34499243 -0.040895186 0.11329422
2686 140 260 -0.53621781 0.78190339 -0.31795853 0.091090888
2696 164 306 -0.50718689 0.84888184 0.14886592 0.10480134
2639 98 280 -0.90843737 0.34954491 0.22925949 0.13488901
2622 -63 321 -0.96730685 -0.087425753 0.23806345 0.20743079
2626 51 278 -0.99880111 -0.022621118 0.043411482 0.12809429
2643 14 324 -0.8694824 0.4819155 0.10843368 0.17043953
2634 35 278 -0.982853 -0.16854854 -0.074775495 0.15946066
2629 67 278 -0.98858017 0.079925664 0.12775426 0.13374443
2637 82 279 -0.94429988 0.232545 0.23285279 0.14406373
2681 148 285 -0.58875459 0.79421598 0.15029666 0.051398125
2662 131 283 -0.71249878 0.67582989 0.18867829 0.08369863
2648 114 281 -0.84219867 0.51853931 0.14771001 0.11421108
2711 165 289 -0.52407819 0.82287186 0.21959929 0.13175566
2642 33 222 -0.88511163 -0.46450388 -0.028522626 0.1043034
2638 46 222 -0.97920746 -0.20094728 0.027800705 0.12677449
2608 -81 298 -0.86839831 -0.033683579 -0.49472204 0.15026672
2620 60 253 -0.99998659 0.0016799233 0.0048987037 0.09728983
2611 -64 298 -0.87530404 0.017462868 -0.48325759 0.12017501
2632 27 254 -0.92506194 -0.37787974 -0.038306046 0.11631653
2630 94 254 -0.94416642 0.32763204 -0.034741271 0.097982109
2620 43 253 -0.98177886 -0.18994097 0.0057163471 0.082168333
2652 88 301 -0.68670213 0.27003428 0.67492336 0.1610114
2731 186 264 -0.66976583 0.67560989 0.30816403 0.21174231
2612 -47 298 -0.91499871 0.045304283 -0.4009051 0.11975819
2623 77 253 -0.97875267 0.20327894 0.026850296 0.10161634
2648 129 256 -0.75220317 0.65457094 -0.075679041 0.081047595
2614 -30 298 -0.8885693 0.1661367 -0.42760164 0.13871907
2618 -14 298 -0.87742031 0.26704785 -0.39852121 0.12566034
2661 147 257 -0.61153167 0.78083611 -0.12776534 0.053001605
2637 112 254 -0.88972563 0.45234174 -0.061442964 0.097343095
2630 2 299 -0.89051288 0.30122247 -0.34095722 0.13585219
2644 37 301 -0.97613329 0.20889381 0.059390694 0.19004209
2632 19 299 -0.94736665 0.26382637 -0.18136175 0.15865359
2692 166 260 -0.55864203 0.82655889 -0.068697982 0.064604566
2626 -6 286 -0.86826152 0.22933026 -0.43991986 0.13466138
2625 52 285 -0.99068314 -0.011860281 0.13567007 0.13058275
2646 47 331 -0.77976668 0.55391562 0.29178995 0.20622495
2625 67 285 -0.9772988 0.11494589 0.17797332 0.12479223
2642 56 242 -0.99582922 -0.03259236 0.085216977 0.13084175
2622 -12 329 -0.93697876 0.30468193 0.17099646 0.17323795
2647 8 288 -0.90057528 0.043463252 -0.43252188 0.20210674
2638 17 330 -0.87146962 0.46221101 0.16401729 0.17221074
2645 32 331 -0.81748945 0.51857251 0.25058666 0.1723876
2626 2 329 -0.89435816 0.42316508 0.14510302 0.1560441
2619 -27 329 -0.95951003 0.1944662 0.20377311 0.17711794
2642 112 286 -0.86446178 0.47210723 0.17268628 0.1079415
2633 82 286 -0.93284547 0.23372185 0.27417743 0.13924226
2633 97 286 -0.91958749 0.33621886 0.20326249 0.1170352
2651 127 287 -0.76040244 0.63398176 0.14090808 0.08493641
2732 177 296 -0.65741146 0.74852759 0.086697839 0.15938616
2704 160 293 -0.51765025 0.79722703 0.31059188 0.13135514
2676 143 290 -0.62037957 0.75005162 0.22924148 0.067770265
2597 -42 317 -0.97740108 0.088334635 -0.19205242 0.12347727
2616 -57 319 -0.97765243 0.022737468 -0.20899449 0.16209106
2604 -27 318 -0.97703004 0.18272501 -0.10965375 0.14031637
2712 170 288 -0.50890106 0.85409451 0.10743505 0.094024174
2636 103 278 -0.90849006 0.39246312 0.14359154 0.10360304
2630 87 278 -0.96602082 0.23699726 0.1031313 0.11401258
2661 135 282 -0.69892538 0.70799601 0.10121766 0.06982398
2625 71 277 -0.98123205 0.12275043 0.1487142 0.10492349
2610 -12 319 -0.95572937 0.28877908 -0.056460921 0.14033423
2683 152 284 -0.57360363 0.8145144 0.0868636 0.035318296
2639 64 235 -0.99640906 0.048314176 0.069532774 0.12272771
2644 118 280 -0.8372398 0.53461617 0.11495648 0.086477064
2630 32 234 -0.93406779 -0.35691595 -0.011327325 0.089477837
2622 2 320 -0.89493972 0.4460499 0.011057216 0.14039038
2644 34 323 -0.84719789 0.46956453 0.24852541 0.1755136
2635 18 322 -0.90296978 0.4289726 0.025060769 0.16322498
2621 48 234 -0.98683918 -0.16006671 0.022957992 0.10057933
2654 50 325 -0.71444589 0.60354525 0.35397765 0.15184069
2642 17 235 -0.85602921 -0.5125826 -0.066880882 0.11313643
2632 75 256 -0.98511606 0.16872577 0.032832582 0.11263575
2665 7 258 -0.62685978 -0.7780537 -0.040979002 0.19945624
2639 21 256 -0.90009427 -0.42966348 -0.072247095 0.14682017
2634 34 255 -0.94445169 -0.3286266 0.0039551533 0.11678051
2631 48 255 -0.99475688 -0.099186741 0.024912598 0.12438022
2628 88 255 -0.95899302 0.2833547 -0.0065232874 0.092434548
2626 61 255 -0.99853086 0.014589843 0.052184824 0.11329919
2716 175 266 -0.67895657 0.73028982 0.075463727 0.13699768
2634 102 256 -0.92139345 0.3853834 -0.050136346 0.09800452
2679 145 262 -0.60286504 0.77551645 -0.1874246 0.061589774
2697 159 264 -0.52796835 0.84021038 -0.12367731 0.081930444
2637 115 257 -0.88191181 0.46785173 -0.057846129 0.099971719
2656 130 259 -0.71768153 0.69094723 -0.08674816 0.095785923
2607 -81 319 -0.91315883 -0.004121196 -0.40758315 0.19936937
2611 -52 319 -0.98899227 0.069260992 -0.13075617 0.15266655
2608 -66 319 -0.95709229 0.045820158 -0.28613794 0.15647569
2614 -96 321 -0.79880846 -0.28328404 0.53071213 0.19705421
2646 37 322 -0.81567723 0.50902593 0.27488768 0.18087621
2742 180 288 -0.59700239 0.80221289 -0.006533327 0.16105346
2648 16 234 -0.83034331 -0.55053073 -0.086289473 0.11185329
2635 72 277 -0.98163682 0.12902248 0.1405077 0.13471405
2646 117 278 -0.83751738 0.53972119 0.085238494 0.092642717
2690 148 283 -0.5040307 0.83783698 0.20971952 0.11458679
2711 164 285 -0.52680224 0.82369137 0.20979042 0.12504296
2652 52 323 -0.71174347 0.61461186 0.3401081 0.15751083
2620 60 231 -0.9984175 -0.019232007 0.052844502 0.11172251
2621 -7 320 -0.93446231 0.35594919 0.0089607835 0.15752894
2635 22 321 -0.90113896 0.43042842 0.051768173 0.16695984
2610 -37 319 -0.98728967 0.11201186 -0.11274952 0.148406
2636 75 232 -0.98681307 0.16028149 0.02257771 0.12017187
2668 132 280 -0.68435848 0.71994948 0.11543947 0.093389966
2624 7 320 -0.9003216 0.43458143 0.02366518 0.1423021
2612 -22 319 -0.97621095 0.19098569 -0.10264835 0.1498331
2637 31 233 -0.90913862 -0.41631246 -0.012281486 0.092375726
2637 87 277 -0.94409323 0.24952301 0.21546765 0.13831654
2638 102 277 -0.91557956 0.38038355 0.13047005 0.11848904
2624 45 232 -0.97914857 -0.20167014 0.024435617 0.099732406
2635 30 257 -0.93784571 -0.34590742 -0.028167073 0.11693024
2625 56 256 -0.99878663 -0.030847546 0.038389198 0.11324199
2705 168 263 -0.54030693 0.83639008 -0.092304237 0.08073543
2629 83 256 -0.96706766 0.25406885 0.0151349 0.10474543
2726 183 265 -0.66844261 0.72287399 0.17503604 0.18755437
2642 16 258 -0.89934152 -0.42020676 -0.12087595 0.16777971
2636 97 256 -0.93503547 0.35300553 -0.033102177 0.10190629
2628 70 256 -0.99259186 0.10914675 0.053369638 0.10548605
2639 111 257 -0.88903719 0.45526347 -0.048455417 0.099325091
2625 43 256 -0.97945225 -0.20135006 0.011461381 0.090670116
2653 3 259 -0.78919488 -0.56566709 -0.23914894 0.20966405
2679 153 261 -0.59066123 0.80107099 -0.096977562 0.045988034
2669 139 260 -0.63192016 0.76042032 -0.14979264 0.075117059
2647 124 258 -0.78979439 0.61309153 -0.018535824 0.086960182
2646 27 230 -0.86564618 -0.49971488 -0.030687118 0.10099867
2639 7 273 -0.89411181 -0.14458585 -0.42386201 0.18292801
2649 108 232 -0.71240771 0.54369754 -0.44369835 0.18388283
2627 81 229 -0.97596544 0.21792524 0.00032827453 0.13001046
2623 67 229 -0.99616551 0.079151891 0.037272949 0.11925328
2630 40 229 -0.96032256 -0.27884355 0.0051877121 0.10122191
2630 94 230 -0.93641996 0.3493 -0.033273589 0.13691494
2645 102 275 -0.91122079 0.38051948 0.15773928 0.14699592
2622 54 229 -0.99256897 -0.11057657 0.050790183 0.10799369
2645 116 275 -0.84725261 0.52457625 0.083562419 0.091411874
2726 176 285 -0.64512086 0.74658626 0.16256696 0.12952112
2644 122 232 -0.74149376 0.59670728 -0.306802 0.12207474
2696 160 281 -0.52706605 0.84581125 0.082490675 0.084007613
2682 145 279 -0.60610086 0.79370868 0.051655199 0.067311026
2647 129 275 -0.76988524 0.63580406 0.055043932 0.083976068
2637 87 259 -0.95631355 0.28488785 0.065600544 0.12031215
2679 149 265 -0.59407228 0.79539388 -0.12011091 0.046601418
2635 21 216 -0.85053563 -0.52142954 -0.068559431 0.09117303
2601 -14 342 -0.93990225 0.18167542 0.28909826 0.15876433
2606 -21 299 -0.9219619 0.18670727 -0.33930314 0.12834546
2606 0 343 -0.94010067 0.25389588 0.22748113 0.2021784
2615 -36 300 -0.89419377 0.14587909 -0.42324549 0.1370091
2657 133 262 -0.70825797 0.70344585 -0.059453145 0.092524126
2716 167 269 -0.50941545 0.85882539 0.053990722 0.10722811
2644 37 304 -0.95540297 0.28735042 0.068080492 0.18908155
2636 102 259 -0.92279047 0.38416255 -0.029613871 0.10327123
2646 117 261 -0.83143967 0.55363476 -0.046867996 0.11668861
2630 -1 288 -0.89527792 0.22158216 -0.38649559 0.13576728
2628 57 287 -0.96666896 0.087068915 0.24076992 0.12882483
2630 42 287 -0.99483377 -0.0026241431 0.10148376 0.15252066
2658 121 245 -0.67334819 0.63294768 -0.38207254 0.13762693
2621 13 286 -0.94111133 0.060043126 -0.33272257 0.15347666
2644 91 244 -0.91425389 0.39362097 -0.095928922 0.16219226
2609 7 328 -0.93337196 0.35611317 0.044723399 0.14507933
2612 22 329 -0.91566491 0.40184811 -0.0087188026 0.14902844
2649 106 244 -0.83302915 0.48547718 -0.26528174 0.15752783
2611 -34 302 -0.91990393 0.16112006 -0.35751513 0.12356815
2613 -52 303 -0.92277753 0.020942993 -0.3847636 0.13277981
2615 -17 303 -0.89456403 0.27529809 -0.35208818 0.12620118
2611 -88 303 -0.87256998 -0.021564249 -0.48801285 0.16543449
2610 -70 303 -0.89732563 0.034695208 -0.4400034 0.13302407
2634 36 304 -0.98409545 0.1776185 0.0027964127 0.16152041
2613 0 302 -0.91027892 0.30263925 -0.28249195 0.12000679
2631 18 304 -0.92569345 0.3303749 -0.1842393 0.15039359
2643 54 305 -0.88946456 0.26353711 0.37336445 0.18666121
2668 4 256 -0.52651411 -0.85007888 -0.012196866 0.20471846
2648 17 254 -0.8698622 -0.49215165 -0.033562373 0.16494691
2641 31 254 -0.91942638 -0.39287323 0.017485358 0.12502411
2644 126 256 -0.7997793 0.59958148 -0.029244207 0.082714908
2705 170 262 -0.53460246 0.83857858 -0.10481557 0.082834452
2630 44 253 -0.98540413 -0.17023137 9.2935661e-05 0.11389095
2641 98 255 -0.9328956 0.35682422 -0.048808176 0.12466862
2688 155 260 -0.54693139 0.82006508 -0.16840258 0.068391494
2643 112 255 -0.8760711 0.47208834 -0.098143116 0.11233856
2634 58 253 -0.99596953 -0.023218943 0.086634457 0.12275303
2630 71 253 -0.99002934 0.13442381 0.042097751 0.11031388
2662 140 258 -0.63330418 0.76098788 -0.14079519 0.075741015
2737 186 266 -0.71673769 0.69598109 0.043558277 0.22300532
2630 85 253 -0.96820623 0.24998303 0.0092295855 0.10295036
2646 133 264 -0.75496715 0.65572578 0.0069501554 0.074187174
2658 57 351 -0.58176708 0.4642587 -0.66784054 0.20037454
2634 80 305 -0.84714782 0.22141017 0.48303011 0.14193901
2672 150 267 -0.60546082 0.78952277 -0.10035403 0.040077455
2622 99 262 -0.93076944 0.36382467 0.036054943 0.064946458
2622 83 262 -0.96852446 0.24793157 0.022145402 0.085025646
2639 41 349 -0.5742923 0.34916383 -0.74045455 0.26280579
2611 50 261 -0.99339509 -0.11465341 -0.0045573097 0.088510588
2708 169 271 -0.50707793 0.86189008 -0.0041917572 0.092718683
2632 116 263 -0.88931966 0.45728061 0.0022484548 0.082729958
2631 64 305 -0.92815775 0.14380407 0.34328365 0.1490801
2602 -33 302 -0.93266124 0.10053533 -0.34646171 0.12088143
2634 96 305 -0.83694726 0.33264816 0.43458533 0.16395707
2616 34 262 -0.97503382 -0.19736932 -0.10175578 0.081490159
2606 -49 303 -0.9381361 0.057911132 -0.34138972 0.1244976
2615 66 261 -0.99548328 0.083690874 0.044820536 0.096211076
2654 121 252 -0.75317186 0.61978769 -0.22044358 0.13500737
2601 -9 333 -0.95864439 0.25712696 0.12201024 0.14531952
2598 -26 333 -0.98219883 0.17142822 0.076796547 0.14793399
2630 79 295 -0.93216085 0.17747071 0.31556362 0.12692367
2616 6 335 -0.90902311 0.36202344 0.20643628 0.16117425
2626 62 294 -0.94944638 0.1098993 0.29406422 0.12918283
2625 45 294 -0.98962146 0.059866484 0.13063449 0.12766498
2627 28 294 -0.98712963 0.14414932 -0.069253623 0.15625697
2651 58 339 -0.60876691 0.76958913 0.192706 0.24390131
2619 23 335 -0.91413695 0.38954997 0.1122696 0.17776081
2641 131 296 -0.77675992 0.60261369 0.18303184 0.10049495
2632 41 337 -0.90844077 0.39228627 0.14438412 0.22242704
2635 96 295 -0.90080285 0.3240518 0.28904092 0.12986992
2636 113 295 -0.85959548 0.47823715 0.17995794 0.10161724
2700 175 256 -0.67189056 0.74056762 0.011075227 0.12228981
2709 158 257 -0.54487503 0.7909559 -0.2783882 0.12739639
2693 168 302 -0.53089499 0.84447211 0.070832662 0.075377919
2626 38 280 -0.99115169 -0.11347549 -0.068860009 0.14118841
2623 52 280 -0.99755496 -0.036112804 0.059831884 0.1297565
2636 95 281 -0.91842109 0.32282683 0.22866048 0.12716548
2623 66 280 -0.99203497 0.082798108 0.094926625 0.11767185
2635 24 282 -0.95524371 -0.11847673 -0.27105847 0.17448488
2623 80 280 -0.97654402 0.19485989 0.091605119 0.10053375
2716 171 290 -0.52375776 0.84835941 0.077227004 0.10748494
2753 188 294 -0.62655479 0.77042699 -0.11777659 0.22219488
2636 109 281 -0.88675851 0.4497557 0.10667385 0.088744678
2662 139 284 -0.67671871 0.72357112 0.13600247 0.062486034
2644 124 282 -0.80460733 0.57814175 0.13549642 0.08734668
2688 155 286 -0.57534939 0.80962479 0.11610649 0.061013788
2656 6 276 -0.75899071 -0.58041328 -0.29504848 0.24178827
2628 33 274 -0.95748061 -0.23564015 -0.16644707 0.14223033
2731 175 287 -0.60999411 0.76810241 0.19474559 0.13448521
2629 73 275 -0.98478568 0.13789319 0.1057477 0.11043668
2646 115 277 -0.84819829 0.52341038 0.081248298 0.09399119
2642 20 275 -0.94273984 -0.21945207 -0.2511619 0.1746587
2672 143 281 -0.63919628 0.76469868 0.081634067 0.058438543
2627 60 274 -0.9913733 0.03349581 0.12671596 0.12224452
2639 101 276 -0.91552335 0.37795672 0.13771658 0.12717575
2633 87 275 -0.95783001 0.25010738 0.14144942 0.12083484
2651 129 278 -0.756208 0.64397579 0.11595097 0.077877037
2706 159 284 -0.52590758 0.82758892 0.19625944 0.12399799
2629 46 274 -0.99416202 -0.10389338 0.029120319 0.12282214
2628 72 293 -0.93359113 0.14399736 0.32813457 0.11768088
2629 27 292 -0.99092472 0.10996013 -0.07731051 0.16407156
2645 107 250 -0.87135613 0.47052455 -0.13908695 0.134886
2641 117 295 -0.85152066 0.49260381 0.17959394 0.098593079
2665 133 298 -0.66349638 0.68127936 0.30924264 0.09160994
2646 35 338 -0.77983081 0.54951799 0.29982278 0.18410595
2622 57 292 -0.96815294 0.078072198 0.23787501 0.11110295
2636 102 294 -0.88439953 0.38704902 0.26082689 0.12417153
2660 65 340 -0.57981843 0.65776175 0.48079112 0.20452063
2663 123 252 -0.69401568 0.65552878 -0.29769844 0.13574444
2636 87 294 -0.87382871 0.23527852 0.42552018 0.1459499
2634 20 336 -0.84086812 0.48683947 0.23649094 0.16518205
2617 -24 334 -0.94527298 0.1975662 0.25966612 0.15784808
2626 42 292 -0.99501348 0.029067604 0.095411144 0.1423177
2620 5 334 -0.89927453 0.39768109 0.18208531 0.15462069
2619 -9 334 -0.92906451 0.30996472 0.20189337 0.15623449
2647 50 338 -0.68594033 0.61471158 0.3893784 0.24078968
2652 12 295 -0.89493489 0.091448694 -0.43672496 0.22203092
2683 150 301 -0.59851336 0.77125502 0.21667351 0.10335259
2697 166 303 -0.50686383 0.85187113 0.13192658 0.092972182
2706 171 258 -0.56616151 0.82189327 -0.062869594 0.10022052
2696 155 256 -0.53659898 0.79651004 -0.27862757 0.10004091
2620 -50 307 -0.93656051 0.056449339 -0.34593037 0.15370581
2632 -66 308 -0.9507156 -0.046042539 -0.30662671 0.22655417
2649 4 268 -0.79764289 -0.43413058 -0.41868424 0.2152707
2632 20 266 -0.93397844 -0.28569731 -0.21461926 0.14941493
2599 -3 305 -0.93487448 0.29511765 -0.1972698 0.12532289
2596 -34 304 -0.94953638 0.10989822 -0.29377383 0.11732072
2630 97 267 -0.94128585 0.33698535 0.020537524 0.089610592
2702 165 276 -0.5286392 0.84733695 0.050602894 0.076938644
2619 82 266 -0.96764696 0.24688104 0.052049406 0.074465588
2616 51 265 -0.99599922 -0.088831477 0.0097186621 0.084667861
2627 35 266 -0.96970809 -0.23961537 -0.047441617 0.11300799
2632 43 309 -0.95503277 0.26913288 0.12441804 0.15303443
2618 66 265 -0.99547613 0.078375831 0.053708419 0.096954584
2676 147 273 -0.62378287 0.78040856 -0.043098044 0.060607314
2640 114 269 -0.87573636 0.48191828 0.028993193 0.098236226
2649 59 311 -0.78060418 0.4225578 0.46054542 0.16749704
2648 130 270 -0.76651418 0.64041626 0.048197303 0.076288037
2601 -37 302 -0.94356489 0.083473817 -0.32049552 0.11523088
2598 -54 302 -0.91960406 0.0231805 -0.39216197 0.10862891
2628 105 259 -0.91630805 0.39831489 -0.041529022 0.091283031
2628 88 259 -0.95653826 0.29158875 0.0032453991 0.090321936
2644 47 306 -0.92297095 0.31199297 0.22535524 0.19716799
2635 20 260 -0.92652464 -0.35378772 -0.12800901 0.14288796
2600 -88 303 -0.88718164 -0.0039027187 -0.46140394 0.13835299
2604 -20 302 -0.9267 0.2009853 -0.31754047 0.12170865
2623 37 259 -0.97189921 -0.23436187 -0.022054741 0.098438621
2623 13 304 -0.93720651 0.2999723 -0.17793415 0.13443616
2615 70 258 -0.99064225 0.1312214 0.037533879 0.088775016
2619 54 258 -0.99656367 -0.080250263 0.020512898 0.094059445
2641 122 260 -0.82261765 0.56856978 -0.0053453296 0.086355522
2629 30 304 -0.96082515 0.27587551 -0.026603572 0.15683004
2657 3 262 -0.72073317 -0.65394616 -0.22999582 0.22352286
2602 -71 303 -0.89159214 0.021718541 -0.45231828 0.11073862
2612 -3 303 -0.89449102 0.33823332 -0.29237646 0.11861877
2681 159 264 -0.5780893 0.81427121 -0.052678287 0.03816402
2654 140 261 -0.6753822 0.73468077 -0.064054593 0.058301527
2728 179 269 -0.62135029 0.78128809 0.059268057 0.17408079
2603 -69 318 -0.92793053 0.041075055 -0.37048307 0.14389224
2605 -16 317 -0.96482778 0.25244203 -0.073350243 0.12724955
2602 -33 317 -0.97735727 0.14732763 -0.15187913 0.13820843
2644 37 321 -0.84213036 0.48041967 0.24497657 0.18219303
2605 -104 319 -0.89170581 -0.091445178 -0.44328144 0.21981502
2617 1 318 -0.89857322 0.42991528 -0.087971732 0.13185629
2631 19 320 -0.90567273 0.42115819 0.048812464 0.14993165
2608 -87 318 -0.88882732 -0.046882547 -0.45583773 0.19436546
2608 -51 318 -0.98573536 0.04737379 -0.16149816 0.15248418
2655 55 323 -0.72775209 0.59066588 0.34855524 0.15497357
2596 -11 338 -0.96461678 0.22284371 0.14090827 0.14985272
2598 -28 338 -0.98358721 0.15954639 0.084268369 0.158214
2630 42 342 -0.92333215 0.37950251 -0.058613893 0.24995695
2622 24 341 -0.88733345 0.35563409 0.29353651 0.21560885
2604 6 339 -0.95810997 0.26141474 0.11699367 0.19695593
2639 60 343 -0.65094078 0.50829566 -0.56383651 0.25312379
2637 17 272 -0.92269748 -0.24877113 -0.2945205 0.17098323
2660 3 275 -0.6275987 -0.77592325 -0.063741267 0.26105413
2625 43 271 -0.99044168 -0.13783282 -0.0052375738 0.10753369
2635 30 272 -0.95257741 -0.27310911 -0.13419312 0.14434522
2628 97 271 -0.93815857 0.34515604 0.026941124 0.084551238
2624 84 271 -0.97022521 0.23599809 0.054479085 0.09656816
2637 111 272 -0.88498271 0.45845425 0.081396446 0.085703112
2626 57 271 -0.99763519 -0.0098816724 0.068018027 0.11057991
2627 70 271 -0.98817617 0.11905794 0.096607886 0.11506745
2666 139 275 -0.67052257 0.74177086 0.013248361 0.064635843
2691 154 277 -0.55531144 0.83163542 -0.0034342599 0.057585139
2714 169 280 -0.51367432 0.85553926 0.064739488 0.09149684
2649 124 273 -0.79589409 0.59954643 0.084241785 0.081437789
2623 59 276 -0.99665546 0.037068475 0.07282725 0.11474567
2599 -62 315 -0.93440998 0.028591624 -0.35505015 0.12568444
2644 14 278 -0.88389462 -0.24708432 -0.39708889 0.18450817
2634 22 320 -0.90356421 0.42319012 0.066947021 0.16323747
2660 0 279 -0.58048391 -0.21894056 -0.78428537 0.2683343
2607 -104 316 -0.90996003 -0.097061582 -0.40317696 0.2173571
2631 29 276 -0.95719433 -0.24169523 -0.15925577 0.15205958
2606 -20 316 -0.97732431 0.20319194 -0.059584398 0.13436383
2623 8 319 -0.90513664 0.42510754 -0.0033625129 0.14496589
2607 -34 316 -0.97514588 0.14148876 -0.1705036 0.14805827
2616 -6 318 -0.93395215 0.34558466 -0.091129862 0.13958845
2602 -76 315 -0.92222631 0.0060491753 -0.38660336 0.15906557
2646 52 322 -0.70786178 0.61441678 0.34845915 0.17368694
2600 -90 315 -0.90502489 -0.060022853 -0.4211024 0.16498695
2643 37 321 -0.85412282 0.46749693 0.22786158 0.18283206
2600 -48 315 -0.95496088 0.10333651 -0.27815688 0.133845
2628 44 276 -0.99433935 -0.10477676 0.017638555 0.12789173
2670 135 282 -0.66931134 0.737993 0.085957788 0.081549451
2626 74 277 -0.9844535 0.14335032 0.10149859 0.11144041
2655 120 281 -0.78444499 0.59536254 0.1737515 0.11823176
2642 104 279 -0.90210491 0.38958895 0.18554559 0.13110945
2720 169 289 -0.52000606 0.83761752 0.16730419 0.11613384
2689 152 285 -0.56189954 0.81699705 0.12955593 0.059788235
2634 89 278 -0.94595319 0.2584419 0.19590876 0.13405126
2607 -15 299 -0.90039361 0.23562771 -0.36574712 0.11640927
2615 -6 345 -0.89645374 0.31308052 0.31361008 0.18855071
2613 0 300 -0.91296208 0.30013293 -0.27644247 0.12615322
2609 -21 344 -0.92941183 0.23891954 0.28126717 0.16524404
2615 54 259 -0.99658883 -0.076008745 0.032145649 0.089089774
2644 40 349 -0.76218361 0.57056493 0.30582991 0.24213389
2632 23 260 -0.94203305 -0.31882983 -0.10450467 0.13823199
2646 94 305 -0.70093107 0.32469383 0.63503504 0.1532905
2643 117 262 -0.8567403 0.51569635 0.0073072021 0.099141784
2725 170 272 -0.50122321 0.86430085 0.041943431 0.12564342
2655 134 264 -0.71029878 0.70388466 0.0046966327 0.076668769
2620 70 259 -0.99147123 0.12504818 0.036712956 0.094499484
2625 39 259 -0.97296697 -0.23070978 -0.010407488 0.097955719
2637 62 304 -0.88797098 0.21986294 0.40394041 0.17248611
2633 101 261 -0.93097383 0.36508489 -0.00084333395 0.099603415
2685 151 267 -0.5531795 0.82384849 -0.12355607 0.060621925
2636 31 303 -0.96928948 0.23864007 -0.059403334 0.17165685
2639 8 260 -0.86023241 -0.40395489 -0.31116033 0.16896649
2633 25 348 -0.84896076 0.44542116 0.28436884 0.24010877
2630 86 261 -0.96059364 0.27552104 0.036716294 0.10236307
2647 78 305 -0.74150658 0.3012017 0.59953773 0.15567705
2624 15 301 -0.94486332 0.2702671 -0.18490288 0.13619564
2636 47 303 -0.93103015 0.26980269 0.24574234 0.17049611
2623 9 346 -0.79875809 0.3158153 0.5120998 0.18989742
2702 167 303 -0.54661292 0.81612808 0.18748148 0.12803951
2696 153 260 -0.53176129 0.81597894 -0.22673368 0.090182431
2658 60 342 -0.62571573 0.67600143 0.3892324 0.20211805
2626 50 295 -0.97637141 0.084106684 0.19905998 0.13373671
2653 5 257 -0.77220458 -0.60134017 -0.20515858 0.20676851
2616 -47 295 -0.90162981 0.043913879 -0.43027353 0.12049023
2631 114 295 -0.86694014 0.47468424 0.15195313 0.097522832
2689 136 259 -0.52902573 0.758416 -0.38070589 0.12632856
2645 44 340 -0.75593233 0.53977484 0.37041801 0.24168743
2633 70 254 -0.99005067 0.12450828 0.065554477 0.11584236
2626 82 295 -0.9361583 0.21658905 0.27694187 0.12159766
2640 21 255 -0.90174896 -0.42841485 -0.057529189 0.15009145
2678 149 301 -0.58873671 0.7797094 0.21317217 0.093156449
2647 118 255 -0.81735098 0.56223458 -0.12581602 0.11720836
2626 66 295 -0.94743747 0.13155334 0.29164356 0.12468611
2627 10 338 -0.85595351 0.41801247 0.30431762 0.17097321
2619 1 295 -0.90526414 0.29337269 -0.3072935 0.12845169
2659 132 299 -0.70827556 0.66218573 0.24465458 0.083266631
2633 99 296 -0.89533228 0.36757615 0.25153121 0.12844434
2610 -14 294 -0.88991195 0.24992506 -0.38156793 0.11629199
2615 -5 337 -0.90994412 0.31485465 0.26994106 0.15941381
2627 33 295 -0.99372303 0.1118582 -0.0015198337 0.15227656
2637 102 255 -0.91855901 0.3920446 -0.050502375 0.10857161
2624 17 295 -0.96406078 0.19301562 -0.18256983 0.1481832
2623 -31 296 -0.87058955 0.15305449 -0.46759835 0.14375159
2636 27 339 -0.86151183 0.4477635 0.2393849 0.20008393
2698 170 260 -0.54283506 0.83640575 -0.075864926 0.0729862
2611 -21 337 -0.95798612 0.17409472 0.22793353 0.15935121
2648 86 256 -0.95858151 0.2842029 0.018714331 0.17346911
2682 150 292 -0.58241767 0.79782504 0.15577182 0.063955314
2629 62 285 -0.9720121 0.073411837 0.22316615 0.12840793
2632 33 285 -0.99515486 -0.095006511 -0.02530973 0.17138088
2641 105 287 -0.87886131 0.40631804 0.25001705 0.12405588
2634 90 286 -0.92045408 0.26417297 0.28805694 0.13195513
2629 48 284 -0.99312472 -0.034796685 0.11176998 0.14437896
2631 76 285 -0.95756817 0.15446916 0.24331553 0.11965191
2643 119 287 -0.83240747 0.53929037 0.12752913 0.094385654
2660 135 290 -0.6887058 0.7056706 0.16647308 0.072153911
2709 166 296 -0.53503805 0.80075085 0.26931828 0.12441782
2733 183 299 -0.74540555 0.66259986 0.073019698 0.16652815
2637 22 254 -0.89487731 -0.43688327 -0.091256194 0.13512771
2632 49 254 -0.9954071 -0.092168123 0.025880879 0.12602566
2630 35 253 -0.94900525 -0.31426805 -0.024995165 0.10934168
2624 62 253 -0.99948561 0.02493128 0.020175684 0.10559344
2653 8 255 -0.78390795 -0.61311227 -0.097886562 0.17920502
2692 146 261 -0.52388674 0.79950142 -0.29383701 0.094125554
2662 131 258 -0.69448352 0.70831859 -0.12640171 0.1007935
2632 102 255 -0.92089766 0.38609684 -0.05363512 0.099206202
2697 160 262 -0.52661699 0.84171355 -0.11913358 0.08176522
2634 75 254 -0.98257589 0.18314418 0.03166905 0.11513675
2714 175 264 -0.65781146 0.7520678 0.040965352 0.13101567
2640 89 255 -0.95301527 0.30115682 0.032656915 0.13573085
2742 191 267 -0.59028018 0.70811903 0.38747489 0.23916309
2645 116 256 -0.84324658 0.52795106 -0.10100915 0.115872
2602 13 345 -0.93752259 0.34361583 0.054586012 0.21930571
2595 -4 344 -0.97726494 0.18697347 0.099971205 0.18582407
