# .PCD v0.7 - Point Cloud Data file format
VERSION 0.7
FIELDS x y z normal_x normal_y normal_z curvature
SIZE 4 4 4 4 4 4 4
TYPE F F F F F F F
COUNT 1 1 1 1 1 1 1
WIDTH 471
HEIGHT 1
VIEWPOINT 0 0 0 1 0 0 0
POINTS 471
DATA ascii
2671 -1502 -109 -0.85083455 0.5150134 -0.10412357 0.13163035
2666 -1523 -57 -0.96713912 0.22891814 0.11062691 0.12255316
2659 -1536 -55 -0.94956821 0.2895568 0.12032069 0.12453004
2677 -1538 -157 -0.69035715 0.34710839 -0.63476199 0.14380479
2696 -1552 -105 -0.94054425 -0.31651169 -0.12327588 0.15540378
2670 -1519 -106 -0.77509964 0.63012767 -0.046471991 0.14375055
2671 -1508 -60 -0.93686032 0.3329941 0.10680586 0.12696686
2691 -1541 -8 -0.913634 -0.27192071 0.30221191 0.16145538
2663 -1545 -58 -0.93863291 0.32514569 0.11510277 0.13522431
2671 -1534 -61 -0.95689738 0.26050898 0.12838398 0.13496839
2681 -1508 -17 -0.85240227 0.34152299 0.39594492 0.097443439
2688 -1511 -67 -0.52387422 0.84160852 0.13134272 0.15296215
2669 -1516 -64 -0.96240979 0.25589523 0.091021903 0.11711013
2678 -1531 -164 -0.64593148 0.32980204 -0.68847889 0.11675581
2693 -1508 -120 -0.87032598 0.43976307 -0.22167806 0.15409954
2681 -1518 -117 -0.89339715 0.44541708 -0.058696542 0.16902997
2694 -1558 -112 -0.90184385 -0.42308706 -0.087606631 0.17024626
2679 -1533 -114 -0.99903268 -0.038425922 0.021383036 0.16083194
2682 -1542 -155 -0.74335366 -0.0079347817 -0.66885155 0.17256212
2682 -1534 -164 -0.64678222 0.28574458 -0.70712292 0.11594935
2683 -1517 -116 -0.92078131 0.38572237 -0.058138408 0.15929507
2699 -1576 -108 -0.87680173 -0.47731182 0.058241799 0.17724556
2684 -1535 -113 -0.97608441 -0.21529633 0.030112794 0.1674398
2707 -1564 -111 -0.86103517 -0.47339731 -0.18577804 0.18922532
2685 -1536 -11 -0.93121928 -0.051293239 0.36083189 0.13090329
2687 -1521 -8 -0.89644152 -0.32511464 0.30115283 0.13850825
2654 -1500 -65 -0.96196085 0.27318597 0.00088752358 0.11373267
2658 -1527 -66 -0.95857495 0.28414151 0.019943327 0.12064262
2682 -1533 -15 -0.92495286 0.01949795 0.37958151 0.1219785
2679 -1508 -14 -0.91271758 0.066657081 0.4031173 0.078352772
2688 -1516 -93 -0.98753875 -0.097921543 -0.12320152 0.12029358
2679 -1544 -87 -0.98504555 -0.069035068 -0.15785903 0.12542768
2694 -1537 -142 -0.8074916 0.065062471 -0.58627993 0.18669705
2680 -1529 -90 -0.98744953 0.013923502 -0.15731992 0.11241969
2690 -1545 6 -0.90756792 -0.29470003 0.29911932 0.13976277
2672 -1513 -62 -0.93536359 0.33681938 0.1079248 0.13275014
2668 -1534 -61 -0.93848604 0.33005384 0.10153077 0.12908109
2668 -1526 -109 -0.82461315 0.56508523 -0.026301207 0.17069122
2669 -1502 -110 -0.72682387 0.67614323 -0.12065383 0.13525368
2695 -1565 -110 -0.88614595 -0.4563219 -0.080719426 0.1711182
2680 -1523 -12 -0.92571378 -0.10782511 0.3625297 0.10306736
2663 -1529 -48 -0.93682528 0.30111605 0.17801012 0.11074018
2687 -1528 -149 -0.71138555 0.48014432 -0.51321727 0.15974522
2688 -1511 -98 -0.99147832 -0.083377428 -0.10009483 0.11016832
2663 -1520 -96 -0.83812368 0.54529494 -0.014215403 0.13139996
2709 -1569 -97 -0.83032799 -0.55539197 -0.045772526 0.14248793
2693 -1583 -106 -0.87754142 -0.3714141 -0.3032698 0.2312064
2715 -1569 -106 -0.75362694 -0.65729964 -0.0018912234 0.13211386
2687 -1528 -105 -0.99562806 -0.091544963 -0.018555518 0.13945086
2676 -1543 -156 -0.67268366 0.29620388 -0.67805594 0.16078843
2670 -1518 -76 -0.98347855 0.17693977 -0.038240116 0.1028024
2684 -1512 -127 -0.67807889 0.68732578 -0.26036969 0.13688265
2681 -1532 -128 -0.89563245 0.39155829 -0.21100847 0.21966487
2669 -1540 -78 -0.97071302 0.23127736 -0.065015286 0.11408781
2682 -1535 -29 -0.85976928 0.3385039 0.38237667 0.14472702
2675 -1513 -82 -0.98567873 0.14393485 -0.087864548 0.10956771
2690 -1528 -135 -0.69194949 0.58864796 -0.41797075 0.19301949
2693 -1546 11 -0.85834646 -0.37221766 0.35312229 0.15425625
2678 -1534 -84 -0.99409461 0.010954009 -0.10796225 0.11882263
2675 -1513 -38 -0.73753256 0.63341284 0.23416619 0.11472338
2702 -1540 8 -0.89175981 -0.073697619 0.44646737 0.14666949
2667 -1531 -39 -0.94049293 0.22019064 0.25882256 0.10989781
2666 -1514 -90 -0.9784205 0.18524998 -0.091519102 0.10079871
2665 -1537 -91 -0.92374021 0.38104367 -0.038855746 0.14493532
2700 -1562 -117 -0.84942412 -0.51578712 -0.11154532 0.21308936
2678 -1531 -113 -0.99539536 0.093571678 0.020796346 0.1678315
2668 -1538 -63 -0.94685417 0.30334273 0.10700695 0.13210662
2674 -1522 -61 -0.87691069 0.46043861 0.1379275 0.15782884
2680 -1513 -110 -0.96789062 0.24684073 -0.04751312 0.14392029
2683 -1511 -114 -0.91976678 0.3851085 -0.075634077 0.15035979
2685 -1546 -160 -0.67267919 0.13562685 -0.72739822 0.12952332
2690 -1532 -112 -0.97723782 -0.21155457 -0.015842061 0.16220085
2691 -1549 -109 -0.93544716 -0.3512218 -0.039772376 0.16343036
2676 -1517 -112 -0.92136574 0.38838252 -0.015624124 0.15196839
2665 -1515 -59 -0.96487504 0.24448748 0.096135668 0.11949945
2652 -1530 -58 -0.95498502 0.28836995 0.069616295 0.11753444
2690 -1546 -111 -0.95167905 -0.30390859 -0.044121191 0.16293927
2687 -1536 -11 -0.92009485 -0.23282872 0.31498605 0.14991713
2676 -1524 -159 -0.64276284 0.54375005 -0.53962183 0.12407788
2678 -1528 -44 -0.78344172 0.58950192 0.1967397 0.14571033
2671 -1541 -47 -0.92904782 0.29575866 0.22225441 0.12054288
2693 -1541 -3 -0.92391217 -0.12657525 0.36106077 0.1404696
2665 -1507 -55 -0.92854476 0.3516846 0.11883844 0.11406443
2662 -1529 -55 -0.94509596 0.30697781 0.11206407 0.12734917
2672 -1513 -46 -0.92181224 0.31697002 0.22314173 0.10284851
2694 -1557 -91 -0.93892616 -0.27513292 -0.2066872 0.15342139
2684 -1519 -97 -0.99156296 -0.029651249 -0.12618902 0.11604378
2677 -1531 -93 -0.99051064 0.063625701 -0.12182152 0.12418679
2692 -1519 -150 -0.62647766 0.61840934 -0.47444245 0.13604815
2680 -1534 -43 -0.84977347 0.46036121 0.25681242 0.15935339
2657 -1538 -63 -0.91706085 0.38646576 0.098201998 0.12791875
2668 -1529 -114 -0.83343732 0.55207264 -0.024453644 0.17796443
2673 -1524 -62 -0.95110184 0.28424481 0.12087242 0.15189712
2672 -1508 -113 -0.70603305 0.70260483 -0.088677451 0.13957335
2679 -1528 -87 -0.99062783 0.036984082 -0.131486 0.11796833
2681 -1546 -84 -0.98331904 -0.094803214 -0.15522918 0.14267194
2698 -1523 -142 -0.80568582 0.29202536 -0.51535583 0.155867
2680 -1529 -138 -0.72640985 0.55015993 -0.41188926 0.18693802
2682 -1514 -90 -0.98398459 0.12262777 -0.12937091 0.12366571
2688 -1543 9 -0.90593666 -0.25865746 0.335224 0.15983549
2668 -1527 -160 -0.60708392 0.58117419 -0.54192775 0.14604765
2688 -1543 -109 -0.97855198 -0.20414574 -0.027578503 0.15406454
2668 -1509 -108 -0.71736968 0.69214553 -0.079469487 0.13937633
2664 -1538 -59 -0.93912226 0.32478076 0.11210175 0.12924547
2669 -1517 -60 -0.96165425 0.24714839 0.11890679 0.12805818
2685 -1509 -12 -0.88897598 0.22834383 0.39696443 0.11696285
2677 -1519 -34 -0.54972881 0.8138957 0.18807435 0.13978726
2698 -1545 12 -0.62926215 -0.74530607 0.22033629 0.17912842
2687 -1522 -133 -0.65970033 0.66501433 -0.3500734 0.17531665
2675 -1529 -83 -0.99332899 0.083836086 -0.079177856 0.11322757
2684 -1545 -36 -0.88966101 -0.21324161 0.40377125 0.17010456
2672 -1506 -81 -0.98474801 0.15924734 -0.070083104 0.10570327
2685 -1514 -13 -0.74632174 0.55462044 0.36796737 0.13402651
2678 -1497 -113 -0.9545542 0.26197171 -0.14211625 0.13198116
2657 -1511 -60 -0.96458954 0.25159323 0.079169564 0.10968626
2702 -1554 -112 -0.89443648 -0.41975003 -0.1542507 0.16736576
2655 -1532 -58 -0.94827229 0.30759755 0.078507364 0.1164217
2678 -1518 -112 -0.95226467 0.30501005 0.012686564 0.1595917
2674 -1522 -59 -0.86826229 0.47093615 0.15601195 0.1584443
2681 -1515 -111 -0.96959972 0.24290468 -0.029557493 0.1472
2661 -1540 -59 -0.94229215 0.31547201 0.11208398 0.12463026
2704 -1554 -112 -0.89528346 -0.41004419 -0.17415874 0.16523029
2674 -1532 -161 -0.64992809 0.4316487 -0.62551814 0.13238411
2668 -1524 -34 -0.93673772 0.18518957 0.29703063 0.096425831
2678 -1537 -86 -0.99154419 -0.013376998 -0.12907812 0.12685299
2664 -1505 -84 -0.98371506 0.13576613 -0.11778034 0.095406219
2673 -1507 -79 -0.98584807 0.15641564 -0.060314488 0.098131083
2677 -1529 -129 -0.72982073 0.63269937 -0.2589463 0.2102685
2679 -1506 -129 -0.62902474 0.74049819 -0.23662299 0.13458756
2672 -1531 -79 -0.98866659 0.13769172 -0.059827067 0.10351655
2672 -1518 -28 -0.91190559 0.14840113 0.38262939 0.10328941
2659 -1507 -60 -0.92604238 0.36848962 0.081614703 0.11699059
2655 -1529 -61 -0.95920402 0.27232957 0.075922906 0.11778202
2683 -1514 -8 -0.92367184 -0.043771643 0.38067618 0.11124545
2668 -1514 -65 -0.97128707 0.22380823 0.08069247 0.11535061
2673 -1552 -71 -0.97538787 0.20066693 -0.09138459 0.14367788
2667 -1532 -68 -0.96542639 0.25882265 0.031029163 0.10915861
2690 -1543 12 -0.85707814 -0.38945299 0.33725876 0.16804405
2671 -1516 -88 -0.98797691 0.11279929 -0.10572562 0.098170213
2674 -1542 -88 -0.98416007 0.10174262 -0.14518027 0.12936687
2684 -1515 -137 -0.63641739 0.70527524 -0.31234547 0.13386865
2674 -1523 -39 -0.87749851 0.40921611 0.25007707 0.12248739
2689 -1533 -7 -0.9003433 -0.31135711 0.30403715 0.15655798
2681 -1526 -111 -0.98867208 0.14968 0.011107787 0.16800225
2669 -1513 -58 -0.94596332 0.3016693 0.11894922 0.12627347
2700 -1556 -115 -0.87203062 -0.46545404 -0.15137731 0.1861905
2671 -1533 -61 -0.95514446 0.2670418 0.12801461 0.14108673
2665 -1548 -64 -0.94187647 0.32776427 0.073751546 0.13470587
2677 -1505 -108 -0.96186441 0.26046219 -0.083523653 0.11708035
2684 -1530 -121 -0.98789984 -0.13606726 -0.074429415 0.19615744
2679 -1529 -71 -0.98110318 0.18954737 0.038836651 0.14009778
2682 -1512 -124 -0.68422586 0.70342523 -0.19242647 0.1430099
2678 -1512 -74 -0.90602267 0.42240185 0.026449393 0.1225661
2680 -1544 -118 -0.95106429 -0.30851871 0.017114909 0.17604151
2675 -1543 -68 -0.97425389 0.22544274 0.0022180344 0.14207439
2673 -1510 -95 -0.97471577 0.1967188 -0.10597613 0.1027664
2681 -1530 -146 -0.72747791 0.47430435 -0.49579352 0.16877851
2691 -1531 2 -0.58353376 -0.8053661 0.10427797 0.14714497
2674 -1517 -47 -0.87161547 0.44109121 0.21383396 0.12977499
2672 -1534 -44 -0.95080513 0.21445186 0.22356206 0.11463498
2690 -1516 -148 -0.65849221 0.59743875 -0.45766258 0.13212718
2670 -1526 -93 -0.96771652 0.23871668 -0.080864675 0.11962118
2691 -1557 -91 -0.94180322 -0.24399941 -0.2312382 0.14859512
2662 -1534 -50 -0.94137728 0.29532334 0.16307339 0.11469125
2678 -1530 -151 -0.68307167 0.55082881 -0.47958389 0.14810073
2684 -1529 -2 -0.77197981 -0.61336374 0.16682959 0.14964414
2666 -1513 -51 -0.94775695 0.27864617 0.15528397 0.10739344
2671 -1507 -99 -0.97219509 0.21557517 -0.091454409 0.10756043
2666 -1528 -98 -0.87605608 0.4811241 -0.032333054 0.13845304
2684 -1531 -71 -0.97847998 0.19739202 0.060110945 0.17543916
2691 -1531 -122 -0.95031494 -0.28690979 -0.1207657 0.18850866
2672 -1550 -71 -0.98296601 0.17117554 -0.06690824 0.1398966
2671 -1545 -122 -0.89640439 -0.4429515 -0.015909115 0.24515921
2676 -1516 -64 -0.87131083 0.47295526 0.13088422 0.15243375
2671 -1539 -64 -0.94955528 0.29234225 0.11349378 0.12606385
2687 -1532 -167 -0.67275566 0.26041055 -0.69252163 0.10661417
2679 -1533 -116 -0.99344498 -0.10776635 0.038125541 0.1670506
2678 -1557 -116 -0.934102 -0.35391062 -0.046911892 0.1894637
2680 -1508 -116 -0.89353365 0.44028899 -0.08799538 0.13550645
2668 -1508 -68 -0.96485454 0.25858891 0.046769869 0.10680549
2682 -1527 -22 -0.78460509 0.49208987 0.37715045 0.13447599
2671 -1533 -70 -0.95995021 0.27990055 -0.012296238 0.121907
2676 -1521 -121 -0.778799 0.61517662 -0.12259559 0.17102447
2675 -1498 -119 -0.65585238 0.73058641 -0.19000304 0.13263464
2660 -1533 -122 -0.50535125 0.85617995 -0.10759214 0.19156563
2668 -1517 -76 -0.98107636 0.18855016 -0.044024147 0.098434947
2677 -1505 -74 -0.84082824 0.53769588 0.062378284 0.13302213
2674 -1539 -79 -0.98770666 0.13522904 -0.078413092 0.12515771
2669 -1518 -123 -0.56485856 0.80864543 -0.16440006 0.15240702
2669 -1503 -76 -0.96198863 0.27218926 -0.022155287 0.10880609
2669 -1526 -75 -0.99032414 0.13448553 -0.034230683 0.10262314
2663 -1538 -123 -0.55558723 0.83044016 -0.041133862 0.2215239
2675 -1498 -124 -0.55483145 0.8017019 -0.22234243 0.1508233
2670 -1551 -75 -0.97566092 0.19930802 -0.091444068 0.13601653
2678 -1514 -27 -0.72312659 0.61856997 0.30734214 0.11650837
2679 -1532 -58 -0.91012424 0.36149773 0.20246792 0.17296632
2658 -1539 -60 -0.92642015 0.36212361 0.10301525 0.11905413
2678 -1519 -108 -0.9652729 0.25986269 -0.026825551 0.15343949
2661 -1559 -63 -0.8798998 0.47486749 0.016650777 0.16481842
2670 -1508 -55 -0.91961616 0.37057909 0.13029635 0.1168486
2677 -1537 -111 -0.9994334 -0.021065827 0.026251169 0.18036686
2678 -1500 -105 -0.99597937 0.030573031 -0.084205031 0.11191976
2671 -1516 -91 -0.98217666 0.15359539 -0.10833912 0.10028385
2698 -1542 6 -0.90181351 -0.14114779 0.40842351 0.14433046
2689 -1508 -94 -0.98094332 -0.15605995 -0.11573881 0.11907335
2691 -1525 -144 -0.72912449 0.47585157 -0.49187675 0.16997975
2677 -1538 -89 -0.98965991 -0.047660388 -0.13528413 0.12227956
2679 -1527 -43 -0.5801996 0.8020246 0.14186238 0.14855312
2673 -1515 -115 -0.74526995 0.66187853 -0.080557309 0.15327971
2661 -1549 -60 -0.93566775 0.3447977 0.075103037 0.13765921
2668 -1535 -63 -0.9415651 0.32258222 0.096932434 0.12929264
2675 -1522 -66 -0.92086393 0.37940213 0.089797042 0.14077485
2674 -1533 -112 -0.94113356 0.33795363 0.0074108243 0.18861179
2700 -1566 -111 -0.85766768 -0.51415372 -0.0072178333 0.16384545
2683 -1544 -166 -0.6513325 0.15063547 -0.74369001 0.11976083
2665 -1534 -104 -0.86642015 0.49814448 -0.034179438 0.16385448
2673 -1532 -52 -0.93761826 0.27752656 0.2094063 0.13393731
2659 -1547 -53 -0.91996169 0.38209286 0.087610289 0.12558301
2668 -1513 -103 -0.85174161 0.51994056 -0.064792141 0.12903261
2675 -1523 -79 -0.98382103 0.17002007 -0.056474563 0.11620048
2679 -1510 -130 -0.61999226 0.73814505 -0.26599139 0.1392924
2677 -1546 -81 -0.98838127 0.028976342 -0.14920744 0.14564663
2681 -1536 -33 -0.70616466 0.64725858 0.28703281 0.14786765
2683 -1534 -132 -0.80801326 0.46388167 -0.36321953 0.21679762
2679 -1518 -83 -0.98359263 0.16424851 -0.074618533 0.12381849
2677 -1537 -86 -0.9911986 -0.0050236941 -0.13228807 0.12217458
2660 -1534 -137 -0.50153786 0.78403991 -0.36570626 0.20545413
2693 -1533 -136 -0.84381604 0.10526193 -0.52620763 0.20211357
2688 -1553 -39 -0.83898902 -0.33141795 0.43157795 0.18265806
2700 -1553 9 -0.86719465 -0.22074178 0.44637024 0.1516726
2689 -1538 -109 -0.98287207 -0.18240073 -0.026316356 0.16028191
2690 -1587 -101 -0.78006458 -0.12317792 -0.61345446 0.25360194
2676 -1515 -61 -0.84255594 0.52289951 0.12913413 0.16126972
2698 -1560 -107 -0.89600867 -0.4213208 -0.14020389 0.15923184
2672 -1545 -55 -0.93228048 0.31508729 0.17768835 0.1412778
2682 -1546 -160 -0.66898388 0.095502242 -0.73711592 0.13662317
2690 -1522 -112 -0.9962275 -0.078943461 -0.036036525 0.15290433
2679 -1533 -58 -0.90687907 0.36734831 0.20645992 0.17180185
2678 -1533 -123 -0.99668902 0.045746356 -0.067218408 0.19538872
2674 -1548 -120 -0.90688825 -0.41919148 0.042803515 0.21019818
2675 -1519 -76 -0.96907431 0.24656397 -0.010063196 0.12683849
2666 -1549 -71 -0.9587853 0.27968109 -0.050091125 0.12900481
2676 -1537 -73 -0.98844492 0.15016772 -0.020645101 0.14083317
2681 -1517 -125 -0.65779603 0.72076201 -0.21864691 0.15986989
2686 -1532 -78 -0.99747896 -0.047474049 -0.052743685 0.16501786
2672 -1555 -72 -0.97738552 0.16514507 -0.13207845 0.14976907
2688 -1544 -128 -0.82059324 -0.5330407 -0.20614155 0.20699227
2675 -1541 -75 -0.97987491 0.19302723 -0.05084775 0.13587059
2691 -1529 -131 -0.71975058 0.59190577 -0.36277631 0.19608128
2687 -1516 -81 -0.82119477 0.57044345 -0.015281149 0.16077869
2688 -1554 -109 -0.94549626 -0.32163054 -0.050898395 0.164873
2669 -1551 -59 -0.94515562 0.30836833 0.10765605 0.14825103
2676 -1542 -161 -0.66533327 0.27547753 -0.69386148 0.1409969
2674 -1522 -109 -0.93720096 0.34841529 -0.016156033 0.16038029
2668 -1527 -60 -0.9591881 0.25015727 0.13183151 0.1321111
2668 -1529 -154 -0.62064183 0.63901287 -0.45438564 0.15194727
2699 -1542 9 -0.88944185 -0.17878646 0.42062876 0.15483674
2676 -1515 -39 -0.65203178 0.7304579 0.20318902 0.12408735
2675 -1532 -42 -0.92758864 0.28259128 0.2443797 0.13540606
2672 -1547 -45 -0.94694716 0.18844788 0.26034313 0.12468728
2696 -1547 10 -0.8633824 -0.24447379 0.44136539 0.16241406
2679 -1513 -82 -0.97918606 0.19119483 -0.068112038 0.12702696
2676 -1532 -84 -0.9936294 0.039771959 -0.10544553 0.11749903
2674 -1538 -137 -0.71333563 0.55277991 -0.4307977 0.2337743
2681 -1545 -38 -0.92847395 -0.061342701 0.36629662 0.13835481
2700 -1532 -136 -0.84538293 0.044612054 -0.53229457 0.1899948
2695 -1543 12 -0.60545176 -0.77252507 0.19139798 0.17609625
2686 -1544 -36 -0.9006502 -0.16021548 0.40393099 0.17979205
2676 -1507 -81 -0.98698634 0.14217332 -0.075131178 0.1136938
2689 -1521 -133 -0.6669907 0.65776372 -0.34995779 0.17828663
2676 -1529 -83 -0.99367642 0.074465096 -0.08403644 0.11361557
2679 -1507 -79 -0.92398894 0.38220951 0.012664654 0.14203015
2699 -1525 -132 -0.83977091 0.27466649 -0.46834078 0.17916471
2683 -1534 -62 -0.64259946 0.75128245 0.15046833 0.20526014
2670 -1546 -65 -0.96055609 0.27074656 0.063469835 0.13469665
2680 -1520 -112 -0.97621489 0.21625763 0.015398335 0.16246414
2680 -1514 -60 -0.64171571 0.75916946 0.10891635 0.17046599
2668 -1551 -117 -0.97375387 -0.22719944 0.013561778 0.2507486
2681 -1539 -115 -0.96834856 -0.24809466 0.027389241 0.17139073
2687 -1522 -111 -0.99953449 -0.023085199 -0.019945936 0.15653016
2688 -1539 -109 -0.98485488 -0.17309098 -0.010019666 0.15837035
2715 -1571 -107 -0.78180766 -0.61911994 -0.073940814 0.11781576
2683 -1537 -160 -0.68468726 0.21613497 -0.69605243 0.12811527
2696 -1529 -149 -0.78503287 0.22493778 -0.57717109 0.15818496
2674 -1522 -98 -0.98806304 0.12659501 -0.087778792 0.11948988
2703 -1563 -99 -0.87466317 -0.4651314 -0.13644415 0.12475213
2679 -1535 -46 -0.90436405 0.34510261 0.25105745 0.15527532
2682 -1513 -74 -0.81035376 0.58390951 0.048749052 0.13803609
2682 -1520 -126 -0.61921972 0.75471824 -0.21671973 0.17038426
2682 -1540 -129 -0.90529829 -0.38995606 -0.16843206 0.215863
2676 -1549 -79 -0.98698545 0.037663411 -0.15633669 0.13319948
2682 -1533 -76 -0.99947441 0.021668063 -0.024111165 0.14678706
2675 -1530 -80 -0.99534035 0.082083859 -0.050594006 0.11166025
2672 -1548 -82 -0.97788632 0.11083078 -0.17735535 0.12889431
2680 -1540 -133 -0.9037348 -0.29772112 -0.30761269 0.22851354
2682 -1514 -78 -0.94990385 0.31058607 -0.03491294 0.13844988
2678 -1519 -130 -0.66673809 0.710374 -0.2254529 0.17367749
2696 -1545 15 -0.56230766 -0.8078177 0.17675026 0.18352281
2680 -1537 -105 -0.99364179 -0.11111755 -0.018133549 0.15422435
2673 -1546 -55 -0.93426192 0.31357744 0.16977616 0.14066269
2676 -1529 -53 -0.89787292 0.3926616 0.1991006 0.15171085
2678 -1517 -102 -0.9950785 0.063846752 -0.075778462 0.12279258
2675 -1539 -59 -0.93875223 0.29289258 0.18154399 0.15375443
2694 -1546 -7 -0.89227188 -0.34717265 0.28865552 0.15877055
2679 -1524 -56 -0.70463115 0.6888777 0.17012474 0.16612117
2668 -1552 -62 -0.93547946 0.3368811 0.10672104 0.14969748
2677 -1542 -106 -0.98925954 -0.1458295 -0.0099671921 0.175267
2678 -1523 -57 -0.85379362 0.48688236 0.18434219 0.16799951
2667 -1541 -56 -0.94180924 0.30047143 0.15070583 0.1344489
2692 -1542 -155 -0.75138503 -0.030522458 -0.65915769 0.16314079
2674 -1516 -106 -0.92347288 0.38022777 -0.051231835 0.1321764
2692 -1542 -5 -0.90791166 -0.25880018 0.32972544 0.14635587
2676 -1538 -45 -0.926 0.29695183 0.23311691 0.13416921
2689 -1521 -147 -0.65231568 0.60640031 -0.45471177 0.13850972
2683 -1539 -95 -0.98362243 -0.11468728 -0.13904604 0.12933834
2698 -1540 4 -0.9033975 -0.16955718 0.39385685 0.14372469
2687 -1537 -145 -0.7952475 0.055351641 -0.60375291 0.19636314
2679 -1520 -98 -0.99241209 0.066768192 -0.10324821 0.11947762
2679 -1522 -48 -0.68031794 0.712448 0.17200416 0.14784275
2660 -1544 -70 -0.92483598 0.37764764 0.045395847 0.12940791
2673 -1528 -71 -0.99020064 0.13919547 0.01128305 0.11738298
2670 -1542 -119 -0.92138523 0.38843545 0.012929554 0.2274778
2673 -1519 -120 -0.74156612 0.66085678 -0.11553407 0.16498542
2698 -1523 -136 -0.78968531 0.41606352 -0.45087501 0.16970664
2680 -1546 -130 -0.86119223 -0.47820875 -0.17223337 0.22018203
2695 -1538 -133 -0.80048889 -0.44139931 -0.40544331 0.21104848
2683 -1537 -26 -0.88148785 0.27278697 0.38544312 0.13731578
2681 -1533 -139 -0.79840142 0.38098156 -0.46627054 0.201491
2675 -1521 -39 -0.81949824 0.52015805 0.24053742 0.12716982
2665 -1530 -86 -0.95624977 0.28281918 -0.07483115 0.11261255
2673 -1511 -87 -0.98469186 0.13270268 -0.11301341 0.10632475
2680 -1510 -139 -0.61637294 0.72733641 -0.30177182 0.13327153
2698 -1540 9 -0.53538197 -0.83671337 0.11522541 0.17219697
2679 -1522 -80 -0.97511327 0.21247718 -0.063305423 0.12268262
2675 -1540 -82 -0.99221462 0.068514787 -0.10399949 0.12833059
2687 -1533 -132 -0.91270435 0.077008814 -0.40129825 0.21899924
2682 -1527 -126 -0.788342 0.58068585 -0.20327522 0.20270196
2677 -1529 -77 -0.9938609 0.10392411 -0.037950739 0.12094907
2700 -1520 -130 -0.82320976 0.32469589 -0.46572331 0.17792676
2683 -1515 -80 -0.95876127 0.27838054 -0.057280902 0.14049995
2679 -1543 -124 -0.94032115 -0.33742034 -0.04408719 0.18628038
2670 -1542 -74 -0.95877534 0.2762641 -0.066543207 0.12084013
2671 -1507 -41 -0.86801583 0.43741536 0.23498151 0.097950347
2676 -1504 -91 -0.98955518 0.049608022 -0.13534962 0.10225359
2691 -1503 -140 -0.56914341 0.75710601 -0.32072774 0.13085476
2676 -1523 -37 -0.77874482 0.57952988 0.24021167 0.13174035
2671 -1531 -85 -0.98191285 0.1597183 -0.10167213 0.10946058
2675 -1512 -83 -0.98747015 0.12920101 -0.090608105 0.10429985
2686 -1526 -136 -0.67816854 0.61930251 -0.3956663 0.18225504
2685 -1549 -38 -0.85239685 -0.32507268 0.40956989 0.17124781
2701 -1551 10 -0.87021118 -0.15891419 0.4663462 0.15154289
2681 -1550 -82 -0.98269862 -0.077865742 -0.16804852 0.14797749
2677 -1533 -132 -0.72408116 0.62723142 -0.28685731 0.22405319
2688 -1510 -78 -0.58628261 0.80915165 0.039322134 0.15665452
2674 -1524 -80 -0.98276246 0.17479485 -0.060205679 0.10617794
2692 -1520 -131 -0.65311992 0.68738592 -0.31770274 0.18268119
2697 -1543 9 -0.7846871 -0.54367965 0.29778939 0.16910239
2692 -1523 -136 -0.70127654 0.58603561 -0.40592307 0.17688033
2706 -1565 -89 -0.81676936 -0.55376512 -0.16196306 0.13332842
2681 -1540 -39 -0.82427335 0.49618089 0.27272326 0.16161875
2676 -1527 -85 -0.98922533 0.10153013 -0.10547413 0.11876715
2683 -1511 -83 -0.97553092 0.20609441 -0.076579936 0.14664716
2677 -1517 -37 -0.63367826 0.74540716 0.20692976 0.12867692
2676 -1537 -72 -0.97989374 0.1991507 -0.012137637 0.13872159
2666 -1538 -124 -0.69611126 0.71644366 -0.046232961 0.22764668
2688 -1531 -122 -0.98964685 -0.086546533 -0.11449411 0.19749954
2674 -1517 -69 -0.91121787 0.40767241 0.059035845 0.12562846
2693 -1516 -140 -0.61856973 0.67362124 -0.40448228 0.14912026
2684 -1516 -89 -0.98591775 0.11642006 -0.12005248 0.12871782
2686 -1542 -89 -0.97305119 -0.1726834 -0.15281337 0.1360893
2666 -1511 -62 -0.95758414 0.27151203 0.096507765 0.11801464
2680 -1514 -115 -0.87592453 0.47953182 -0.05296633 0.16336568
2680 -1535 -113 -0.99362564 -0.10868366 0.02993099 0.16569752
2664 -1531 -61 -0.94773608 0.30038658 0.10753687 0.12760092
2664 -1541 -47 -0.94619256 0.27735248 0.16671886 0.12488203
2696 -1548 0 -0.91285276 -0.22866641 0.33824766 0.13943924
2668 -1520 -46 -0.94035804 0.27040806 0.20641291 0.10184913
2665 -1525 -98 -0.85301566 0.52141243 -0.022211242 0.13218088
2672 -1507 -97 -0.98122752 0.1648359 -0.10010853 0.10353924
2690 -1536 -116 -0.95332253 -0.29885331 -0.043162402 0.18081784
2699 -1558 -114 -0.8819505 -0.46369043 -0.084584005 0.19170262
2686 -1517 -119 -0.86640245 0.47801146 -0.14440146 0.16015987
2679 -1530 -144 -0.73901421 0.48011795 -0.47259369 0.17897092
2703 -1554 15 -0.83062536 0.071330324 0.55224401 0.14955086
2677 -1526 -33 -0.77045524 0.57395679 0.27743885 0.13511243
2678 -1530 -30 -0.89729613 0.24680853 0.36598533 0.13056536
2669 -1538 -82 -0.96991038 0.215646 -0.11300738 0.11708575
2676 -1517 -82 -0.99104083 0.1032049 -0.084775388 0.10746713
2688 -1519 -132 -0.61818284 0.72602969 -0.30121559 0.1737752
2697 -1522 -129 -0.81742638 0.39863867 -0.4158141 0.18917893
2680 -1549 -79 -0.98679411 -0.018053044 -0.16097039 0.14736328
2676 -1532 -130 -0.66078627 0.7035026 -0.261621 0.21345288
2681 -1506 -76 -0.87337703 0.48615664 0.029396923 0.13618569
2678 -1526 -78 -0.98712993 0.15452774 -0.041177433 0.11942405
2686 -1508 -128 -0.60032874 0.75977361 -0.24969855 0.13498968
2679 -1542 -69 -0.98613322 0.1655522 0.011560633 0.15792303
2694 -1529 -125 -0.93572408 -0.24349527 -0.25520697 0.20312005
2684 -1528 -72 -0.88913238 0.45290229 0.06575007 0.16824687
2687 -1513 -75 -0.60642058 0.79372084 0.047554154 0.15269157
2684 -1539 -122 -0.90961903 -0.41283485 -0.046481941 0.18996553
2668 -1502 -86 -0.98553514 0.10220657 -0.13518286 0.099973544
2685 -1506 -138 -0.62491333 0.71976978 -0.30234885 0.13110231
2684 -1528 -138 -0.70482755 0.57231683 -0.41913185 0.17824985
2672 -1512 -38 -0.87008798 0.42349869 0.2521821 0.098165587
2668 -1525 -85 -0.97720128 0.19429795 -0.085591555 0.10370138
2679 -1503 -82 -0.98242188 0.17159699 -0.073496155 0.11489738
2690 -1551 -86 -0.96305507 -0.19847886 -0.18201947 0.14976531
2675 -1521 -84 -0.98264301 0.16533212 -0.084130459 0.10900065
2687 -1514 -134 -0.65685844 0.69251132 -0.29827011 0.14184907
2679 -1533 -37 -0.74901581 0.61453164 0.24764121 0.15254365
2685 -1520 -126 -0.64848137 0.72959286 -0.21717787 0.16580696
2677 -1508 -74 -0.9045288 0.42523411 0.03168153 0.12685885
2685 -1552 -79 -0.97807717 -0.13919696 -0.15488462 0.16170007
2681 -1498 -124 -0.75907594 0.61297375 -0.21924184 0.14391375
2702 -1546 19 -0.69522882 -0.59725189 0.39993382 0.1691193
2669 -1530 -128 -0.51553911 0.83086741 -0.20947282 0.21792418
2677 -1528 -76 -0.98638535 0.16236132 -0.026128775 0.11756875
2685 -1528 -136 -0.71576077 0.56190288 -0.4146705 0.1871357
2693 -1512 -134 -0.57691145 0.76282465 -0.29201326 0.14282781
2678 -1518 -83 -0.98484826 0.15646182 -0.074790217 0.11552859
2682 -1541 -86 -0.97725654 -0.16436733 -0.13398884 0.12854668
2683 -1533 -109 -0.99591118 -0.088559769 0.017835649 0.16883078
2683 -1517 -112 -0.97086322 0.2370379 -0.035179894 0.15983082
2710 -1566 -107 -0.80930752 -0.54296297 -0.22408146 0.16900684
2679 -1534 -59 -0.89383906 0.39866856 0.20521975 0.17504717
2670 -1522 -158 -0.63150871 0.61034173 -0.47820476 0.13314807
2687 -1502 -114 -0.96115136 0.23888804 -0.13827695 0.14633866
2671 -1545 -56 -0.93352103 0.31758809 0.16636205 0.14122826
2681 -1518 -62 -0.63256139 0.76260734 0.13526303 0.16636136
2678 -1526 -107 -0.98905635 0.14442717 -0.030136591 0.14817885
2712 -1566 -107 -0.81123841 -0.57045829 -0.12833391 0.15643334
2673 -1528 -55 -0.91642475 0.34729767 0.19887199 0.1583325
2664 -1543 -53 -0.92544144 0.33989018 0.16742989 0.12624821
2677 -1504 -109 -0.96654505 0.2428644 -0.082508512 0.12172221
2678 -1510 -57 -0.75758916 0.64040923 0.12623295 0.15840179
2678 -1511 -57 -0.78374487 0.60714871 0.13082203 0.15544884
2663 -1537 -63 -0.95366788 0.28995043 0.080289058 0.12347469
2677 -1529 -60 -0.91332543 0.36710975 0.17625839 0.16562936
2683 -1533 -154 -0.70529598 0.43059611 -0.56315577 0.14536124
2694 -1541 10 -0.60433632 -0.77908635 0.1667397 0.17244378
2679 -1536 -42 -0.870588 0.42093414 0.25473675 0.14800769
2676 -1517 -39 -0.68220264 0.69936901 0.2132663 0.12922089
2674 -1553 -117 -0.85013664 -0.52643245 -0.011684889 0.21864264
2678 -1539 -69 -0.98433322 0.17626987 -0.0041296962 0.1483532
2684 -1510 -75 -0.69704002 0.71396154 0.066287845 0.14747341
2688 -1529 -123 -0.98992491 -0.05770551 -0.1293007 0.20247833
2673 -1553 -66 -0.97638595 0.21567944 0.012363071 0.15654126
2678 -1524 -72 -0.96333098 0.26717263 0.024742078 0.13933921
2685 -1543 -121 -0.90457445 -0.42569202 -0.023051294 0.18741576
2689 -1512 -126 -0.69041163 0.67597097 -0.25767228 0.15452348
2665 -1535 -133 -0.53819209 0.76630068 -0.35090247 0.22630095
2698 -1550 14 -0.84733403 -0.00022028529 0.53106028 0.16035432
2693 -1531 -132 -0.85213262 0.24148391 -0.46427971 0.20696732
2680 -1537 -81 -0.99646968 -0.045518894 -0.070542872 0.13706389
2688 -1551 -35 -0.8034333 -0.43957096 0.40158722 0.17976296
2680 -1517 -79 -0.97166288 0.22820772 -0.061582267 0.131825
2682 -1530 -16 -0.91806048 -0.15232633 0.36600757 0.11923745
2680 -1515 -116 -0.87421787 0.48328355 -0.046692364 0.16559514
2663 -1511 -64 -0.96200621 0.26253682 0.074956857 0.11022246
2675 -1535 -115 -0.98094404 0.19348407 0.017681381 0.19115666
2664 -1533 -62 -0.94259405 0.31947064 0.097237229 0.11954292
2670 -1554 -113 -0.94279909 -0.33317423 -0.011173982 0.23283412
2686 -1524 -113 -0.99930763 0.037072804 -0.0031478053 0.15601842
2712 -1571 -108 -0.76534146 -0.64003503 -0.067878731 0.13275102
2691 -1543 -110 -0.96818256 -0.24832684 -0.030924287 0.16209482
2680 -1517 -108 -0.98982751 0.13852015 -0.032460712 0.1436135
2663 -1512 -56 -0.95650047 0.26830509 0.11453909 0.11771433
2679 -1538 -107 -0.98975062 -0.14280601 0.00035397595 0.16613045
2667 -1536 -55 -0.93663317 0.31159943 0.16007501 0.13115555
2684 -1532 -8 -0.92939639 -0.037987739 0.36712298 0.13910799
2700 -1571 -106 -0.85654294 -0.50961661 -0.081395231 0.17414314
