# .PCD v0.7 - Point Cloud Data file format
VERSION 0.7
FIELDS x y z normal_x normal_y normal_z curvature
SIZE 4 4 4 4 4 4 4
TYPE F F F F F F F
COUNT 1 1 1 1 1 1 1
WIDTH 464
HEIGHT 1
VIEWPOINT 0 0 0 1 0 0 0
POINTS 464
DATA ascii
2855 420 -80 -0.7909736 0.5914858 -0.15654179 0.12286162
2877 439 -82 -0.77148384 0.62660015 -0.11038563 0.14467071
2884 456 -82 -0.82764888 0.52925062 -0.18679173 0.13200065
2877 446 -122 -0.69524169 0.62411749 0.35653391 0.084551096
2866 435 -73 -0.72749078 0.67749316 -0.10844416 0.13363642
2857 419 -72 -0.79524648 0.59655929 -0.10816644 0.13654858
2883 452 -73 -0.85289645 0.45161718 -0.26193434 0.14803776
2862 405 -72 -0.76853514 0.63849908 0.040897466 0.13142943
2866 337 -27 -0.6917966 -0.15019588 0.70629925 0.17391953
2864 351 -27 -0.65433127 -0.029810918 0.75562018 0.13240838
2888 439 -99 -0.81068099 0.57846427 -0.090418234 0.10702479
2859 406 -52 -0.58551514 0.62721401 0.51358998 0.12473167
2882 435 -98 -0.76275152 0.63755405 -0.10832797 0.11492114
2833 373 -50 -0.90308768 0.094157919 0.41900694 0.090431824
2857 332 -50 -0.87561083 -0.36756989 0.31336573 0.17069998
2835 359 -50 -0.91048276 -0.014716109 0.41328517 0.083894804
2832 387 -51 -0.89011556 0.26467389 0.37100139 0.096985564
2832 344 -50 -0.90924668 -0.13864973 0.39248779 0.090418696
2896 453 -88 -0.83626479 0.53488272 -0.12067163 0.10731162
2868 434 -87 -0.70620799 0.70089966 -0.10004985 0.11636637
2818 360 -68 -0.95286989 -0.019479726 0.30275318 0.086524628
2819 374 -68 -0.95810348 0.11773349 0.26110637 0.10047124
2864 319 -26 -0.77391475 -0.045333695 0.63166505 0.21340092
2824 332 -69 -0.92939478 -0.27356499 0.24776499 0.13502802
2826 346 -69 -0.9517591 -0.1599658 0.26185015 0.085097551
2825 389 -68 -0.92359602 0.31506509 0.21841328 0.11673547
2835 405 -68 -0.80732352 0.56713396 0.16305767 0.11309142
2849 421 -69 -0.78102082 0.62344682 -0.036338888 0.12239803
2886 448 -118 -0.79349011 0.54105717 0.27862254 0.095776543
2867 438 -69 -0.77551609 0.58709013 -0.23216379 0.15257683
2891 457 -69 -0.8690328 0.35174495 -0.34793317 0.13977727
2829 382 -44 -0.86485595 0.19803311 0.46131033 0.073415972
2828 354 -44 -0.90487778 -0.064137369 0.4208118 0.084484376
2836 341 -44 -0.89471412 -0.12199068 0.42965671 0.10035716
2845 328 -44 -0.89387834 -0.21533868 0.39320576 0.1543843
2884 439 -93 -0.76912123 0.63586992 -0.064202011 0.1266059
2827 368 -44 -0.90213704 0.037616979 0.42980674 0.070705459
2877 431 -104 -0.74701208 0.6529547 -0.12499259 0.11732224
2863 420 -100 -0.74197483 0.65389675 -0.14796092 0.13967733
2872 436 -100 -0.7589311 0.63872498 -0.1267041 0.11226667
2834 385 -66 -0.917741 0.31190255 0.24590316 0.11879866
2832 371 -66 -0.93818134 0.13107973 0.32036519 0.099188626
2830 342 -67 -0.93839252 -0.2547802 0.23346654 0.090505734
2835 357 -67 -0.95407563 -0.044240821 0.29628092 0.097959414
2857 431 -66 -0.79090977 0.49810204 -0.35546601 0.15018357
2865 439 -115 -0.56806022 0.76566434 0.30177087 0.083474919
2849 416 -66 -0.78844476 0.61084729 0.072252914 0.1139572
2834 399 -66 -0.87020838 0.47443536 0.13284752 0.11375491
2887 441 -118 -0.76811033 0.59010452 0.24856234 0.084870279
2853 427 -68 -0.8006174 0.53464043 -0.27050191 0.13750152
2834 409 -67 -0.82714158 0.55477446 0.089788824 0.093890749
2831 395 -67 -0.87993371 0.43047985 0.20100656 0.11762424
2823 336 -65 -0.93087 -0.21292956 0.29688722 0.10252633
2827 351 -66 -0.94436973 -0.1040664 0.31198722 0.082847327
2825 365 -66 -0.95337498 0.03816941 0.29936466 0.098562323
2828 380 -66 -0.93063265 0.22611614 0.28773984 0.10416641
2895 449 -99 -0.82681119 0.56237155 -0.0110252 0.097370483
2867 429 -97 -0.7444554 0.65096921 -0.14840932 0.11279379
2881 448 -128 -0.70434231 0.58982176 0.39498368 0.088173248
2831 330 -75 -0.90757298 -0.35334519 0.22684462 0.14739271
2816 371 -76 -0.96686125 0.055644572 0.24916457 0.10622355
2827 387 -76 -0.93234634 0.31969053 0.1689031 0.12971759
2816 357 -75 -0.9536854 -0.062892519 0.29415748 0.098278269
2827 344 -75 -0.94332212 -0.24661997 0.22208549 0.10491388
2836 373 -44 -0.88790143 0.098581359 0.44934696 0.079394437
2888 435 -91 -0.78120118 0.62091011 -0.064771943 0.132945
2835 344 -43 -0.8920157 -0.12261246 0.43505654 0.091524892
2834 358 -43 -0.89064711 -0.020678887 0.45422462 0.079745546
2851 331 -43 -0.87688595 -0.24268806 0.41493809 0.14835753
2830 387 -44 -0.87274492 0.24200808 0.42396745 0.080594227
2874 440 -66 -0.79842687 0.54879576 -0.24766457 0.16600415
2859 423 -66 -0.78657597 0.61365855 -0.068712831 0.13953359
2865 409 -66 -0.74833667 0.64977109 0.13337803 0.13962606
2888 456 -66 -0.85693687 0.33153799 -0.39464125 0.14233997
2847 347 -22 -0.71558464 0.017180808 0.69831473 0.11959022
2871 446 -114 -0.6836924 0.67740667 0.27144969 0.086710274
2846 333 -22 -0.69448894 0.051532358 0.71765554 0.16926044
2850 361 -22 -0.72081739 0.034131236 0.69228411 0.096253388
2869 321 -22 -0.7689389 -0.06749814 0.63574916 0.20585382
2837 354 -42 -0.88761622 -0.049187046 0.45794991 0.085005254
2843 340 -42 -0.8938114 -0.17298706 0.41373503 0.11529782
2900 446 -89 -0.85638356 0.50951558 -0.083672874 0.11485747
2835 368 -42 -0.88865548 0.041988999 0.45664904 0.075808533
2830 381 -42 -0.85577011 0.19033042 0.48107362 0.071883731
2872 427 -88 -0.73893595 0.67059463 -0.065395087 0.13184206
2852 399 -43 -0.60891491 0.52705848 0.59281695 0.097643897
2898 460 -89 -0.88368005 0.456164 -0.10499529 0.11516895
2868 329 -42 -0.83128273 -0.36889124 0.41579825 0.19038813
2849 335 -17 -0.65751612 0.09807653 0.74702978 0.16013962
2856 322 -17 -0.55865771 0.16481879 0.81285685 0.18492398
2855 364 -17 -0.6518659 0.064863786 0.75555509 0.088845953
2849 349 -17 -0.7101472 -0.004993143 0.70403552 0.11529275
2849 382 -27 -0.66110981 0.28663313 0.69337958 0.080557011
2900 453 -123 -0.95425707 0.19361971 0.22782657 0.092503309
2877 440 -73 -0.77651227 0.62494534 -0.080448568 0.17161879
2849 339 -27 -0.79889011 -0.069600508 0.59743649 0.12738346
2862 423 -73 -0.72063321 0.69144309 0.050934393 0.13228053
2844 352 -27 -0.79565227 -0.027410397 0.60513324 0.096392184
2837 366 -27 -0.82042927 0.05204602 0.5693742 0.078633115
2879 455 -73 -0.85175568 0.43187785 -0.29663739 0.15294403
2876 328 -27 -0.81100231 -0.32093388 0.4891592 0.20412101
2874 449 -72 -0.81047678 0.52173334 -0.26631144 0.15002535
2871 434 -71 -0.72206968 0.69110721 -0.031402279 0.16165927
2857 418 -71 -0.79743701 0.59918451 -0.071219191 0.13604385
2880 445 -118 -0.6937964 0.6514799 0.3069537 0.086166248
2835 374 -22 -0.77435797 0.13812773 0.61748713 0.076147519
2842 347 -22 -0.76711333 0.0077518979 0.64146471 0.10425274
2858 335 -22 -0.58920008 0.01207241 0.80789691 0.17569776
2836 360 -22 -0.79410583 0.048148751 0.60586935 0.084353007
2841 381 -33 -0.77620173 0.2248925 0.58901125 0.079106979
2890 422 -82 -0.84777099 0.52638268 -0.064849697 0.15085518
2843 395 -33 -0.66848117 0.42352289 0.61136019 0.094513528
2846 367 -33 -0.81297439 0.046682775 0.5804252 0.083075948
2844 353 -33 -0.81473166 -0.01701561 0.57958841 0.094352975
2872 448 -81 -0.76966512 0.62131411 -0.14691623 0.13923559
2886 436 -82 -0.76451665 0.64445728 -0.013748075 0.13265418
2870 428 -63 -0.77636772 0.61602396 -0.13329521 0.15583514
2841 409 -62 -0.79921895 0.57419908 0.17760819 0.098977819
2871 443 -63 -0.78328705 0.52390075 -0.33464801 0.16111051
2851 345 -16 -0.6771403 0.04486287 0.73448509 0.12629537
2842 395 -62 -0.86405945 0.46048108 0.20336801 0.12069175
2857 332 -16 -0.64154691 0.036492582 0.76621526 0.16130409
2840 360 -37 -0.8494007 0.0041691861 0.52773207 0.081063643
2841 374 -38 -0.8241657 0.15624495 0.54436982 0.087660052
2835 388 -38 -0.81158543 0.28110972 0.51215857 0.077340327
2877 419 -84 -0.77586043 0.62949216 -0.04219304 0.15649357
2879 434 -84 -0.74480301 0.66297919 -0.075677358 0.14223897
2843 346 -37 -0.85427529 -0.088803962 0.5121792 0.10144608
2881 427 -86 -0.75035167 0.6610381 0.0010218743 0.146523
2850 401 -37 -0.59722954 0.5063737 0.62201494 0.10915512
2845 385 -37 -0.73522103 0.3146992 0.60034525 0.092948087
2852 416 -38 -0.6800977 0.54221368 0.49342826 0.16747698
2843 371 -36 -0.82314527 0.10618821 0.55781347 0.081921086
2837 364 -45 -0.90010256 0.0067477599 0.43562591 0.086023293
2829 377 -45 -0.88713282 0.13092497 0.44255394 0.071996123
2891 439 -94 -0.79908985 0.59810245 -0.061064307 0.12544233
2834 392 -46 -0.82787991 0.3551046 0.43418393 0.091570906
2840 408 -46 -0.77661741 0.49492288 0.38976502 0.12157361
2893 456 -76 -0.8428781 0.50391448 -0.18875057 0.12497751
2868 424 -75 -0.70781475 0.70587897 0.027078569 0.13578443
2861 343 -28 -0.71218711 -0.097079553 0.69524473 0.14501327
2849 370 -28 -0.75335181 0.12966464 0.64470786 0.089930236
2873 439 -75 -0.75387245 0.64941913 -0.099654727 0.14826599
2846 383 -28 -0.67676538 0.2894375 0.67691541 0.08076264
2847 356 -28 -0.80268073 -0.022312168 0.59599143 0.094054408
2881 443 -70 -0.82052159 0.54212874 -0.18122023 0.17100337
2850 378 -25 -0.65338558 0.24271575 0.71706098 0.085161529
2849 364 -26 -0.76051432 0.032936297 0.6484853 0.094200298
2869 427 -70 -0.71977377 0.69346577 0.032108791 0.13816416
2847 335 -26 -0.83887523 -0.068789072 0.53995955 0.14872752
2855 350 -26 -0.72983307 -0.03184532 0.68288326 0.12546898
2852 393 -25 -0.55907911 0.41005427 0.72061509 0.08812996
2852 339 -35 -0.82615811 -0.15480945 0.54175341 0.14552011
2841 394 -34 -0.70287383 0.38717085 0.5967136 0.087577529
2844 381 -34 -0.75112188 0.27282858 0.6011492 0.09030015
2872 327 -35 -0.84866613 -0.34372276 0.40202039 0.21313331
2844 352 -34 -0.82211363 -0.033377346 0.56834418 0.098223299
2845 367 -34 -0.81435871 0.061212551 0.57712466 0.082214586
2857 414 -88 -0.78277922 0.56506854 -0.26068038 0.12494007
2867 445 -89 -0.79261726 0.58251995 -0.18007895 0.12896234
2867 430 -89 -0.74732763 0.65151578 -0.13049386 0.12283213
2850 413 -72 -0.78749114 0.6160028 -0.019956322 0.12007587
2832 352 -69 -0.96042544 -0.11933358 0.2516793 0.092467979
2832 367 -70 -0.96397179 0.056102701 0.26002073 0.10762089
2830 381 -70 -0.93526268 0.25319019 0.24734293 0.10804936
2839 397 -71 -0.88034803 0.47384951 -0.021306204 0.10962035
2895 450 -74 -0.87005985 0.46772173 -0.15566728 0.13650857
2869 431 -73 -0.7006321 0.71312022 0.023960583 0.14359833
2834 338 -69 -0.91923046 -0.31271076 0.23922239 0.10260257
2884 442 -120 -0.6479196 0.68843269 0.32597655 0.079740733
2860 439 -61 -0.7638877 0.4527373 -0.45989627 0.1441007
2853 335 -17 -0.55938923 0.087431908 0.8242811 0.16556452
2857 378 -17 -0.56028473 0.2599853 0.78644055 0.08157751
2847 363 -17 -0.68525177 0.068003617 0.72512448 0.085297056
2867 426 -61 -0.78975153 0.58595002 -0.18153508 0.15494201
2868 411 -61 -0.62570834 0.69499481 0.35421917 0.145661
2850 349 -17 -0.7069959 -0.0064992267 0.70718777 0.11612903
2851 361 -27 -0.74974883 0.030494858 0.66101956 0.095174715
2865 348 -27 -0.61992812 -0.044490069 0.7833963 0.13526666
2850 375 -27 -0.70444417 0.1964211 0.68203902 0.086980343
2852 404 -27 -0.60121965 0.45031774 0.6601128 0.10589576
2878 425 -71 -0.71699613 0.6960783 0.037304554 0.15036973
2889 456 -71 -0.8757959 0.36125022 -0.32012472 0.13800772
2871 439 -71 -0.76439273 0.62568647 -0.15562849 0.15875073
2848 389 -27 -0.63248658 0.3449747 0.69350791 0.081856042
2845 358 -31 -0.80537808 -0.017850935 0.59249264 0.089979798
2851 344 -31 -0.80003405 -0.091710366 0.59290367 0.12169675
2871 417 -82 -0.77707666 0.62845653 -0.034556851 0.14720735
2842 372 -32 -0.81254071 0.10573708 0.57323408 0.074775122
2873 432 -82 -0.74657214 0.66081113 -0.077192076 0.14736335
2860 389 -33 -0.56077999 0.4477976 0.69642168 0.0893187
2867 332 -31 -0.75963742 -0.22045219 0.61184305 0.19678813
2895 450 -84 -0.83280426 0.54490924 -0.097524412 0.11241038
2869 440 -72 -0.76471102 0.62098974 -0.17201379 0.1521098
2872 426 -71 -0.73371947 0.67944783 -0.0025214783 0.14393096
2844 354 -25 -0.78597081 -0.01000143 0.61818266 0.099612989
2860 327 -25 -0.71694863 -0.057685368 0.69473529 0.20786613
2841 339 -25 -0.8260169 -0.0066495803 0.56360602 0.13040148
2879 412 -71 -0.82325059 0.55339128 -0.12655646 0.16011451
2873 314 -24 -0.9325074 -0.23392577 0.27515221 0.23927885
2852 369 -25 -0.67872173 0.14289899 0.72035873 0.095641457
2886 429 -94 -0.78236264 0.61825728 -0.075277805 0.12854652
2838 405 -43 -0.77366269 0.46809644 0.42700318 0.11727842
2869 434 -89 -0.71231866 0.69583523 -0.091735348 0.11612386
2829 389 -43 -0.83788306 0.26013902 0.47987473 0.082610711
2832 375 -43 -0.87997687 0.12258047 0.4589279 0.079178371
2840 362 -43 -0.88557637 0.010047304 0.46438515 0.079825297
2842 348 -43 -0.88377386 -0.11007504 0.45478275 0.093426839
2860 317 -18 -0.53606629 0.14287968 0.83199656 0.19359539
2863 360 -18 -0.56935692 0.081758611 0.8180148 0.10801071
2847 330 -18 -0.53340513 0.17644966 0.82725114 0.16904484
2851 344 -18 -0.69382519 0.030040288 0.71951663 0.13060644
2870 425 -81 -0.76527393 0.64161903 -0.051776044 0.14275679
2866 439 -81 -0.74097973 0.6550836 -0.14769772 0.13422181
2837 352 -34 -0.85883874 -0.057198852 0.50904256 0.088160843
2839 366 -34 -0.83804035 0.03889389 0.54422015 0.07607694
2856 397 -35 -0.51625293 0.51907349 0.68120897 0.091923639
2883 456 -82 -0.81479579 0.54972434 -0.18414924 0.13909683
2832 337 -34 -0.87544191 -0.0034276543 0.48331124 0.13949546
2840 381 -35 -0.7826165 0.23536059 0.57629579 0.083445467
2900 453 -120 -0.9323594 0.29112574 0.2143635 0.097838834
2826 357 -38 -0.88729811 -0.033421367 0.45998386 0.073533565
2851 331 -38 -0.87199497 -0.21918087 0.43770367 0.16600506
2866 428 -85 -0.74613774 0.65707374 -0.10738964 0.13568932
2824 371 -38 -0.88485932 0.087187529 0.45762673 0.063291453
2837 344 -38 -0.88189209 -0.091481663 0.46249056 0.092097647
2897 462 -86 -0.88888055 0.43930212 -0.13001968 0.11286926
2876 444 -86 -0.79057926 0.59792185 -0.13218819 0.13097598
2833 386 -38 -0.83953667 0.21846102 0.49744642 0.074991927
2857 380 -51 -0.74688131 0.38074356 0.54516298 0.12886086
2845 392 -51 -0.77507669 0.45337385 0.44012311 0.11245472
2897 441 -101 -0.86736417 0.49425444 -0.058240518 0.1007586
2849 421 -51 -0.88250959 0.43318236 -0.18311162 0.15592471
2848 407 -51 -0.71734083 0.55943608 0.4152751 0.11046053
2848 354 -26 -0.77441245 -0.0041299146 0.63266766 0.099932961
2886 449 -70 -0.85618556 0.42980513 -0.28672957 0.16496374
2852 383 -26 -0.63860726 0.31071344 0.70401555 0.085561551
2846 368 -26 -0.76809454 0.093400098 0.63348818 0.085780881
2850 397 -26 -0.56741571 0.43475485 0.69930512 0.082217142
2870 322 -12 -0.76597458 -0.018760992 0.64259696 0.19031098
2872 380 -11 -0.55010331 0.21345909 0.80735457 0.12168175
2856 349 -11 -0.58916932 0.055411182 0.8061074 0.11977824
2850 363 -11 -0.64114636 0.090996653 0.76200449 0.079321034
2829 406 -54 -0.85416603 0.45535395 0.25110373 0.11759289
2848 380 -55 -0.84976506 0.32635152 0.41399765 0.11731683
2854 334 -11 -0.59166181 0.13536759 0.7947402 0.16507351
2870 442 -54 -0.76916969 0.39521381 -0.50217932 0.16952935
2859 426 -54 -0.8439793 0.42299411 -0.32981029 0.16162738
2887 437 -103 -0.80458277 0.59159821 -0.051556379 0.099163875
2845 380 -47 -0.83262795 0.28812042 0.47298777 0.10574879
2847 366 -47 -0.88708526 0.055195142 0.4582938 0.11246201
2845 352 -47 -0.88253772 -0.10131255 0.45919815 0.10202015
2853 424 -48 -0.88114238 0.33328554 -0.3354235 0.16499381
2835 407 -47 -0.83145708 0.45471808 0.3192344 0.11764628
2848 395 -47 -0.68242007 0.48842368 0.54382449 0.097697087
2845 406 -59 -0.7897554 0.55753237 0.25582048 0.10238152
2853 421 -59 -0.83724475 0.53531957 -0.11159839 0.1415742
2865 340 -11 -0.58803195 0.05462528 0.80699098 0.1518424
2861 437 -60 -0.78126204 0.49355924 -0.38213736 0.15082538
2851 353 -11 -0.68100065 0.0087494757 0.73223054 0.10227711
2838 391 -59 -0.86111212 0.40380418 0.30891439 0.1099349
2840 380 -40 -0.81411332 0.24686335 0.52562153 0.087359823
2850 396 -40 -0.63296425 0.48959488 0.59971082 0.09430974
2851 410 -40 -0.64589572 0.53586572 0.54375237 0.13265601
2881 436 -88 -0.74606574 0.66536099 -0.026088888 0.13343027
2891 423 -89 -0.83067429 0.55468118 -0.048053812 0.14229718
2857 355 -25 -0.68170631 0.0077584391 0.73158479 0.11595732
2877 441 -117 -0.68206412 0.67658025 0.27753857 0.082210004
2835 414 -68 -0.83110321 0.55573398 0.0206696 0.096324451
2862 327 -26 -0.78271431 -0.14714605 0.60473657 0.21477091
2839 400 -68 -0.88155764 0.47158483 0.021536341 0.11553378
2858 370 -25 -0.63569474 0.1629588 0.75454396 0.098994069
2858 341 -26 -0.68575269 -0.061082222 0.72526705 0.147632
2842 341 -50 -0.9008835 -0.20195632 0.38421679 0.10685556
2875 425 -98 -0.80230755 0.57771271 -0.15016894 0.13194631
2858 416 -49 -0.62351429 0.67189682 0.39973068 0.14740416
2837 355 -50 -0.91006804 -0.063860372 0.40950939 0.087385394
2847 328 -50 -0.88703024 -0.31069836 0.34153175 0.15453036
2842 384 -49 -0.84072787 0.31123355 0.44306922 0.099247359
2834 398 -49 -0.80022669 0.43184096 0.41611394 0.1024429
2834 369 -50 -0.91240376 0.05473835 0.40561438 0.086719528
2885 441 -98 -0.8071124 0.58374149 -0.088405564 0.11160566
2888 435 -76 -0.77112693 0.63616312 -0.02568393 0.1417596
2868 417 -75 -0.77009636 0.63759983 -0.020443203 0.13753541
2856 400 -75 -0.83221745 0.53317612 -0.15211003 0.12542714
2880 442 -122 -0.66651583 0.66846853 0.33000964 0.085736692
2854 331 -57 -0.85255849 -0.48388001 0.19749486 0.16049933
2844 344 -57 -0.90543723 -0.26921806 0.32818457 0.11418571
2866 425 -104 -0.77601737 0.61262167 -0.14997256 0.1208576
2870 419 -56 -0.73353589 0.6583755 0.16872105 0.14196919
2837 386 -56 -0.88869941 0.32349762 0.32490396 0.096683465
2847 402 -56 -0.76287872 0.54690576 0.34483364 0.10318496
2837 357 -56 -0.93321395 -0.043328449 0.35669932 0.092271924
2839 372 -56 -0.92788821 0.12127735 0.35258365 0.11306187
2856 416 -58 -0.74217474 0.6457122 0.17953378 0.12939204
2857 328 -55 -0.8757478 -0.42262447 0.23335467 0.18614888
2839 399 -57 -0.8289566 0.47531512 0.29479906 0.10923374
2836 369 -56 -0.92913562 0.079886474 0.36100569 0.096303128
2839 384 -56 -0.88257301 0.31539229 0.34870142 0.10587917
2842 355 -55 -0.91759461 -0.064944364 0.39217639 0.10466893
2868 429 -107 -0.72956258 0.67506969 -0.1096323 0.1235817
2840 341 -55 -0.91293162 -0.21388938 0.34757346 0.11071418
2879 446 -108 -0.75810474 0.62947017 0.17042466 0.091307513
2852 327 -50 -0.87673366 -0.31099555 0.3669059 0.1663865
2835 382 -50 -0.88689566 0.24063389 0.39434952 0.098435797
2849 398 -51 -0.72125822 0.5093922 0.46936786 0.11173947
2845 354 -50 -0.88868028 -0.08380615 0.45080367 0.10659463
2839 339 -50 -0.90234786 -0.20554547 0.37883952 0.10175434
2860 425 -96 -0.71596593 0.69039708 -0.10365658 0.10904428
2838 368 -50 -0.90752292 0.058592867 0.41589537 0.090805411
2873 430 -75 -0.70269269 0.71001852 0.045788951 0.14873266
2837 357 -29 -0.83288944 0.007709566 0.55338579 0.087712884
2838 342 -29 -0.85113299 -0.019364541 0.52459282 0.12091934
2842 371 -30 -0.79076964 0.10886007 0.60235614 0.078417003
2859 331 -29 -0.77178776 -0.15146178 0.61757833 0.19207275
2878 445 -76 -0.77791011 0.61414737 -0.13296221 0.14916973
2872 415 -75 -0.76939189 0.6382097 -0.026915843 0.14625239
2868 317 -29 -0.94102788 -0.2862969 0.18027925 0.23328245
2837 348 -47 -0.89669472 -0.11176616 0.42830691 0.089825496
2838 362 -47 -0.89845324 0.0050697122 0.43903998 0.085308708
2873 432 -95 -0.74362594 0.65868539 -0.11469135 0.11984363
2846 378 -47 -0.84991521 0.2495365 0.46408585 0.10609473
2847 335 -48 -0.88791919 -0.25643733 0.38188922 0.13819987
2861 422 -86 -0.76731771 0.62519866 -0.14265396 0.13282493
2876 439 -87 -0.75954056 0.63833028 -0.1250301 0.13301532
2886 455 -88 -0.79481608 0.58974236 -0.14307834 0.12777202
2832 388 -84 -0.91713673 0.39854938 -0.0043113152 0.14320028
2836 362 -63 -0.93546742 0.010620087 0.35325345 0.094298162
2826 375 -63 -0.93607789 0.1620675 0.31223774 0.097004943
2877 439 -65 -0.82356697 0.52049899 -0.2254288 0.17328334
2858 422 -64 -0.80126798 0.58978206 -0.10063228 0.13940887
2831 389 -63 -0.90222555 0.34758714 0.25528842 0.10747769
2865 328 -18 -0.68017191 0.0090609947 0.73299664 0.18412162
2897 439 -110 -0.8410632 0.53957325 0.038383938 0.094383806
2835 404 -63 -0.82167947 0.52545547 0.22076979 0.11440453
2841 348 -63 -0.93530571 -0.20586771 0.28778759 0.12160184
2842 327 -36 -0.85990167 -0.020817883 0.5100351 0.17658652
2838 383 -36 -0.80676097 0.21505709 0.5503518 0.073962569
2850 342 -36 -0.82094419 -0.096751839 0.56275189 0.12918627
2843 369 -36 -0.83739889 0.057250708 0.54358566 0.07845901
2850 399 -36 -0.57407182 0.50172681 0.64707947 0.099385202
2850 356 -36 -0.82138145 -0.044391721 0.56864917 0.098880216
2855 320 -26 -0.7118091 0.031329058 0.70167392 0.21465136
2873 426 -70 -0.73526758 0.67752528 -0.018469138 0.1453041
2855 334 -26 -0.70437807 -0.061508551 0.70715499 0.18174149
2854 362 -26 -0.7093944 0.024511958 0.7043854 0.097765222
2882 442 -70 -0.78652936 0.60989672 -0.096940853 0.17045158
2876 412 -70 -0.78262407 0.62247944 0.0043446589 0.15213516
2847 348 -26 -0.76819485 -0.046386488 0.63853341 0.10858113
2886 455 -71 -0.85659063 0.37343907 -0.35608411 0.14473391
2850 345 -27 -0.77139628 -0.03165067 0.63556749 0.11580108
2881 439 -71 -0.78460097 0.61710435 -0.059862588 0.1626686
2853 360 -27 -0.73344851 0.012450779 0.67963099 0.096652806
2852 388 -27 -0.62108892 0.3536956 0.69939119 0.088359155
2867 423 -71 -0.71487659 0.69819695 0.038373437 0.13995245
2850 331 -27 -0.83967149 -0.094048999 0.53488922 0.16862804
2845 373 -27 -0.74694729 0.15384591 0.64683938 0.082602307
2861 324 -17 -0.59739077 0.09222699 0.79662937 0.18796921
2865 310 -17 -0.51518238 0.27818215 0.81067985 0.21708396
2864 339 -17 -0.61094308 -0.00073001522 0.79167426 0.16206533
2853 366 -16 -0.65149778 0.086055711 0.75375396 0.089863501
2870 444 -60 -0.78406644 0.43596536 -0.44178507 0.16351779
2867 429 -60 -0.79605657 0.55942208 -0.23095657 0.15401314
2881 438 -108 -0.79367 0.60060185 0.096774496 0.092167884
2855 352 -16 -0.64691567 0.014918576 0.76241559 0.11096434
2858 413 -60 -0.69467878 0.67627966 0.24508609 0.12855592
2884 417 -80 -0.85747135 0.49062833 -0.15500534 0.16646795
2876 432 -80 -0.73782945 0.67381233 -0.039808951 0.15619893
2894 450 -81 -0.82672256 0.55147868 -0.11135975 0.11835382
2843 389 -66 -0.87675631 0.43799481 0.19864282 0.12973598
2853 419 -67 -0.78072017 0.62478423 -0.01098376 0.13471471
2863 435 -68 -0.7613228 0.60628647 -0.22979188 0.1382549
2896 450 -118 -0.91619402 0.35641989 0.18317571 0.096448027
2842 403 -67 -0.85861796 0.51157004 0.032729801 0.11143751
2850 329 -16 -0.66231066 0.094671763 0.74322391 0.17682038
2862 387 -16 -0.54240662 0.31650642 0.77821505 0.09359277
2853 343 -16 -0.64868158 0.038747594 0.76007289 0.13546051
2849 357 -16 -0.68622661 0.034921665 0.72654915 0.098138303
2849 371 -16 -0.65575516 0.14094064 0.7417013 0.082515776
2853 420 -50 -0.86306673 0.49726617 -0.088555537 0.16622818
2838 404 -49 -0.75617218 0.51494038 0.40378228 0.10638779
2889 435 -96 -0.82107031 0.56555271 -0.077418685 0.13113995
2834 389 -49 -0.85249186 0.32302493 0.41098967 0.09860681
2834 375 -49 -0.88966572 0.15851788 0.42821369 0.086595193
2851 363 -49 -0.88521057 0.043265842 0.46317419 0.12514624
2888 431 -91 -0.78297955 0.61791009 -0.071624875 0.12722127
2855 428 -59 -0.81965232 0.48171499 -0.31003347 0.14964378
2860 385 -58 -0.71780485 0.51386529 0.46978572 0.14777642
2860 333 -11 -0.63814044 0.091955625 0.76440895 0.16936566
2844 412 -59 -0.84364843 0.53544933 0.039388355 0.11891059
2843 397 -58 -0.80900657 0.49086496 0.3233574 0.11141434
2848 347 -12 -0.68435299 0.048609663 0.72752863 0.12522681
2891 436 -100 -0.79685932 0.5978682 -0.086999342 0.10618679
2837 404 -53 -0.8002972 0.50845826 0.31779638 0.10836931
2835 390 -53 -0.88581914 0.33668092 0.31932813 0.098206162
2862 380 -53 -0.71823204 0.4260565 0.55010772 0.14263257
2848 420 -53 -0.84476066 0.53512067 -0.0050286199 0.14505759
2832 371 -38 -0.86664277 0.087750591 0.49115175 0.070438199
2839 400 -38 -0.75040632 0.40861112 0.51954538 0.098151743
2841 387 -38 -0.76472974 0.30824485 0.56583869 0.091767646
2875 426 -87 -0.75034511 0.6596368 -0.043145109 0.13762358
2853 417 -38 -0.68446696 0.54848915 0.48027554 0.16960634
2857 346 -20 -0.67574286 0.00022278501 0.73713744 0.12219064
2890 456 -64 -0.85500336 0.33741057 -0.39385706 0.15000962
2875 446 -112 -0.7189191 0.64803016 0.25142029 0.09287031
2852 374 -20 -0.62545276 0.21177515 0.75097281 0.085123017
2869 438 -63 -0.77549356 0.56820166 -0.27523929 0.15462197
2854 389 -20 -0.53898895 0.35858974 0.76217085 0.083831869
2851 359 -20 -0.70522064 0.04103915 0.7077992 0.094165377
2864 423 -64 -0.77761203 0.62742597 -0.040696625 0.13902575
2847 330 -20 -0.57941824 0.15532026 0.80009377 0.17731223
2853 361 -18 -0.66941565 0.058160961 0.74060792 0.091355987
2862 423 -61 -0.80124813 0.59171569 -0.088735186 0.13966872
2855 375 -17 -0.56834626 0.22911625 0.79024565 0.081214465
2875 411 -62 -0.68911493 0.67655164 0.25961214 0.15109938
2857 347 -18 -0.66884708 -0.016140481 0.74322474 0.12157415
2868 439 -61 -0.77123106 0.54248291 -0.33303905 0.1568256
2854 332 -18 -0.58627307 0.071538158 0.80694872 0.16681425
2887 411 -76 -0.86690784 0.40882111 -0.28519481 0.1624905
2860 422 -76 -0.78660291 0.60984302 -0.096681297 0.13640897
2858 367 -30 -0.68083394 0.13022843 0.72076744 0.11281136
2868 325 -30 -0.81619656 -0.27585775 0.50766695 0.23304436
2852 338 -30 -0.79966629 -0.074634604 0.59578818 0.14130394
2842 351 -30 -0.82621884 -0.027757103 0.56266499 0.099471316
2898 452 -127 -0.8808561 0.35992774 0.30748093 0.10164531
2876 439 -77 -0.75378352 0.6518836 -0.082814068 0.15453283
2892 456 -78 -0.84601611 0.49942818 -0.18662325 0.13339041
2848 415 -58 -0.83019257 0.55649281 0.033107106 0.1167488
2832 384 -56 -0.91008729 0.24401033 0.33496279 0.10129134
2839 399 -57 -0.8289566 0.47531512 0.29479906 0.10923374
2831 369 -56 -0.93096787 0.054280832 0.3610436 0.084821284
2878 434 -59 -0.82251114 0.4642626 -0.32853547 0.16798154
2834 355 -56 -0.92406529 -0.072209351 0.37535205 0.088492312
2857 428 -65 -0.79338074 0.49733105 -0.35101095 0.14472573
2865 321 -18 -0.60027307 0.033824179 0.7990796 0.18438379
2852 413 -64 -0.78785056 0.61187857 0.069972627 0.12037841
2900 447 -115 -0.89531249 0.42822966 0.12261717 0.093098164
2862 335 -18 -0.63064271 0.013291757 0.77595943 0.15972424
2876 445 -65 -0.7995286 0.54174972 -0.25934774 0.16678765
2851 348 -18 -0.69487959 0.0044741174 0.7191121 0.11277554
2844 398 -64 -0.86832941 0.48746699 0.091541901 0.12134954
2858 329 -30 -0.82209587 -0.20534644 0.53102851 0.1967262
2848 342 -30 -0.79960829 -0.055835832 0.59792054 0.12729001
2847 385 -30 -0.66551942 0.31100675 0.67849731 0.087847911
2850 357 -30 -0.78395158 -0.020933844 0.62046885 0.1010842
2849 371 -30 -0.73964655 0.13925239 0.65843135 0.089320071
2851 399 -30 -0.56725448 0.47364834 0.67370576 0.092288867
2877 439 -68 -0.82571846 0.51633632 -0.22712514 0.17218688
2842 337 -22 -0.7820918 0.014274612 0.62299967 0.13761942
2870 423 -68 -0.70933485 0.70251268 0.057618458 0.14485297
2850 352 -22 -0.72899574 -0.019892022 0.68422908 0.10265663
2859 325 -21 -0.67163599 0.010703665 0.74080402 0.1807228
2897 457 -69 -0.84250867 0.46535739 -0.27133298 0.12659836
2846 366 -22 -0.73050374 0.080883607 0.67810184 0.090502337
2872 409 -68 -0.71983457 0.67997354 0.13954984 0.14980866
2897 437 -109 -0.85321957 0.52149892 -0.0074323141 0.090774268
2868 441 -60 -0.7709524 0.50255805 -0.39123875 0.16311653
2868 323 -16 -0.67951351 0.0072987974 0.73362672 0.18553054
2849 363 -16 -0.66453755 0.074297838 0.74355203 0.088540211
2860 411 -60 -0.64945138 0.68081325 0.33868322 0.13769732
2855 350 -16 -0.63995534 0.0026925134 0.7684074 0.11547414
2861 425 -60 -0.8187018 0.54399812 -0.18382961 0.15110819
2864 380 -16 -0.51938081 0.25464204 0.81572115 0.091400474
2852 335 -16 -0.58517379 0.083979405 0.80654764 0.16076414
