# .PCD v0.7 - Point Cloud Data file format
VERSION 0.7
FIELDS x y z normal_x normal_y normal_z curvature
SIZE 4 4 4 4 4 4 4
TYPE F F F F F F F
COUNT 1 1 1 1 1 1 1
WIDTH 783
HEIGHT 1
VIEWPOINT 0 0 0 1 0 0 0
POINTS 783
DATA ascii
2369 915 499 -0.99363101 0.065974198 -0.091349952 0.018868236
2375 996 463 -0.99483269 0.060865991 -0.081260346 0.035882842
2366 954 458 -0.99412394 0.059454411 -0.090458721 0.019558376
2388 962 375 -0.82443821 -0.22126824 -0.52090508 0.046576511
2388 884 415 -0.80286664 -0.22899568 -0.55042362 0.042294141
2401 870 416 -0.52502555 -0.34420231 -0.77837831 0.070886336
2373 976 461 -0.99153256 0.084274977 -0.09879671 0.026194088
2365 876 495 -0.99394435 0.043847714 -0.10075655 0.01626146
2371 917 457 -0.99250901 0.0065048919 -0.12199835 0.017276496
2385 980 376 -0.88475907 -0.1760983 -0.43149832 0.057541844
2382 977 420 -0.98163331 0.019431796 -0.1897855 0.024120437
2377 995 421 -0.98991323 0.0074742991 -0.14147763 0.026528751
2366 934 457 -0.99541235 0.030605948 -0.09065064 0.018529836
2365 895 497 -0.98797715 0.077454515 -0.13379782 0.017616486
2375 936 417 -0.93373406 -0.052342407 -0.35411996 0.034424283
2381 900 415 -0.87269592 -0.18151003 -0.45327267 0.040042944
2367 859 451 -0.93497753 -0.095702499 -0.34155238 0.028468702
2368 878 453 -0.95819032 -0.018768221 -0.28551534 0.02333984
2398 947 376 -0.71011817 -0.31109858 -0.63162476 0.059726078
2373 954 417 -0.96053451 0.008447051 -0.27803266 0.030824305
2379 997 376 -0.89924079 -0.09511812 -0.42698783 0.070324428
2370 898 455 -0.98181421 -0.00031402413 -0.18984403 0.02245005
2412 981 374 -0.564991 -0.24913205 -0.78658652 0.08254277
2399 997 374 -0.78466159 -0.16000579 -0.59891933 0.086680591
2410 961 372 -0.54070348 -0.31466648 -0.7801441 0.069009878
2377 931 461 -0.99501294 0.029938394 -0.095146202 0.018092396
2382 976 422 -0.98189998 0.039133016 -0.18531354 0.023881277
2384 996 469 -0.99514502 0.06422738 -0.07457421 0.039538562
2387 998 380 -0.91415936 -0.10725242 -0.39090881 0.069075994
2383 955 421 -0.96170497 0.0073786466 -0.27398744 0.032810405
2376 933 417 -0.92727107 -0.070157774 -0.36775845 0.036456756
2374 993 423 -0.99075139 0.027647495 -0.13284309 0.027576661
2398 805 451 -0.50769264 -0.36009827 -0.7826733 0.06710837
2395 881 415 -0.74925059 -0.26234692 -0.60810995 0.052796666
2382 837 452 -0.88590991 -0.17335074 -0.43024781 0.032928742
2387 898 415 -0.84837323 -0.20130515 -0.48963165 0.040828984
2392 861 412 -0.62749994 -0.31289884 -0.7129783 0.041249309
2375 911 459 -0.98873216 0.0029255252 -0.14966716 0.017346676
2378 972 466 -0.99274606 0.083147474 -0.08684361 0.025601087
2407 945 377 -0.51973867 -0.38884374 -0.76070505 0.072510868
2382 953 464 -0.99363208 0.061644319 -0.094315372 0.019578746
2397 823 453 -0.70926148 -0.31137741 -0.63244933 0.065396748
2378 854 453 -0.91480339 -0.11731789 -0.38648582 0.031510811
2380 874 456 -0.94129282 -0.040492378 -0.33515394 0.029034793
2382 894 458 -0.97123897 -0.004821239 -0.23805788 0.026071087
2389 979 378 -0.88697457 -0.16302903 -0.43208528 0.057628959
2382 915 416 -0.89651239 -0.13986662 -0.42036027 0.039281242
2402 963 378 -0.76408732 -0.27571058 -0.58322746 0.068091519
2384 764 470 -0.65803039 -0.24693049 -0.71135187 0.050099194
2376 958 444 -0.99203777 0.057730369 -0.11192983 0.020780526
2377 960 490 -0.9959709 0.085073017 -0.028363544 0.020859566
2387 843 434 -0.74586928 -0.2155786 -0.63024187 0.036950685
2382 963 402 -0.91873121 -0.10778966 -0.37988719 0.043001834
2380 983 403 -0.95425588 -0.068301782 -0.29108503 0.044521485
2364 815 472 -0.91089272 -0.10434366 -0.39923295 0.026228141
2366 855 477 -0.97624731 -0.035215028 -0.21377826 0.020420931
2376 898 438 -0.93191278 -0.09367492 -0.35037625 0.039533049
2388 926 399 -0.82485193 -0.16337495 -0.54122806 0.037650373
2367 875 479 -0.98926288 0.037152857 -0.14134577 0.015948746
2394 908 398 -0.7118485 -0.24176541 -0.65940982 0.040553778
2393 826 433 -0.62061584 -0.27114484 -0.73574203 0.040111754
2376 939 487 -0.99721825 0.043826684 -0.060290236 0.017345652
2386 862 436 -0.82548118 -0.15934438 -0.54147047 0.039428078
2376 979 446 -0.99089253 0.086347386 -0.10332453 0.029507143
2407 993 365 -0.62340653 -0.21124625 -0.75282085 0.083847068
2374 878 435 -0.88922852 -0.11248931 -0.44341719 0.039406996
2367 836 475 -0.9469322 -0.086420096 -0.30959815 0.027312331
2368 896 481 -0.99005181 0.064913288 -0.12483423 0.015844498
2370 798 471 -0.87278533 -0.1129195 -0.47486326 0.02708216
2401 891 398 -0.5592013 -0.29752833 -0.77380276 0.048157606
2380 782 472 -0.75612557 -0.20078148 -0.62286514 0.041792862
2374 917 439 -0.97041154 -0.057624571 -0.23447971 0.031677503
2380 943 400 -0.8850469 -0.10916425 -0.45252085 0.039301559
2369 916 484 -0.99400538 0.037900791 -0.10255162 0.018471522
2376 938 442 -0.98816472 0.0074504134 -0.15321547 0.025543123
2387 985 445 -0.99297726 0.062418152 -0.10049978 0.030832907
2401 912 395 -0.6249463 -0.29550031 -0.7225799 0.046939734
2410 997 359 -0.5361867 -0.18753582 -0.82300311 0.084543437
2398 854 433 -0.68790156 -0.24388894 -0.68360049 0.055500224
2382 985 400 -0.95011759 -0.077434681 -0.3021265 0.046045695
2381 903 435 -0.93166983 -0.11319454 -0.34522206 0.04042802
2390 948 397 -0.87265974 -0.13217342 -0.47010118 0.045819521
2377 920 436 -0.96771765 -0.061334416 -0.2444599 0.031204544
2403 933 397 -0.71485692 -0.25314906 -0.65183979 0.058752503
2381 964 397 -0.91367072 -0.11599211 -0.38955319 0.043839205
2402 837 431 -0.55153352 -0.32660195 -0.76755583 0.044216625
2393 870 433 -0.81212252 -0.17279415 -0.55731434 0.049228232
2387 886 434 -0.89024782 -0.12733261 -0.43731606 0.04119923
2379 941 439 -0.98489118 0.012956048 -0.17268918 0.025919637
2380 962 441 -0.9907468 0.058523271 -0.12245715 0.02284589
2390 857 413 -0.6401757 -0.30282989 -0.7060234 0.038052462
2376 869 456 -0.94191742 -0.045005012 -0.33281541 0.029129915
2390 817 453 -0.77020216 -0.28160927 -0.57226282 0.057163339
2385 835 454 -0.88623995 -0.16672705 -0.4321816 0.033677846
2397 801 452 -0.53330183 -0.35324907 -0.7686379 0.071058743
2389 895 417 -0.84119385 -0.20731227 -0.49941427 0.043825667
2378 851 454 -0.91068351 -0.12522191 -0.39366871 0.031207321
2390 876 415 -0.76402074 -0.24331705 -0.59755266 0.041283146
2383 891 459 -0.96953994 0.0065370938 -0.24484588 0.026606269
2376 907 460 -0.98908824 0.013922872 -0.14666529 0.018351231
2389 975 379 -0.87989134 -0.17294617 -0.44258437 0.054830223
2383 972 424 -0.97927845 0.04674615 -0.19704963 0.026846336
2387 972 469 -0.99342656 0.085037977 -0.076630488 0.025407348
2383 952 421 -0.95719051 -0.0039193868 -0.28943214 0.034306854
2381 949 465 -0.99422026 0.055919673 -0.091646314 0.019895531
2386 993 471 -0.99538952 0.067059934 -0.068576984 0.04022764
2378 928 462 -0.99505258 0.030154025 -0.094663553 0.020050757
2406 941 378 -0.5246563 -0.3905541 -0.75644124 0.070211679
2377 929 418 -0.92244065 -0.088385835 -0.37588713 0.036778174
2388 995 381 -0.91383821 -0.11315341 -0.38999501 0.066621058
2382 911 417 -0.89079756 -0.15315361 -0.42781255 0.037549406
2403 960 380 -0.75347894 -0.28971559 -0.59019858 0.06966529
2376 990 425 -0.98793751 0.042502154 -0.14890613 0.025506943
2376 744 487 -0.64978755 -0.19745241 -0.73402232 0.051868413
2372 875 497 -0.99305677 0.039081927 -0.11095401 0.01645577
2367 778 488 -0.83566183 -0.12539075 -0.53473967 0.025464311
2366 797 490 -0.88184959 -0.062317535 -0.46739468 0.024704186
2368 854 495 -0.99228787 0.0086843846 -0.12365045 0.017122298
2384 805 451 -0.75837302 -0.26883084 -0.59380162 0.051440157
2369 760 487 -0.7654351 -0.1546066 -0.62466466 0.031843737
2391 789 451 -0.53883159 -0.37278089 -0.75544351 0.058814902
2369 817 492 -0.92918527 -0.037823394 -0.36767387 0.021705026
2371 857 453 -0.93145025 -0.10054493 -0.34970143 0.030671395
2372 839 452 -0.908297 -0.15763573 -0.38748869 0.029065704
2378 822 452 -0.87473297 -0.18036005 -0.44979149 0.033941709
2371 836 494 -0.9698109 -0.025269117 -0.24254538 0.019525925
2395 884 417 -0.76938289 -0.25045142 -0.58764279 0.05017047
2384 957 421 -0.9626593 0.0066256756 -0.27063459 0.034251027
2381 917 418 -0.90603328 -0.1263124 -0.40391684 0.039086092
2386 998 379 -0.91103286 -0.11018141 -0.39734024 0.068679303
2375 916 458 -0.99092597 0.0036863806 -0.13435845 0.018380823
2390 980 378 -0.88835031 -0.16011953 -0.4303433 0.057748247
2399 945 377 -0.68442178 -0.32423845 -0.65302092 0.05952188
2377 934 418 -0.93232626 -0.05908826 -0.35675809 0.035680041
2376 975 463 -0.99274462 0.074806653 -0.094138592 0.025959982
2386 996 424 -0.98912567 0.013764798 -0.14642744 0.028638145
2387 900 417 -0.86138612 -0.18827058 -0.47177118 0.041652933
2377 995 465 -0.99469596 0.063632585 -0.080813654 0.034090761
2375 955 461 -0.99413711 0.062521204 -0.088218614 0.019304279
2371 876 455 -0.95840645 -0.015329409 -0.28499469 0.02353804
2385 976 422 -0.98020852 0.028598597 -0.19589147 0.026602311
2397 964 378 -0.81999272 -0.24284853 -0.51830149 0.058308247
2371 895 456 -0.97997761 0.0022282312 -0.19909528 0.02224143
2369 933 459 -0.99566424 0.032396115 -0.087196678 0.019875048
2376 896 500 -0.98256296 0.086414702 -0.16462846 0.018146448
2397 852 421 -0.57073724 -0.32693464 -0.75324148 0.049768504
2379 955 466 -0.9944424 0.056443214 -0.088872492 0.019092156
2388 811 459 -0.78097212 -0.25321776 -0.57093185 0.059106611
2379 737 497 -0.61614496 -0.18177414 -0.76637036 0.0702466
2368 806 500 -0.91181171 -0.0065507824 -0.41055638 0.025417022
2377 973 467 -0.993523 0.08462733 -0.075830758 0.02580416
2373 860 460 -0.94672555 -0.07437434 -0.31333557 0.028262245
2378 900 420 -0.89668101 -0.16257462 -0.41174334 0.039291605
2388 993 384 -0.91700381 -0.1293641 -0.37731802 0.059180342
2375 843 459 -0.91480684 -0.14380787 -0.37742248 0.029588843
2390 867 420 -0.74565893 -0.23615205 -0.62307709 0.042622853
2398 960 384 -0.82540691 -0.22939576 -0.51583046 0.056225527
2375 935 422 -0.94735974 -0.040421911 -0.31760934 0.036365554
2376 880 461 -0.97131044 0.00066467776 -0.23781434 0.023578737
2404 944 385 -0.66438258 -0.3375358 -0.66683227 0.069350325
2380 919 422 -0.92114967 -0.11628567 -0.37143093 0.036622591
2380 993 469 -0.99506319 0.078168072 -0.061146934 0.037037041
2391 976 384 -0.89289522 -0.16283226 -0.41979009 0.05090462
2374 897 462 -0.98280144 0.016591264 -0.18391868 0.021923756
2364 786 498 -0.8249855 -0.084644571 -0.55877918 0.024627291
2377 936 465 -0.99535006 0.034502637 -0.089933008 0.018346585
2384 884 420 -0.83954048 -0.1871095 -0.51006067 0.042050775
2380 974 424 -0.98110032 0.055102974 -0.18548787 0.025150206
2391 793 459 -0.62303531 -0.32605681 -0.71099496 0.064847887
2379 955 423 -0.9682073 0.01955851 -0.24938335 0.031565711
2375 916 463 -0.99330091 0.020928323 -0.11364569 0.017019186
2389 775 457 -0.56040132 -0.33963576 -0.75537926 0.049001426
2382 827 459 -0.89377129 -0.15839513 -0.41962358 0.032152124
2382 994 425 -0.98922944 0.028420705 -0.14358771 0.026990814
2380 964 420 -0.97276795 0.017314155 -0.23113376 0.028906163
2367 881 497 -0.99205482 0.053801395 -0.11372161 0.016422333
2395 953 377 -0.76902556 -0.27228796 -0.57832426 0.052543398
2364 784 487 -0.85316318 -0.10698372 -0.51055568 0.024157651
2369 901 499 -0.98687631 0.076250441 -0.14234111 0.018987956
2376 750 486 -0.66371745 -0.19875687 -0.72109282 0.047511321
2373 885 455 -0.96586746 0.0049979305 -0.25898844 0.024600901
2377 944 418 -0.94768161 -0.026116863 -0.31814694 0.0349795
2392 796 451 -0.58002692 -0.36431953 -0.72858763 0.063781008
2371 983 463 -0.99243581 0.091418169 -0.08193773 0.028822267
2376 964 462 -0.99246991 0.070025638 -0.10049796 0.022246743
2378 829 451 -0.88372707 -0.16580635 -0.43764672 0.033982128
2372 865 453 -0.93731576 -0.064565569 -0.34244782 0.03009484
2368 922 457 -0.9943893 0.0076865465 -0.10550308 0.018938517
2370 845 451 -0.91575742 -0.14567944 -0.37438735 0.029576931
2370 942 459 -0.99569839 0.038903534 -0.084091268 0.017652901
2385 813 451 -0.78199464 -0.25371674 -0.56930852 0.047486834
2386 987 423 -0.98647183 0.035904065 -0.1599507 0.025297526
2395 873 416 -0.70808357 -0.26508123 -0.65448415 0.049607493
2387 989 378 -0.90190446 -0.15840022 -0.40184283 0.06551484
2368 824 491 -0.94122446 -0.036548305 -0.33579853 0.025211336
2369 767 487 -0.80767339 -0.14547414 -0.57140261 0.025970133
2366 804 489 -0.90021646 -0.042157702 -0.43339705 0.02489116
2390 890 416 -0.81852436 -0.23365562 -0.52480751 0.047527481
2388 970 377 -0.86506015 -0.1988426 -0.46057847 0.052328542
2384 907 417 -0.88671333 -0.15498458 -0.4355678 0.038392708
2363 860 494 -0.99422085 0.019501666 -0.10556787 0.015696952
2378 906 457 -0.98335999 0.0042452179 -0.18161841 0.021586655
2378 925 417 -0.91445571 -0.10203668 -0.39161116 0.036151215
2374 731 484 -0.64947402 -0.1999546 -0.73362231 0.0743526
2403 937 376 -0.56939739 -0.37609389 -0.73098564 0.063681424
2368 843 493 -0.98022485 -0.023212148 -0.19652076 0.018319858
2394 969 374 -0.81850439 -0.23127778 -0.52589089 0.056454498
2389 810 447 -0.65435809 -0.32407147 -0.68322259 0.059773043
2367 819 487 -0.93325841 -0.05317387 -0.35524818 0.022624059
2371 917 497 -0.99440014 0.049537953 -0.093349971 0.019698529
2370 782 484 -0.84836888 -0.12926467 -0.51338184 0.022349074
2378 844 448 -0.88519609 -0.16143937 -0.43630853 0.031758349
2361 855 489 -0.99103117 -0.0075498829 -0.1334177 0.016423352
2392 887 412 -0.77204227 -0.26241592 -0.57886839 0.04870544
2371 939 455 -0.99474341 0.033599991 -0.09672945 0.019472761
2367 936 498 -0.99825209 0.039500993 -0.043960687 0.021535723
2380 825 447 -0.84538227 -0.19937882 -0.49555707 0.035498355
2373 881 451 -0.94759458 -0.035533506 -0.31749305 0.02925187
2379 902 453 -0.9732393 -0.030591754 -0.22774866 0.029579811
2368 838 489 -0.97287953 -0.047292553 -0.22642623 0.020459712
2397 870 412 -0.58748668 -0.32645601 -0.74046332 0.060613181
2385 943 416 -0.92975897 -0.049344707 -0.36484697 0.036519673
2377 961 458 -0.99351853 0.063806154 -0.094073147 0.021737838
2364 875 492 -0.99394906 0.040282458 -0.10218939 0.014071482
2370 897 495 -0.98807865 0.071926378 -0.13611478 0.017491523
2380 980 418 -0.98317647 0.023760445 -0.181106 0.025144923
2385 923 414 -0.89629954 -0.12675601 -0.42494711 0.038775332
2399 951 373 -0.68354255 -0.31404498 -0.65889716 0.059357308
2390 906 414 -0.85833269 -0.18497746 -0.47858992 0.04071207
2379 765 484 -0.77013344 -0.18813042 -0.60950911 0.042398531
2373 861 449 -0.91471672 -0.098369859 -0.39193964 0.030712733
2388 790 445 -0.5415982 -0.36209095 -0.75865769 0.057729244
2387 730 482 -0.56541431 -0.21384718 -0.79660279 0.077006839
2381 747 483 -0.62896031 -0.20264831 -0.75056148 0.051370773
2367 799 485 -0.88764584 -0.071046576 -0.45501354 0.023029065
2369 918 453 -0.99026531 -0.0053850203 -0.13908887 0.020540679
2387 963 418 -0.96429443 -0.01393324 -0.26446593 0.032633033
2372 979 459 -0.99096519 0.084846057 -0.10387068 0.028186293
2374 999 461 -0.99342567 0.07749448 -0.084262215 0.035783138
2389 986 374 -0.85373563 -0.18049416 -0.48842329 0.068750784
2407 942 378 -0.51333064 -0.39344653 -0.76268709 0.072795369
2394 998 382 -0.90277934 -0.12902987 -0.41029361 0.070780441
2410 964 381 -0.6851415 -0.31536591 -0.65660149 0.079488859
2400 980 381 -0.87470484 -0.18989915 -0.4459033 0.065383799
2389 999 363 -0.74330646 -0.17647408 -0.64525378 0.077435903
2377 752 485 -0.64674598 -0.18892649 -0.73893601 0.047633208
2371 768 485 -0.79497015 -0.15014389 -0.58777481 0.029105293
2366 785 485 -0.85893935 -0.11530952 -0.49892578 0.023960097
2380 829 449 -0.87401277 -0.17564793 -0.45304462 0.034791104
2370 901 452 -0.9762432 -0.024375683 -0.21530209 0.028228201
2370 938 498 -0.99761122 0.057960279 -0.037583522 0.021575492
2368 823 489 -0.9391284 -0.044748727 -0.34063977 0.024352415
2363 859 491 -0.993505 0.012908807 -0.11305359 0.014743169
2373 901 496 -0.98836082 0.075012498 -0.13234818 0.018603446
2366 804 487 -0.89365762 -0.05728839 -0.44507766 0.026302341
2374 846 449 -0.9045229 -0.15233421 -0.39828724 0.030644732
2365 841 490 -0.97868943 -0.034371242 -0.20244917 0.021101354
2386 794 447 -0.62740886 -0.33648458 -0.70223665 0.05642961
2381 904 413 -0.87078261 -0.16848677 -0.46189806 0.040932603
2369 863 449 -0.92678666 -0.081164762 -0.3667134 0.030018808
2374 922 454 -0.99029732 -0.0045859637 -0.13888946 0.021140508
2386 813 448 -0.74699306 -0.29012218 -0.59818929 0.055097643
2381 922 414 -0.89529437 -0.12216868 -0.42839557 0.038827524
2393 889 413 -0.7822336 -0.24640688 -0.57218379 0.048229732
2363 880 450 -0.95833141 -0.021739712 -0.28483018 0.024662932
2369 919 497 -0.99540281 0.052687515 -0.079983898 0.019322118
2375 733 483 -0.66135746 -0.20905329 -0.72034931 0.072252676
2366 879 493 -0.99164605 0.057227869 -0.11559884 0.016772868
2375 997 417 -0.98923391 -0.0039298884 -0.14629012 0.028999079
2373 979 458 -0.991 0.084270298 -0.10400756 0.028389079
2371 958 500 -0.99582535 0.088287026 -0.02317917 0.022494789
2397 969 374 -0.79544055 -0.23822477 -0.55724627 0.063082546
2405 953 374 -0.58402061 -0.32915524 -0.74200869 0.066438586
2382 980 418 -0.98166776 0.021619303 -0.18936999 0.026147457
2366 938 454 -0.99537075 0.02651277 -0.092380799 0.017644156
2389 985 374 -0.85250163 -0.18470627 -0.48900363 0.067762569
2373 957 415 -0.96217519 -0.0039308006 -0.27240312 0.030006127
2372 959 457 -0.99304026 0.07051497 -0.094332613 0.022297844
2375 939 414 -0.92931098 -0.055068612 -0.36516926 0.033121109
2368 997 459 -0.99312985 0.081694074 -0.083779842 0.035410322
2367 935 459 -0.99585694 0.033337031 -0.084602639 0.018209929
2401 930 377 -0.57672954 -0.37657976 -0.72496247 0.051308662
2372 898 457 -0.98313844 0.0049415682 -0.18279602 0.021420995
2373 936 418 -0.93784511 -0.044008471 -0.34425253 0.037790004
2371 956 462 -0.99431044 0.06220115 -0.086474024 0.020182157
2386 902 418 -0.87574887 -0.17301077 -0.45070076 0.039551102
2382 1000 379 -0.91473067 -0.10283206 -0.39075994 0.06745635
2381 978 422 -0.98322606 0.041150481 -0.17768848 0.022922296
2389 964 377 -0.85170966 -0.20054512 -0.48412019 0.04793445
2396 947 377 -0.74037415 -0.28980452 -0.60651422 0.053243194
2380 958 421 -0.96706009 0.018415295 -0.25388113 0.029799283
2382 998 424 -0.99011844 0.03624329 -0.1354696 0.0300928
2374 918 459 -0.99329692 0.0066037863 -0.11540213 0.018026317
2383 981 378 -0.89452487 -0.16720091 -0.41457102 0.056105644
2373 996 465 -0.99508172 0.069601275 -0.070484169 0.034129392
2374 977 464 -0.99315953 0.083516307 -0.081603706 0.026526121
2374 917 417 -0.91766042 -0.12652196 -0.37668496 0.037795864
2375 858 465 -0.95295334 -0.063976444 -0.29628861 0.027613521
2376 820 461 -0.89305395 -0.14575766 -0.42568681 0.030957131
2390 865 424 -0.76518166 -0.21429324 -0.60710418 0.045017458
2393 789 460 -0.57257473 -0.35110071 -0.74086863 0.060894292
2386 805 461 -0.79523504 -0.21779554 -0.56583256 0.051450379
2377 877 467 -0.97572911 0.0069825789 -0.21886946 0.023366552
2402 850 425 -0.53011215 -0.33120865 -0.78056508 0.051829319
2372 837 462 -0.91800147 -0.14427562 -0.36940199 0.027461551
2377 898 426 -0.90916884 -0.13702518 -0.39323786 0.040665634
2373 916 427 -0.94305032 -0.10118579 -0.31688714 0.034635939
2376 916 471 -0.99375105 0.030321639 -0.1074219 0.015734816
2380 1000 437 -0.99280673 0.023435613 -0.11741213 0.033049162
2383 881 425 -0.85242593 -0.16310395 -0.49675664 0.041285403
2378 938 430 -0.96943557 -0.018357459 -0.24465813 0.02908409
2376 935 474 -0.99560326 0.029459106 -0.088917665 0.018513372
2378 958 432 -0.98394364 0.050240621 -0.17126213 0.025964562
2403 927 387 -0.60018742 -0.34931374 -0.71955192 0.052876256
2388 962 389 -0.88604432 -0.14822191 -0.43926722 0.046781857
2378 897 470 -0.98831421 0.039779838 -0.14714859 0.019984074
2395 944 388 -0.78988194 -0.22186533 -0.57171863 0.055060308
2378 979 434 -0.98790127 0.075870149 -0.13525786 0.025602631
2377 956 476 -0.99538028 0.06584233 -0.069876619 0.02208118
2386 982 390 -0.90606397 -0.14706112 -0.39676341 0.051246114
2400 945 389 -0.76396912 -0.24997486 -0.59486443 0.060635194
2381 935 430 -0.96516556 -0.03299173 -0.25955144 0.03291158
2386 899 427 -0.90210009 -0.15432023 -0.40298963 0.039594233
2382 976 434 -0.98705214 0.076499015 -0.14098169 0.024299329
2383 956 432 -0.9796083 0.037654717 -0.19735698 0.027779438
2397 866 425 -0.70542878 -0.26164025 -0.65872192 0.055668175
2390 881 426 -0.84161395 -0.17629766 -0.51049489 0.044871565
2401 849 424 -0.52628058 -0.33360639 -0.78213531 0.051809266
2385 980 391 -0.90813857 -0.14145391 -0.39404964 0.051793993
2393 962 390 -0.88234681 -0.15479986 -0.44441092 0.048277441
2382 999 392 -0.94721079 -0.084880091 -0.30917168 0.055170566
2386 999 437 -0.99217516 0.029186798 -0.12139442 0.033121135
2381 915 428 -0.93404728 -0.11446011 -0.3383114 0.034718323
2397 924 387 -0.68900067 -0.28594565 -0.66596782 0.043324489
2366 869 450 -0.94575167 -0.047803938 -0.32135415 0.02837606
2368 773 485 -0.82785606 -0.14465027 -0.54196924 0.024965491
2364 830 491 -0.9605853 -0.023597177 -0.2769821 0.020949831
2365 850 493 -0.98887503 -0.0068011279 -0.14859305 0.015959769
2365 810 489 -0.91609854 -0.038268272 -0.39912277 0.023998471
2388 799 447 -0.63389343 -0.32469594 -0.70196271 0.060312208
2376 737 483 -0.65315402 -0.22749691 -0.72224307 0.063238449
2379 834 449 -0.88138932 -0.17121872 -0.44026926 0.033906702
2363 790 486 -0.87288046 -0.098315328 -0.47792655 0.023702921
2372 852 449 -0.91133904 -0.12283459 -0.392903 0.031742226
2368 754 483 -0.75400746 -0.18334484 -0.63075936 0.034113728
2393 862 411 -0.60814852 -0.32474002 -0.72436124 0.044061571
2385 817 448 -0.79243571 -0.25364605 -0.55471545 0.044851903
2367 870 495 -0.99410272 0.037974037 -0.10157656 0.015641855
2368 890 498 -0.98824614 0.05557071 -0.14241345 0.019922491
2373 934 415 -0.92567343 -0.066104934 -0.37250352 0.036341358
2388 880 412 -0.76798254 -0.24810176 -0.59046447 0.040297315
2386 899 413 -0.83710694 -0.2085351 -0.50573212 0.041175812
2373 891 453 -0.96946591 -0.017395211 -0.24460843 0.026389271
2376 953 460 -0.99378037 0.059637345 -0.094042726 0.020188328
2369 910 500 -0.98995107 0.077609345 -0.11821019 0.019901006
2377 973 462 -0.99243551 0.073448353 -0.098371953 0.027075669
2397 983 380 -0.88260883 -0.16959795 -0.4384498 0.066029139
2376 932 458 -0.99431628 0.025448054 -0.10338099 0.019346774
2379 976 419 -0.98190957 0.015846558 -0.18868618 0.026514247
2379 956 417 -0.9597159 -0.0093539525 -0.28081644 0.032131203
2380 997 421 -0.99010718 0.0016761963 -0.14030315 0.027056213
2382 996 465 -0.99439943 0.06603124 -0.082520485 0.035043009
2373 911 455 -0.98662293 -0.010909509 -0.16265352 0.022229139
2380 916 414 -0.89288336 -0.1317139 -0.43059352 0.039992955
2398 963 379 -0.82017088 -0.24769109 -0.51572156 0.059810355
2369 772 485 -0.82561713 -0.14946607 -0.54407364 0.02474574
2364 789 486 -0.8671611 -0.10597741 -0.48662147 0.025671706
2385 817 449 -0.79532343 -0.25264701 -0.5510264 0.043708116
2364 883 494 -0.99232846 0.05976586 -0.10822286 0.017160691
2400 878 414 -0.57781738 -0.29891121 -0.75945985 0.070962407
2371 848 492 -0.98358905 -0.025158305 -0.17866075 0.018716557
2375 756 485 -0.69922614 -0.18368921 -0.69089872 0.041961771
2367 809 488 -0.90533501 -0.053897046 -0.42126438 0.02411487
2381 739 485 -0.62739009 -0.21745759 -0.74772578 0.060747221
2362 864 491 -0.99441189 0.022566454 -0.10313005 0.013142983
2366 828 489 -0.94790697 -0.04402665 -0.31549004 0.024733165
2379 834 449 -0.88138932 -0.17121872 -0.44026926 0.033906702
2368 867 450 -0.93859351 -0.051415008 -0.34117258 0.03041267
2394 802 450 -0.5759114 -0.35280839 -0.73746341 0.066945948
2370 849 449 -0.91662365 -0.1390612 -0.37478399 0.031668112
2365 738 497 -0.66797858 -0.17239039 -0.72393805 0.057690099
2379 905 466 -0.98832428 0.021050956 -0.15090388 0.018556941
2402 949 387 -0.76060522 -0.26105544 -0.59441543 0.064118661
2377 979 470 -0.9948318 0.089426264 -0.048090249 0.029400706
2399 858 423 -0.558613 -0.3436574 -0.75488478 0.053961266
2401 840 423 -0.50932807 -0.34452459 -0.78859854 0.04331433
2377 942 468 -0.99542874 0.037129387 -0.087994024 0.017484615
2388 873 423 -0.79811019 -0.20404708 -0.56690824 0.041683163
2404 932 386 -0.60252327 -0.34510773 -0.71962929 0.060254928
2394 782 461 -0.53235674 -0.35748014 -0.76733583 0.061919063
2379 906 423 -0.91395628 -0.14737189 -0.37810779 0.035861805
2376 960 469 -0.99558645 0.065346427 -0.067360267 0.021363461
2381 925 424 -0.93022388 -0.089350857 -0.35594943 0.037718013
2377 849 462 -0.93106383 -0.10856176 -0.34833094 0.029246164
2376 997 427 -0.98987412 0.058225919 -0.12945615 0.027698098
2387 798 460 -0.73798829 -0.25182602 -0.62606454 0.0546664
2380 980 427 -0.98630983 0.064281426 -0.15185785 0.023581002
2386 999 387 -0.92762142 -0.090080217 -0.36249673 0.058689155
2364 792 500 -0.86057854 -0.059732392 -0.50580293 0.024747822
2376 830 461 -0.91167015 -0.13897321 -0.38670918 0.027519725
2372 866 462 -0.96233892 -0.036087319 -0.26944676 0.025891131
2372 921 466 -0.99456036 0.02319457 -0.10154661 0.015174082
2395 965 386 -0.87136048 -0.17307083 -0.45910498 0.05059405
2372 884 463 -0.98009044 0.029124428 -0.19640391 0.021156929
2389 981 386 -0.90427649 -0.15030044 -0.3996172 0.048892673
2374 959 425 -0.97625899 0.043923765 -0.21210626 0.026790034
2376 941 424 -0.96132594 -0.015341997 -0.27498558 0.031020107
2385 890 423 -0.86443561 -0.18149851 -0.4688383 0.04013256
2380 814 460 -0.86646783 -0.16834651 -0.46999243 0.038971711
2384 737 476 -0.58833212 -0.23213887 -0.77458179 0.069099538
2389 943 407 -0.88595057 -0.09780506 -0.45334944 0.040694889
2368 861 483 -0.98731881 0.00010062535 -0.15875007 0.017708845
2362 877 483 -0.99040139 0.050483514 -0.12867184 0.014696981
2395 985 365 -0.71458918 -0.1944436 -0.6719777 0.065035798
2380 996 408 -0.97579914 -0.023108644 -0.21744446 0.039114084
2402 910 407 -0.69678628 -0.23868617 -0.67640066 0.049140804
2370 806 479 -0.89888775 -0.079239488 -0.43095464 0.02363424
2376 865 442 -0.87440753 -0.11766782 -0.4707076 0.036669046
2385 756 478 -0.66515142 -0.24833748 -0.70420319 0.055588953
2376 978 449 -0.99069244 0.086047173 -0.10547205 0.026122523
2403 892 406 -0.52332383 -0.31108412 -0.79332143 0.056615565
2374 844 483 -0.96391797 -0.068237878 -0.25730509 0.023767356
2384 979 408 -0.95328945 -0.059075795 -0.29622513 0.041900638
2369 956 446 -0.99234712 0.057626959 -0.10920777 0.02081468
2395 926 407 -0.81183612 -0.16834322 -0.55909097 0.045260068
2404 969 365 -0.59119207 -0.26557323 -0.76155287 0.065841906
2387 832 441 -0.77381533 -0.19950013 -0.60117346 0.034752999
2381 848 441 -0.81952566 -0.17747013 -0.54486889 0.033922032
2370 938 445 -0.990565 0.021304492 -0.13537745 0.020542059
2380 772 478 -0.73231018 -0.20978606 -0.64785153 0.041792322
2372 901 443 -0.95745498 -0.066522107 -0.28081104 0.034304351
2374 789 479 -0.84633535 -0.12640004 -0.51743543 0.026318595
2373 938 489 -0.99713874 0.040735237 -0.063678548 0.020815386
2369 899 486 -0.99054712 0.061252996 -0.12273754 0.016151175
2373 883 442 -0.91867596 -0.073391683 -0.38813424 0.0381312
2373 957 491 -0.99616605 0.083674572 -0.025529906 0.020913457
2369 824 480 -0.92268825 -0.099020898 -0.37261391 0.026674367
2376 997 450 -0.99214411 0.055891562 -0.11192032 0.032169078
2370 918 487 -0.99401313 0.034372773 -0.10371338 0.020239111
2383 960 407 -0.92563516 -0.079452656 -0.3699823 0.040503006
2376 921 445 -0.98092556 -0.029902849 -0.19206984 0.026689274
2391 814 441 -0.54993635 -0.31090546 -0.77518249 0.05764994
2396 961 394 -0.88713616 -0.14798227 -0.43713918 0.047846194
2411 947 395 -0.66520959 -0.33282378 -0.66837466 0.087059788
2397 982 397 -0.91309077 -0.13585211 -0.38446 0.050477378
2366 838 489 -0.97382015 -0.045193523 -0.22278231 0.020149741
2367 858 491 -0.99228579 0.0016995555 -0.1239593 0.016537864
2369 860 449 -0.9221155 -0.093376271 -0.37547815 0.030747214
2383 827 449 -0.85863459 -0.19188796 -0.47531635 0.03472783
2369 783 485 -0.84970421 -0.12154239 -0.51305962 0.024166994
2372 803 487 -0.89297867 -0.062604211 -0.44572386 0.024711728
2389 811 448 -0.68985146 -0.31544805 -0.65161151 0.058113303
2384 751 485 -0.64099908 -0.21040383 -0.73813981 0.047591224
2377 730 483 -0.63227117 -0.21985103 -0.74289882 0.075096898
2396 887 413 -0.75115263 -0.2618798 -0.60596102 0.052107275
2371 821 489 -0.93301535 -0.054224253 -0.3557277 0.022993891
2369 878 493 -0.99182707 0.053414177 -0.11587127 0.017510176
2368 896 494 -0.98837805 0.074423768 -0.13255124 0.017619159
2373 880 451 -0.94581115 -0.037073165 -0.32259378 0.027663063
2389 792 447 -0.55453253 -0.35956722 -0.75046992 0.057240739
2380 768 486 -0.76913559 -0.18945397 -0.6103586 0.041271925
2377 844 449 -0.89290917 -0.16041949 -0.42068848 0.032436725
2377 977 458 -0.99142259 0.085634671 -0.098731324 0.027701406
2377 920 454 -0.9889552 -0.011779315 -0.14774604 0.021378882
2369 936 454 -0.99490106 0.027610518 -0.097002611 0.01957397
2393 984 374 -0.8445093 -0.18971032 -0.50081342 0.070363477
2370 955 456 -0.9936946 0.062946089 -0.092783257 0.020904427
2379 976 416 -0.97933757 0.0092676906 -0.20201993 0.026601024
2384 920 414 -0.89071798 -0.13397749 -0.43436325 0.040108848
2396 906 415 -0.81599951 -0.20343977 -0.54107034 0.052433576
2378 995 417 -0.98718411 -0.0044360603 -0.15952417 0.029077459
2377 937 414 -0.92380959 -0.060966577 -0.37796679 0.036001548
2375 900 453 -0.97392446 -0.025884733 -0.22539112 0.026560908
2377 956 415 -0.95653194 -0.020491885 -0.29090661 0.031810425
2386 1000 374 -0.86707854 -0.1347421 -0.47960329 0.081216566
2400 967 374 -0.75458533 -0.26354647 -0.6009528 0.065330669
2377 997 460 -0.9928481 0.070989251 -0.095985048 0.035953853
2370 916 496 -0.99441385 0.04650452 -0.094754435 0.022223284
2371 936 498 -0.99811143 0.041966308 -0.044860646 0.020201685
2373 956 500 -0.99636269 0.08095251 -0.026608661 0.020965403
2377 834 453 -0.89824814 -0.15543132 -0.41108572 0.029443748
2396 859 416 -0.57026213 -0.3422682 -0.74676198 0.048816033
2371 851 453 -0.92355561 -0.1306693 -0.36051431 0.029726332
2391 895 418 -0.83926433 -0.211679 -0.5008266 0.045603618
2372 888 499 -0.98759067 0.053218942 -0.14775805 0.01869286
2368 809 492 -0.91135401 -0.039747991 -0.40969992 0.025093824
2366 866 496 -0.99407864 0.028949503 -0.1047354 0.016523913
2389 800 452 -0.68561208 -0.30620223 -0.66043645 0.057491295
2375 890 457 -0.97067517 0.006856977 -0.24029702 0.024416605
2371 773 489 -0.81716383 -0.13889264 -0.55942118 0.025671244
2383 817 452 -0.81841928 -0.2280411 -0.52743441 0.043293551
2369 848 495 -0.98638701 -0.010030243 -0.1641341 0.016973993
2380 910 418 -0.89628512 -0.14822574 -0.41797397 0.037854262
2370 927 459 -0.99505943 0.022914739 -0.096600093 0.019025505
2377 756 489 -0.68797272 -0.17518839 -0.70427454 0.044117823
2380 738 488 -0.58206236 -0.18793605 -0.79112792 0.06292668
2379 929 419 -0.92337734 -0.089587487 -0.37329417 0.035919856
2368 869 454 -0.95241416 -0.042253595 -0.30186406 0.027299343
2366 790 490 -0.86759615 -0.095165178 -0.4880783 0.025466168
2377 910 459 -0.98818862 0.0021582234 -0.15322714 0.017362349
2390 875 417 -0.76967162 -0.23230776 -0.59467524 0.041294731
2370 829 494 -0.9573828 -0.013462964 -0.28850818 0.022847591
2402 940 378 -0.63543761 -0.35351628 -0.68647307 0.059796788
2378 969 464 -0.99219418 0.074893713 -0.099708498 0.024296952
2379 989 465 -0.99347663 0.077067174 -0.084052399 0.029554656
2381 969 422 -0.97824109 0.04469566 -0.20259991 0.025700169
2390 974 378 -0.87430656 -0.18453035 -0.44892833 0.055083554
2386 951 421 -0.95304394 -0.019358844 -0.30221257 0.034294773
2396 957 378 -0.78749681 -0.26418203 -0.55682737 0.054353025
2380 987 423 -0.98753673 0.036107577 -0.15319096 0.024434621
2388 993 379 -0.9090234 -0.13418086 -0.39455271 0.066522717
2372 947 461 -0.99537963 0.043484975 -0.085606821 0.016865632
2401 897 403 -0.58880782 -0.28581849 -0.75605106 0.053084679
2387 931 404 -0.85120404 -0.13948083 -0.50596124 0.038423318
2388 952 406 -0.90354687 -0.098851472 -0.41693091 0.039864745
2379 946 449 -0.9920575 0.054609142 -0.11331284 0.019450638
2398 837 440 -0.66007012 -0.25417227 -0.70689738 0.045732483
2391 854 441 -0.79322839 -0.1846903 -0.58023971 0.042155959
2410 981 367 -0.5817349 -0.23341197 -0.77916837 0.076153152
2389 973 409 -0.94372725 -0.079815395 -0.32094929 0.043955479
2384 969 452 -0.99171638 0.074299872 -0.10477675 0.025413506
2384 928 447 -0.98345715 -0.019972492 -0.18003681 0.028418884
2402 917 405 -0.72758627 -0.23389418 -0.64491218 0.054106981
2385 871 442 -0.86967409 -0.11734065 -0.47947711 0.04028938
2380 888 443 -0.91969651 -0.082013883 -0.38396895 0.038014874
2381 907 445 -0.9584977 -0.072538808 -0.27571765 0.035202086
2402 999 367 -0.70571572 -0.18857723 -0.6829378 0.077387907
2384 991 410 -0.97121966 -0.051850315 -0.23247349 0.044493161
2384 755 481 -0.69172502 -0.22638899 -0.68575835 0.047495022
2385 737 479 -0.58733493 -0.23123434 -0.77560836 0.069126658
2372 906 493 -0.99015111 0.065649442 -0.12365587 0.02173106
2390 995 372 -0.82330459 -0.14005534 -0.55004925 0.078554615
2378 772 481 -0.77199155 -0.18586926 -0.60785007 0.035405673
2387 991 417 -0.98518538 0.011033866 -0.17113706 0.029862056
2370 946 453 -0.99417275 0.049167432 -0.095933206 0.01837091
2392 914 412 -0.83566403 -0.1695327 -0.5224216 0.045215759
2370 789 482 -0.85602069 -0.11859938 -0.50315285 0.024408976
2370 885 491 -0.99196154 0.057886124 -0.1125238 0.017498188
2398 897 411 -0.73052126 -0.24163118 -0.63871199 0.05121455
2375 870 447 -0.90485543 -0.079278462 -0.41827196 0.034666996
2403 961 372 -0.6540153 -0.28318623 -0.70147669 0.06389527
2375 889 449 -0.94713753 -0.043712474 -0.31783602 0.032783769
2392 799 444 -0.5047729 -0.32821366 -0.79842359 0.061973404
2375 946 497 -0.99685961 0.075668782 -0.023350038 0.020812051
2378 851 446 -0.86966884 -0.14055794 -0.47320136 0.034182582
2373 809 484 -0.89967638 -0.074153103 -0.4302136 0.024255913
2386 971 415 -0.96507138 -0.031113956 -0.26013324 0.036980592
2376 969 456 -0.99170458 0.078513175 -0.10177257 0.023101971
2374 926 495 -0.99648875 0.047424715 -0.068999931 0.02188574
2395 978 372 -0.78727961 -0.19692191 -0.58430517 0.06523332
2375 909 451 -0.97895879 -0.031104453 -0.20167367 0.026494559
2385 835 446 -0.83447868 -0.17823264 -0.52141958 0.032378048
2392 818 445 -0.62355083 -0.29073444 -0.725712 0.058452271
2368 846 487 -0.97797698 -0.037374035 -0.20533952 0.019023972
2386 951 414 -0.92945147 -0.055854771 -0.36469191 0.037777781
2379 990 458 -0.99286973 0.067637153 -0.098157451 0.029745307
2372 927 452 -0.99067003 0.0085558882 -0.13601379 0.021045133
2375 829 486 -0.94187242 -0.068330325 -0.32894877 0.024005935
2372 966 499 -0.99546635 0.088463455 -0.034942415 0.026691444
2365 864 488 -0.99239802 0.018614901 -0.12165386 0.014774599
2384 931 412 -0.89736229 -0.10547296 -0.42850491 0.038311083
2382 905 459 -0.98276329 -0.0043660155 -0.18481685 0.023030184
2384 922 461 -0.99377984 0.0044437544 -0.11127416 0.018331973
2383 975 462 -0.99178177 0.076369397 -0.10264798 0.027624493
2376 868 457 -0.94693834 -0.047023311 -0.31795678 0.029027879
2389 822 457 -0.84428072 -0.21903937 -0.48909286 0.049453009
2380 938 461 -0.99510944 0.034136839 -0.092691973 0.018568339
2394 807 457 -0.7015425 -0.31371924 -0.63985807 0.067032695
2394 791 456 -0.54807395 -0.37029323 -0.74999857 0.062369838
2384 904 416 -0.8764534 -0.16343656 -0.45289946 0.038480669
2378 936 416 -0.92812252 -0.061639566 -0.36713642 0.033662736
2403 961 375 -0.69096422 -0.29008651 -0.66213167 0.066316575
2390 889 416 -0.81947255 -0.23118995 -0.52441967 0.049998246
2378 918 415 -0.89958811 -0.12885302 -0.41729864 0.039807871
2377 852 456 -0.92868608 -0.10981806 -0.3542344 0.029678844
2381 956 461 -0.9933309 0.062142216 -0.097118855 0.019837722
2395 874 417 -0.71782786 -0.26878136 -0.64224595 0.051319368
2380 954 417 -0.95339531 -0.016980028 -0.30124596 0.03310686
2378 835 456 -0.90335441 -0.14882149 -0.40224743 0.027110944
2379 887 458 -0.96602613 0.0050035799 -0.25839585 0.025107611
2391 991 374 -0.84110892 -0.16108796 -0.51632011 0.075981118
2388 993 419 -0.98663312 0.0036281035 -0.16291691 0.029147999
2384 993 463 -0.99386716 0.069485992 -0.086021505 0.033543169
2398 976 375 -0.82057863 -0.20540205 -0.53334862 0.066445895
2386 974 418 -0.97452348 -0.0087707508 -0.22411387 0.030116335
2399 949 390 -0.80649173 -0.21547359 -0.55058354 0.056109272
2393 964 390 -0.88880122 -0.15170169 -0.43245685 0.047255281
2394 999 390 -0.92416596 -0.12131787 -0.36221424 0.058262113
2405 935 391 -0.64705855 -0.30573931 -0.69845456 0.063720964
2392 981 390 -0.90546596 -0.15202914 -0.3962557 0.049917981
2393 987 397 -0.92216402 -0.13873328 -0.36106312 0.051644173
2407 952 395 -0.77815259 -0.25031373 -0.57603961 0.072433308
2392 966 394 -0.89521241 -0.14518726 -0.42132571 0.047862306
2413 934 394 -0.5143314 -0.3969394 -0.76019889 0.07620623
2411 997 355 -0.51222557 -0.192654 -0.83696431 0.081604585
2393 844 445 -0.77728975 -0.19893073 -0.59686452 0.040841918
2384 898 450 -0.95364034 -0.05219863 -0.29638737 0.035790686
2382 878 447 -0.90578073 -0.067686118 -0.41830593 0.036849424
2389 862 447 -0.85191882 -0.13277923 -0.50656098 0.041664548
2382 937 453 -0.99399316 0.022285061 -0.10714892 0.018687494
2399 827 444 -0.59718406 -0.28950575 -0.74803585 0.049437687
2385 918 452 -0.98209995 -0.032473497 -0.18554021 0.026762454
2396 904 408 -0.7273311 -0.22943047 -0.64680076 0.046922568
2382 939 410 -0.90493971 -0.08120966 -0.41771895 0.037350122
2389 922 409 -0.85204935 -0.1499963 -0.50151074 0.0386554
2383 958 456 -0.99324632 0.065054722 -0.096070893 0.022951741
2388 981 459 -0.99249738 0.060337264 -0.10634022 0.028869351
2404 989 372 -0.74252075 -0.18811207 -0.64286608 0.074876688
2384 981 414 -0.97225696 -0.020917717 -0.23297815 0.038041975
2413 972 371 -0.52410746 -0.27019233 -0.80765551 0.076064982
2384 960 412 -0.94106078 -0.049970016 -0.33452576 0.04028406
2384 996 392 -0.93922424 -0.082885571 -0.33314824 0.053780485
2409 956 376 -0.56981206 -0.33631307 -0.74980515 0.071723513
2412 978 378 -0.64152133 -0.26550215 -0.7196936 0.09125448
2400 994 378 -0.85433823 -0.16844839 -0.49166188 0.083879173
2387 807 450 -0.71650517 -0.29674584 -0.63131791 0.055795074
2397 885 416 -0.76575053 -0.25986695 -0.58829868 0.052485511
2375 840 451 -0.903817 -0.16493505 -0.3948561 0.0306955
2374 838 493 -0.9700256 -0.037228364 -0.24013415 0.022584181
2383 787 448 -0.6330564 -0.33304331 -0.69880021 0.048615105
2374 878 454 -0.95295024 -0.022152228 -0.30231637 0.024680052
2381 824 451 -0.86467564 -0.18533035 -0.46689263 0.037026517
2371 819 491 -0.93025458 -0.042487867 -0.36444661 0.02256963
2370 799 489 -0.88150084 -0.069629669 -0.46702042 0.0249939
2377 746 486 -0.65389705 -0.20603041 -0.72799045 0.050253004
2368 855 494 -0.99135005 0.0047299806 -0.13115872 0.016368633
2367 780 487 -0.84422261 -0.13050619 -0.51986182 0.023922293
2385 899 415 -0.85660654 -0.19400248 -0.47810909 0.039148368
2372 914 499 -0.99305856 0.063664131 -0.098901957 0.020221483
2399 867 415 -0.54632014 -0.34896728 -0.76141721 0.061993729
2371 895 498 -0.98676044 0.076621287 -0.14294434 0.017785439
2378 916 415 -0.89639556 -0.13453011 -0.42234659 0.040722452
2374 897 455 -0.97689497 -0.015429424 -0.21316241 0.024474166
2370 858 452 -0.93123239 -0.096159451 -0.35151058 0.030074203
2374 763 487 -0.75181878 -0.17277829 -0.63633025 0.040274575
2369 875 495 -0.99401325 0.039034914 -0.10204842 0.015422309
2378 918 457 -0.98997772 -0.010397696 -0.14084025 0.01928525
2372 935 458 -0.99508798 0.034093581 -0.092937857 0.017350262
2399 946 375 -0.6565119 -0.32851836 -0.67901975 0.061422091
2386 977 421 -0.97925425 0.015513355 -0.20204052 0.026559476
2377 954 418 -0.95804483 -0.0056175115 -0.28656325 0.032360859
2381 996 376 -0.89895719 -0.09879934 -0.4267489 0.070112705
2395 963 376 -0.81870198 -0.23551513 -0.52369803 0.054476373
2375 955 460 -0.99386835 0.063126281 -0.090778723 0.02059547
2377 935 417 -0.93133384 -0.059902802 -0.3592059 0.034544006
2377 995 463 -0.99486405 0.060220506 -0.081357867 0.03435535
2377 976 462 -0.99192476 0.079442315 -0.09886428 0.026891377
2392 981 377 -0.88210297 -0.16972987 -0.43941557 0.062965766
2378 993 421 -0.98878121 0.013185019 -0.14878747 0.026638435
2375 874 468 -0.97626555 0.0046712416 -0.21652646 0.023599954
2405 940 391 -0.65660101 -0.31358254 -0.68595999 0.06877806
2381 803 464 -0.81658804 -0.18527253 -0.54667914 0.044661269
2388 787 464 -0.67621368 -0.27225399 -0.68455297 0.05588093
2372 855 466 -0.95353699 -0.077996098 -0.29100484 0.026146656
2388 769 463 -0.60107923 -0.29022157 -0.74463087 0.049973104
2372 929 471 -0.99589926 0.034026697 -0.083826505 0.017578205
2373 836 465 -0.91928971 -0.14234628 -0.36693862 0.025519254
2382 896 428 -0.90124899 -0.1475839 -0.40739319 0.041095752
2391 862 427 -0.76004124 -0.22212535 -0.61073536 0.047450192
2369 890 468 -0.98380983 0.040525373 -0.17457344 0.019194597
2386 879 427 -0.8572731 -0.15515296 -0.49092811 0.039065931
2376 819 465 -0.89844304 -0.12439273 -0.42110169 0.030256916
2376 931 429 -0.96689576 -0.043916795 -0.25136405 0.03135892
2375 911 470 -0.99305254 0.02865503 -0.11412973 0.016484732
2406 922 391 -0.55868959 -0.34901533 -0.75236577 0.052001879
2400 847 428 -0.58310962 -0.31589127 -0.74846244 0.049463466
2381 914 428 -0.93405968 -0.11380995 -0.33849645 0.034729961
2378 950 473 -0.99564099 0.057000063 -0.073824391 0.022941729
2400 845 424 -0.53758156 -0.33577245 -0.77347451 0.048037246
2380 787 462 -0.74280518 -0.22952588 -0.6289342 0.044145133
2369 819 462 -0.89952135 -0.13731827 -0.41473496 0.027443605
2375 803 462 -0.8351962 -0.16156362 -0.52568471 0.03851385
2371 855 465 -0.95251483 -0.079538725 -0.29392028 0.027187634
2387 772 463 -0.63123989 -0.28287908 -0.7221604 0.048163604
2397 862 424 -0.65490144 -0.28333715 -0.70058841 0.053312346
2370 837 463 -0.91977215 -0.14007401 -0.36660388 0.028460611
2382 983 427 -0.98695529 0.049198046 -0.15329339 0.025132798
2378 948 471 -0.99598581 0.056053702 -0.069787033 0.020639099
2402 919 385 -0.57147658 -0.34726435 -0.74352002 0.045233898
2378 909 424 -0.92179871 -0.13762951 -0.36241591 0.034733694
2382 965 426 -0.97731483 0.04715303 -0.20647565 0.025813323
2380 946 425 -0.96208048 -0.0074131996 -0.27266496 0.033313826
2399 936 385 -0.71476483 -0.26859191 -0.64573187 0.053493928
2381 986 473 -0.99494368 0.080544278 -0.059997313 0.037467327
2378 927 424 -0.94165999 -0.080447726 -0.32680982 0.03675111
2380 967 472 -0.99556714 0.07520324 -0.056484908 0.025338328
2382 893 423 -0.88521099 -0.16779304 -0.43387461 0.03920345
2372 928 468 -0.99562818 0.03249028 -0.087572835 0.016919585
2392 969 385 -0.88193089 -0.16458002 -0.44171396 0.05048817
2371 891 466 -0.98432028 0.037947141 -0.17226002 0.020426877
2398 953 385 -0.80188829 -0.23193285 -0.55061996 0.056887548
2387 877 424 -0.82248801 -0.18182197 -0.53893799 0.041085545
2374 874 466 -0.97430593 0.0015306249 -0.22522366 0.023911564
2373 910 468 -0.99284917 0.031183468 -0.11523047 0.015965663
2386 984 384 -0.90555084 -0.15285024 -0.39574534 0.051116563
2402 879 424 -0.66427743 -0.30154905 -0.68396175 0.076829478
2394 892 423 -0.84589583 -0.20574938 -0.49206454 0.048269093
2386 938 423 -0.94286078 -0.043443769 -0.33034247 0.037131686
2387 921 423 -0.91185313 -0.11454418 -0.39421257 0.041024491
2391 907 423 -0.89081371 -0.15561806 -0.4268887 0.038949128
2398 959 381 -0.81085932 -0.24634181 -0.5308699 0.059107702
2404 944 382 -0.64778596 -0.35138622 -0.67594463 0.070162639
2396 975 381 -0.87944442 -0.19283453 -0.43519223 0.055835258
2383 954 423 -0.96324837 0.0095513072 -0.26844239 0.032800984
2385 972 423 -0.97878069 0.039555237 -0.20105657 0.025303414
2386 990 424 -0.98758203 0.036786363 -0.15273665 0.026041145
2394 992 381 -0.89436692 -0.15164721 -0.42084551 0.068968475
2392 814 453 -0.73537779 -0.30103889 -0.60712034 0.062546663
2376 859 452 -0.92310798 -0.10106298 -0.37102273 0.03147465
2393 897 413 -0.80078304 -0.22165871 -0.55642968 0.051017579
2393 881 412 -0.73460579 -0.26006302 -0.62667501 0.045202654
2382 929 456 -0.99244553 0.020619841 -0.12094125 0.02127303
2379 877 454 -0.94334531 -0.039191592 -0.32948998 0.027978219
2383 912 456 -0.985241 -0.021706654 -0.16979094 0.02318432
2387 897 456 -0.96725273 -0.029875154 -0.25205085 0.031143276
2386 829 453 -0.87410289 -0.17413938 -0.45345283 0.036723919
2388 912 413 -0.86894166 -0.16312607 -0.46725824 0.039469514
2381 844 452 -0.89393854 -0.1614892 -0.41808498 0.033984918
2384 981 414 -0.97225696 -0.020917717 -0.23297815 0.038041975
2376 943 412 -0.92762196 -0.049962353 -0.37016371 0.033312976
2396 1000 371 -0.78291005 -0.17196684 -0.5978958 0.084486134
2396 983 370 -0.76914477 -0.20368621 -0.60574615 0.067833394
2379 961 412 -0.95097542 -0.028858619 -0.30791697 0.037811715
2382 982 458 -0.99177659 0.074092045 -0.10435282 0.028959187
2402 968 371 -0.66830796 -0.26844648 -0.69375855 0.064530514
2378 926 411 -0.89469379 -0.11438926 -0.43178481 0.038651355
2378 945 456 -0.99429733 0.043609116 -0.097319573 0.01805112
2386 999 415 -0.98463637 0.0031798938 -0.17458847 0.035313778
2379 963 457 -0.99300587 0.06764929 -0.09676262 0.022847181
2411 989 369 -0.59362632 -0.20839176 -0.77729064 0.080001161
2402 947 382 -0.72230655 -0.29676786 -0.62466156 0.061768871
2384 917 421 -0.91256261 -0.12437007 -0.38956597 0.039408602
2388 982 383 -0.90088469 -0.15615329 -0.40499744 0.053186424
2396 965 383 -0.84927613 -0.19819216 -0.48933619 0.053706527
2386 938 423 -0.94286078 -0.043443769 -0.33034247 0.037131686
2402 887 420 -0.71005374 -0.29106414 -0.64117497 0.079740018
2387 959 425 -0.96765125 0.024332428 -0.25111562 0.033054233
2395 903 421 -0.85757142 -0.19078594 -0.47767338 0.048990421
2392 982 428 -0.98567784 0.028746959 -0.16617098 0.028008716
2386 987 397 -0.93633258 -0.10631016 -0.33463314 0.048080195
2387 791 466 -0.72842234 -0.23338005 -0.64415431 0.0536636
2380 944 437 -0.98408341 0.01274942 -0.17724952 0.025167732
2394 833 428 -0.61142099 -0.27983454 -0.74017364 0.039803419
2394 949 394 -0.83951151 -0.17335196 -0.5149461 0.051242962
2408 979 355 -0.53879035 -0.21615182 -0.81423783 0.062262524
2380 923 435 -0.96473026 -0.059734873 -0.25637332 0.032830618
2378 984 441 -0.99024314 0.082416229 -0.1123659 0.030784585
2377 903 432 -0.92993504 -0.1201079 -0.34755552 0.039231881
2386 967 440 -0.98816848 0.071392134 -0.13574311 0.024379579
2385 966 394 -0.90043586 -0.13024679 -0.41503128 0.047128431
2369 841 468 -0.94414717 -0.10821249 -0.31124923 0.02718595
2376 825 468 -0.91018265 -0.12227222 -0.39574856 0.027626527
2407 999 357 -0.60739905 -0.19505127 -0.77007884 0.078013614
2400 931 393 -0.71637094 -0.26039514 -0.64730757 0.05542082
2404 913 392 -0.57818556 -0.32611564 -0.74789715 0.047502153
2380 922 479 -0.99423611 0.034696762 -0.10144296 0.019952282
2378 807 466 -0.8452633 -0.15755583 -0.51059377 0.041829016
2395 852 430 -0.70214891 -0.24752262 -0.66762227 0.04623783
2379 902 476 -0.99095142 0.04150781 -0.12764168 0.017185725
2389 869 431 -0.82575792 -0.16349892 -0.5398072 0.042220522
2377 941 480 -0.99658936 0.042499039 -0.070735998 0.017653242
2377 883 430 -0.88334 -0.13432857 -0.4490726 0.039097857
2379 758 477 -0.73371255 -0.23339917 -0.63811493 0.045312352
2367 790 477 -0.86116475 -0.12080739 -0.49376187 0.022852501
2377 863 438 -0.85950327 -0.12967187 -0.49440813 0.037123948
2374 774 477 -0.79339546 -0.17124456 -0.5841223 0.030369692
2372 845 481 -0.96410948 -0.076005712 -0.25439343 0.022972835
2369 862 482 -0.98442966 -0.0032612055 -0.17574908 0.018889019
2382 847 439 -0.80034292 -0.18666883 -0.56974202 0.033891298
2364 807 478 -0.89969027 -0.083127543 -0.42854065 0.025469966
2370 827 480 -0.92947298 -0.099864803 -0.35511547 0.027180839
2389 813 438 -0.55736423 -0.30593073 -0.77184951 0.051299758
2388 831 439 -0.75154918 -0.20770372 -0.62612528 0.031497464
2379 991 445 -0.99189132 0.073322818 -0.10380434 0.030366411
2376 881 439 -0.9035635 -0.093878932 -0.41804272 0.039230023
2378 973 401 -0.9429872 -0.071292475 -0.3251037 0.043912962
2379 958 489 -0.99609745 0.08190009 -0.032896869 0.022300914
2378 973 444 -0.99086201 0.087105349 -0.10298121 0.026284287
2391 906 400 -0.7296353 -0.22902763 -0.64434361 0.043044571
2383 993 402 -0.95854235 -0.061893724 -0.27814677 0.046438713
2380 937 443 -0.98743838 0.0070010535 -0.15784958 0.024458058
2385 939 401 -0.86905277 -0.12523095 -0.47860682 0.040670969
2378 918 442 -0.97056478 -0.054270379 -0.23464575 0.031633232
