# .PCD v0.7 - Point Cloud Data file format
VERSION 0.7
FIELDS x y z normal_x normal_y normal_z curvature
SIZE 4 4 4 4 4 4 4
TYPE F F F F F F F
COUNT 1 1 1 1 1 1 1
WIDTH 567
HEIGHT 1
VIEWPOINT 0 0 0 1 0 0 0
POINTS 567
DATA ascii
2645 -665 -367 -0.96680456 -0.20025451 -0.15870444 0.077307984
2672 -564 -323 -0.95153111 0.28840601 0.10682007 0.12897834
2649 -617 -365 -0.98263007 0.1555286 -0.10123698 0.10860889
2649 -634 -366 -0.994605 -0.0013496353 -0.10372584 0.099297404
2678 -517 -323 -0.57292348 -0.081227936 0.81557387 0.14110139
2667 -531 -322 -0.79805601 0.17917944 0.57532716 0.12096964
2662 -578 -323 -0.95510864 0.19591382 0.22222815 0.12972659
2656 -603 -366 -0.96599084 0.23759581 -0.1020291 0.12112436
2652 -544 -320 -0.88010556 0.18436696 0.43751928 0.11373609
2683 -593 -369 -0.51784319 0.36314353 -0.77457416 0.20718285
2648 -682 -368 -0.93455178 -0.2629002 -0.23978423 0.11206956
2641 -648 -365 -0.98934466 -0.077610612 -0.12318165 0.078438379
2655 -640 -378 -0.946343 -0.022854105 -0.32235464 0.11720884
2664 -562 -377 -0.96073407 0.21680975 0.17315775 0.19902492
2652 -591 -377 -0.96024299 0.26191705 -0.096606575 0.15025318
2668 -550 -330 -0.94589132 0.315357 0.076417744 0.10761803
2670 -535 -330 -0.9073413 0.23609048 0.34784058 0.14958782
2650 -623 -377 -0.96547073 0.10769808 -0.23720731 0.11710268
2685 -522 -332 -0.67202866 -0.047489412 0.73900086 0.16281693
2654 -608 -377 -0.91463989 0.23808672 -0.32672396 0.13352606
2659 -577 -377 -0.96909952 0.2201042 -0.11135645 0.19614753
2651 -656 -378 -0.96230137 -0.14229228 -0.23179519 0.10354989
2663 -675 -381 -0.89669573 -0.28515589 -0.33855987 0.15643257
2673 -531 -345 -0.94735527 0.28313178 0.14951362 0.1473231
2661 -546 -344 -0.91316509 0.16366646 0.37328649 0.15906997
2651 -594 -344 -0.96998829 0.23702775 0.054225445 0.098122507
2659 -562 -344 -0.96393639 0.23413943 0.12651275 0.11502704
2647 -576 -343 -0.96742272 0.23628137 0.090909258 0.10609872
2657 -657 -391 -0.92714882 -0.15041749 -0.34317577 0.12970254
2660 -675 -392 -0.89081317 -0.28721726 -0.35207683 0.14352219
2646 -609 -344 -0.98001546 0.18046968 0.08366856 0.099890985
2662 -562 -363 -0.96971565 0.23401438 0.069919743 0.15423766
2653 -678 -369 -0.93549144 -0.25240228 -0.24728292 0.098151766
2650 -657 -367 -0.97372514 -0.13856053 -0.18072154 0.096777521
2644 -636 -365 -0.99717075 -0.02114103 -0.072135933 0.081448466
2646 -597 -363 -0.97683698 0.21223727 -0.027294127 0.10319094
2635 -614 -363 -0.99310231 0.11689715 -0.009098311 0.077303588
2656 -580 -363 -0.96565753 0.25766644 -0.03336782 0.133021
2685 -517 -327 -0.50713688 -0.14541045 0.84951043 0.15937917
2643 -597 -384 -0.96281666 0.21177505 -0.1677358 0.13535926
2642 -616 -385 -0.9644686 0.10613131 -0.24194303 0.10070615
2651 -591 -389 -0.97604454 0.17914812 -0.12346269 0.18899427
2675 -534 -341 -0.93998432 0.30252358 0.15782547 0.15370201
2683 -519 -341 -0.81491041 0.021851646 0.57917476 0.17124519
2661 -548 -340 -0.94818598 0.27076119 0.16622791 0.13503467
2663 -566 -342 -0.96383631 0.26450086 0.032541156 0.11680665
2655 -644 -394 -0.92810112 -0.054496903 -0.36831829 0.14023294
2652 -661 -395 -0.94411445 -0.22336072 -0.24240008 0.12457552
2651 -626 -392 -0.94828147 0.064056829 -0.31090039 0.11722431
2662 -681 -398 -0.87013286 -0.38456824 -0.30818203 0.14991584
2645 -607 -390 -0.94667834 0.21391477 -0.24091616 0.11516483
2673 -539 -346 -0.94093007 0.33789054 0.021924341 0.13936837
2658 -573 -345 -0.96559268 0.25987068 0.0098956693 0.10298803
2662 -556 -345 -0.95777041 0.26253268 0.117271 0.12092064
2675 -521 -345 -0.93937647 0.25436366 0.22993694 0.16232488
2668 -686 -397 -0.78251511 -0.49302959 -0.38025245 0.19938548
2646 -608 -345 -0.97858417 0.19657598 0.061082359 0.098868683
2654 -591 -345 -0.96496272 0.26220021 -0.0098956199 0.099327981
2659 -665 -395 -0.90731567 -0.23357378 -0.34960189 0.14417756
2661 -646 -394 -0.91813999 -0.064520538 -0.39096814 0.15502186
2643 -649 -390 -0.97575891 -0.1187193 -0.18384849 0.11468731
2657 -595 -389 -0.91375512 0.28828138 -0.28626114 0.16957842
2649 -670 -392 -0.94880158 -0.23451191 -0.21161218 0.13816543
2648 -612 -389 -0.93602669 0.17067657 -0.30777195 0.11631301
2645 -649 -396 -0.97770911 -0.13250837 -0.16286933 0.1016219
2668 -542 -347 -0.94912249 0.25166684 0.1892889 0.14908019
2656 -578 -347 -0.97092342 0.2253637 0.080739707 0.10269479
2661 -560 -347 -0.96458143 0.24836312 0.088872373 0.12126389
2656 -671 -399 -0.91921026 -0.27830377 -0.2785669 0.11336564
2676 -524 -346 -0.94555074 0.25958034 0.19634612 0.16162848
2656 -587 -378 -0.95151335 0.25233591 -0.1759232 0.17115319
2657 -568 -377 -0.94463301 0.10325611 0.31145898 0.19219632
2653 -625 -380 -0.93826503 0.12056813 -0.3242254 0.12708025
2650 -605 -378 -0.94851941 0.24213094 -0.20416537 0.10719433
2684 -692 -388 -0.59492278 -0.69611233 -0.40186378 0.17536169
2666 -668 -384 -0.87688762 -0.21378122 -0.43054116 0.16990291
2657 -646 -382 -0.92580533 -0.04577484 -0.37521893 0.13347746
2674 -533 -355 -0.95578724 0.26824373 0.12048271 0.16352731
2651 -630 -355 -0.99887466 0.035212569 0.031770825 0.1119701
2663 -565 -355 -0.96549541 0.26042008 1.7575016e-05 0.12848671
2659 -581 -354 -0.96180791 0.27267852 -0.023916252 0.13583459
2648 -663 -356 -0.98139292 -0.16699409 -0.094767831 0.086123914
2649 -646 -355 -0.99576473 -0.075722769 -0.052140865 0.089440301
2670 -686 -359 -0.77039856 -0.63066608 -0.093521699 0.20731717
2652 -613 -355 -0.98474568 0.17388596 0.0062959818 0.1093466
2652 -596 -354 -0.96696705 0.25091034 -0.044929598 0.10609289
2668 -549 -355 -0.95597827 0.27895984 0.09103284 0.15088949
2650 -627 -375 -0.96753198 0.082394123 -0.23894155 0.11444942
2676 -559 -329 -0.94753611 0.31128812 0.072629832 0.13271257
2646 -611 -374 -0.96401656 0.19411105 -0.18163958 0.1112197
2662 -677 -378 -0.89305657 -0.31685498 -0.31945732 0.14212029
2682 -530 -329 -0.91406107 0.34020713 0.22079727 0.14917038
2646 -596 -374 -0.96639973 0.23124236 -0.11224333 0.12133118
2659 -660 -377 -0.93375516 -0.17601147 -0.3116428 0.12898283
2668 -542 -328 -0.93893343 0.29487896 0.17734236 0.12369248
2655 -644 -376 -0.94822514 -0.04840887 -0.31388801 0.12017751
2675 -696 -381 -0.61757886 -0.69291711 -0.37210515 0.16566835
2677 -529 -354 -0.95495951 0.27687505 0.10673553 0.15092926
2652 -614 -357 -0.9847098 0.17145248 -0.03083257 0.10871552
2660 -580 -355 -0.96346551 0.26737344 -0.015672918 0.14230557
2652 -596 -355 -0.96732432 0.24971701 -0.043875087 0.10563156
2664 -563 -354 -0.95647371 0.28711814 -0.052165158 0.13181379
2670 -546 -354 -0.95463181 0.26998508 0.12564312 0.15735203
2674 -534 -325 -0.90962476 0.28766698 0.29971728 0.14033787
2651 -668 -370 -0.94286668 -0.25265744 -0.21717876 0.09114667
2651 -587 -367 -0.96594024 0.25215119 -0.058130704 0.13318042
2648 -603 -367 -0.97002691 0.22138104 -0.10019115 0.10454027
2667 -688 -372 -0.81866288 -0.49468443 -0.29168198 0.15452132
2653 -572 -367 -0.96390224 0.1811924 0.19509421 0.14137891
2646 -618 -367 -0.9798947 0.14921308 -0.13244577 0.10716826
2660 -557 -367 -0.96659398 0.1602249 0.20006013 0.16930582
2650 -652 -369 -0.97708583 -0.10232438 -0.186636 0.097719297
2645 -634 -368 -0.99157786 0.0025084128 -0.12948786 0.089093275
2651 -635 -381 -0.95576984 -0.0076880013 -0.2940152 0.11041464
2657 -676 -384 -0.92036229 -0.27032658 -0.28258938 0.12438127
2647 -654 -381 -0.96762604 -0.14128178 -0.20913939 0.095139109
2681 -532 -317 -0.7136243 0.14499801 0.68535835 0.13069688
2673 -528 -321 -0.76285774 0.12330529 0.63469988 0.14174893
2675 -574 -371 -0.76974982 0.3640537 -0.52435678 0.19180878
2668 -535 -367 -0.92891073 0.098616518 0.35693073 0.20689881
2670 -545 -322 -0.93145567 0.32923433 0.15490319 0.1069525
2655 -684 -376 -0.91410255 -0.35529861 -0.19539531 0.11439531
2639 -604 -369 -0.96704143 0.2386869 -0.088653438 0.09597984
2643 -661 -373 -0.97448736 -0.16771193 -0.14915471 0.097360872
2649 -587 -369 -0.96757454 0.24646185 -0.055282086 0.13461301
2642 -642 -372 -0.98509419 -0.065276712 -0.15914933 0.076779217
2642 -623 -370 -0.99119848 0.062318634 -0.1167988 0.098831289
2691 -534 -357 -0.83988893 0.47532794 -0.26201132 0.16839752
2652 -679 -356 -0.92677301 -0.24275658 -0.28663763 0.11753748
2652 -633 -355 -0.99998629 0.0046297717 0.0024294881 0.11055553
2655 -649 -356 -0.99291223 -0.084858015 -0.083213031 0.12197363
2665 -559 -354 -0.9547866 0.29728213 0.0024227509 0.13732922
2662 -574 -354 -0.96735334 0.25343093 0.00052466517 0.12733611
2650 -587 -353 -0.96809757 0.24544439 0.050441109 0.10284306
2653 -602 -354 -0.97691107 0.21362752 0.0028415511 0.10601211
2653 -664 -356 -0.97496444 -0.1614777 -0.15287025 0.098294139
2649 -617 -354 -0.98961979 0.14350852 -0.0076110517 0.10492498
2660 -696 -358 -0.85387516 -0.46602932 -0.23176259 0.1592757
2682 -563 -322 -0.71760112 0.02529755 0.69599473 0.1715382
2675 -605 -366 -0.92245698 0.29728198 -0.24636662 0.21205537
2669 -544 -320 -0.91989332 0.32737797 0.21591666 0.1029034
2650 -648 -364 -0.98412567 -0.10322556 -0.14436492 0.096633106
2679 -530 -321 -0.81813973 0.22823727 0.52778327 0.13902013
2670 -685 -368 -0.78856671 -0.57473952 -0.21871696 0.18032293
2665 -619 -365 -0.97390962 0.16322097 -0.15766744 0.14146066
2661 -666 -366 -0.92614549 -0.21276723 -0.31142357 0.13144937
2671 -535 -323 -0.89674741 0.24904579 0.36581448 0.13548261
2653 -583 -324 -0.96936578 0.21262112 0.12297263 0.088616602
2662 -550 -323 -0.9373374 0.32372853 0.12883529 0.091896713
2651 -599 -325 -0.95751315 0.20720518 0.20058578 0.10817935
2655 -566 -323 -0.95695275 0.29024085 0.0012767626 0.073037066
2680 -595 -366 -0.67040277 0.35767871 -0.65009689 0.22498946
2660 -610 -364 -0.96369576 0.22350724 -0.14606504 0.14198783
2658 -649 -367 -0.97101337 -0.063905075 -0.230324 0.12434623
2680 -674 -371 -0.7906459 -0.56449449 -0.23711827 0.23077765
2695 -539 -364 -0.51871037 0.56421304 -0.64234203 0.19724184
2659 -581 -352 -0.96442461 0.2641421 -0.010678506 0.13422485
2655 -678 -358 -0.93794894 -0.26509443 -0.223555 0.1048143
2645 -636 -354 -0.9996863 0.00056124653 0.025040556 0.087846838
2654 -658 -357 -0.98373467 -0.13620217 -0.11711186 0.1069221
2654 -599 -353 -0.96906918 0.24445866 -0.033835683 0.11846973
2644 -616 -353 -0.98960215 0.13937205 0.035539314 0.094948873
2659 -561 -351 -0.97020853 0.21726379 0.10720024 0.12355656
2661 -523 -349 -0.81369174 0.0010307875 0.58129573 0.17786245
2683 -560 -360 -0.78181541 0.38477725 -0.49062312 0.17056659
2675 -530 -311 -0.69882643 0.16759776 0.6953795 0.11397365
2663 -574 -358 -0.96154702 0.26673326 -0.06542775 0.1349794
2655 -590 -357 -0.96868086 0.24816893 -0.0083391834 0.12351562
2649 -606 -357 -0.98045194 0.1967425 0.002518896 0.10491414
2638 -621 -356 -0.9964233 0.082144223 0.019822707 0.075773671
2650 -677 -360 -0.93841726 -0.21790607 -0.26812333 0.10802616
2646 -658 -359 -0.98385489 -0.1408039 -0.11047088 0.08525876
2644 -640 -358 -0.998694 -0.028796345 -0.042202499 0.084506273
2659 -566 -352 -0.96799672 0.24566852 0.051276211 0.11377799
2685 -555 -354 -0.79684693 0.41221562 -0.44171616 0.16802546
2660 -583 -352 -0.96628726 0.25648123 0.022501552 0.1362941
2652 -599 -352 -0.97387159 0.22706796 0.0037773789 0.11282873
2654 -700 -355 -0.82499588 -0.42905709 -0.36782032 0.1681864
2649 -615 -352 -0.98598784 0.16553999 0.020605188 0.10563694
2646 -631 -352 -0.99879247 0.014436935 0.046959192 0.087583996
2651 -683 -354 -0.92778784 -0.23927771 -0.28627944 0.12562156
2653 -649 -353 -0.99597842 -0.082488246 -0.034965377 0.11578284
2656 -667 -354 -0.96459562 -0.19842303 -0.17373453 0.11008833
2655 -671 -363 -0.94400835 -0.23818752 -0.22828671 0.10890737
2667 -576 -359 -0.94626689 0.3016504 -0.1165593 0.14215061
2651 -631 -360 -0.9982909 0.022250744 -0.054038391 0.10928094
2649 -650 -361 -0.98562425 -0.099198639 -0.136764 0.091095619
2683 -560 -360 -0.78181541 0.38477725 -0.49062312 0.17056659
2655 -592 -358 -0.9708004 0.23924288 -0.017591331 0.12491159
2645 -610 -358 -0.98460263 0.17475894 0.0041131913 0.10416466
2661 -552 -323 -0.94530177 0.28860116 0.15203276 0.08698412
2661 -591 -325 -0.92148769 0.16270608 0.35268566 0.14173298
2659 -572 -324 -0.96398807 0.25519991 0.074832574 0.10885562
2669 -535 -323 -0.88625675 0.22352733 0.40569016 0.13734846
2664 -645 -375 -0.91774386 -0.034860298 -0.39563996 0.15442495
2663 -665 -376 -0.91171145 -0.22469966 -0.34393626 0.14158152
2685 -690 -381 -0.5429368 -0.7858609 -0.29604432 0.18871777
2684 -518 -311 -0.5003373 -0.025278237 0.86546147 0.11548687
2658 -696 -360 -0.84791261 -0.44291541 -0.29132488 0.16544449
2654 -582 -355 -0.96649355 0.2524229 0.046614956 0.11372257
2673 -534 -310 -0.73097515 0.19541226 0.65382671 0.10731123
2642 -635 -355 -0.99992806 -0.0025794166 0.011710972 0.07925266
2646 -655 -356 -0.98776931 -0.12137121 -0.097881444 0.08525791
2656 -564 -354 -0.9687295 0.20095848 0.14552964 0.12818566
2648 -600 -355 -0.97395831 0.22663525 -0.0064556501 0.10275012
2666 -529 -354 -0.93645018 0.17954522 0.3013711 0.17350052
2640 -616 -354 -0.99149543 0.11287668 0.06477356 0.084269837
2653 -675 -358 -0.94794035 -0.25114369 -0.19579551 0.09522257
2667 -675 -364 -0.87797439 -0.42802078 -0.21438061 0.20917058
2658 -585 -356 -0.96044552 0.27701244 -0.028432539 0.13356815
2665 -552 -355 -0.96030819 0.25480095 0.11351044 0.15344492
2655 -654 -361 -0.98485541 -0.10420597 -0.13856712 0.1074611
2657 -568 -355 -0.96860772 0.2269377 0.10148042 0.1157501
2694 -541 -357 -0.59478396 0.58712929 -0.54910046 0.17736518
2654 -619 -358 -0.99108171 0.13143668 -0.021943333 0.11489867
2655 -602 -357 -0.97247756 0.23013957 -0.036374453 0.12079579
2656 -637 -360 -0.99729514 -0.01908024 -0.070981361 0.12296951
2668 -537 -329 -0.9150753 0.24386658 0.3211951 0.13534865
2680 -522 -330 -0.61733025 -0.091799304 0.78132981 0.1587303
2654 -552 -328 -0.9613536 0.22451413 0.15935077 0.11073679
2644 -602 -329 -0.95630693 0.20802686 0.20543115 0.10055886
2655 -623 -331 -0.96478838 0.080598697 0.25037414 0.12342808
2654 -587 -330 -0.96502948 0.22737043 0.1304637 0.10991526
2655 -569 -329 -0.95980096 0.28035417 -0.013554166 0.083509326
2645 -609 -353 -0.98406214 0.17696908 0.017426064 0.10032571
2661 -562 -353 -0.97119713 0.21778585 0.096671775 0.12742466
2652 -678 -356 -0.9297263 -0.22189015 -0.29389414 0.11561955
2666 -699 -358 -0.70311975 -0.69562113 -0.14742407 0.18136552
2684 -550 -356 -0.79199159 0.41370636 -0.44899493 0.15474845
2650 -593 -353 -0.97031724 0.24015912 0.0284272 0.10802441
2643 -642 -354 -0.99909562 -0.040559731 -0.012763669 0.080929853
2654 -577 -353 -0.96588254 0.23897989 0.09979777 0.11277723
2661 -528 -352 -0.83584368 0.012384343 0.54882777 0.18531223
2646 -626 -354 -0.99747896 0.067044906 0.023254387 0.099945426
2649 -661 -355 -0.98606646 -0.14608875 -0.07956741 0.087087266
2677 -526 -324 -0.70325667 0.037507318 0.70994592 0.14528434
2657 -555 -322 -0.95200849 0.27311108 0.1381669 0.087143473
2663 -590 -324 -0.91878957 0.12547818 0.37427381 0.15081462
2657 -572 -323 -0.96382231 0.26529109 0.025830202 0.091014847
2653 -605 -323 -0.93952978 0.169183 0.29775983 0.12140018
2666 -540 -323 -0.89867651 0.2353269 0.37013766 0.126436
2667 -546 -342 -0.94492698 0.31195506 0.098979637 0.13465178
2676 -529 -342 -0.92068899 0.23122241 0.31443292 0.1670313
2678 -511 -341 -0.72350395 -0.065421484 0.68721324 0.1727902
2653 -599 -344 -0.97419238 0.21045895 0.081585743 0.11589967
2642 -615 -344 -0.98659134 0.12083872 0.10970645 0.089832738
2662 -582 -344 -0.96070391 0.27730203 -0.012313752 0.13014454
2664 -564 -343 -0.96057338 0.27665496 0.027581008 0.11417896
2676 -522 -328 -0.62776595 -0.07845521 0.77443826 0.15366825
2656 -690 -378 -0.88210022 -0.43037859 -0.19150308 0.12159722
2665 -591 -329 -0.9223786 0.15691975 0.35297877 0.16388044
2654 -571 -327 -0.96294165 0.26969656 -0.0026520116 0.085933365
2663 -601 -375 -0.90446639 0.28746557 -0.31512552 0.137408
2641 -650 -374 -0.97787869 -0.11138425 -0.17705029 0.070037656
2644 -669 -376 -0.95577419 -0.22398777 -0.19059183 0.10213406
2660 -554 -327 -0.95387864 0.28410256 0.096960209 0.097091302
2666 -538 -327 -0.91828018 0.2611019 0.29763618 0.13698041
2657 -636 -376 -0.95850235 -0.0037868784 -0.28505921 0.11846396
2670 -674 -389 -0.81211519 -0.30308291 -0.49860767 0.18039596
2654 -612 -384 -0.91578573 0.19963926 -0.34854072 0.12535541
2658 -652 -386 -0.91302913 -0.12509298 -0.38823906 0.14121681
2652 -631 -384 -0.95002228 0.02219891 -0.3113918 0.11283549
2679 -696 -391 -0.57948858 -0.78253621 -0.22766222 0.18000269
2676 -575 -346 -0.86196136 0.34629843 -0.37027016 0.16770816
2672 -509 -341 -0.70908952 -0.039458927 0.70401353 0.16601144
2684 -560 -346 -0.81484187 0.38846433 -0.43026537 0.18617328
2657 -647 -349 -0.99771136 -0.063420765 0.023448337 0.13603063
2650 -589 -345 -0.96489584 0.25953442 0.040224511 0.097218193
2644 -606 -345 -0.97930449 0.18948859 0.071110785 0.09551283
2663 -555 -346 -0.9596653 0.26022607 0.10641847 0.1239754
2655 -571 -345 -0.96795344 0.24327159 0.062330447 0.10267606
2666 -518 -345 -0.81919175 -0.032973643 0.57257098 0.1732832
2657 -666 -350 -0.98057806 -0.18301424 -0.070515327 0.11544838
2671 -537 -346 -0.94878656 0.30352807 0.087606102 0.14912383
2658 -599 -329 -0.93491942 0.16725226 0.31297335 0.14164004
2660 -629 -330 -0.90144277 0.0061659045 0.43285421 0.13985354
2650 -612 -329 -0.95336258 0.11563511 0.27879769 0.12470832
2660 -575 -344 -0.96697873 0.25339523 0.027258532 0.11142098
2655 -591 -345 -0.96857649 0.24858697 -0.0080127632 0.10733534
2652 -677 -351 -0.93285698 -0.21025506 -0.29252476 0.12154607
2649 -607 -345 -0.98128384 0.18602049 0.0497844 0.10558499
2649 -641 -348 -0.99829417 -0.023033315 0.053648748 0.098119542
2648 -624 -346 -0.98761296 0.061152883 0.14450262 0.099245444
2684 -529 -344 -0.90179425 0.43157682 -0.022549994 0.14764756
2672 -543 -343 -0.93656391 0.35037041 -0.0094118388 0.13057016
2662 -558 -343 -0.95804292 0.2713773 0.092239365 0.12111463
2642 -657 -348 -0.98787993 -0.12244102 -0.095400997 0.086624674
2647 -611 -347 -0.98355305 0.17674568 0.037206959 0.10191436
2656 -595 -348 -0.97047168 0.24103364 -0.009352427 0.11770185
2643 -629 -347 -0.99734491 0.039309304 0.061302107 0.088255055
2661 -577 -347 -0.96581399 0.25695494 0.034315798 0.12589969
2648 -668 -350 -0.96761817 -0.17613901 -0.1808041 0.090522252
2685 -545 -349 -0.86606646 0.44188854 -0.23380196 0.1426017
2647 -649 -349 -0.99611157 -0.076016903 -0.044533178 0.091902696
2668 -560 -348 -0.94699454 0.31845149 -0.042307973 0.13082656
2652 -688 -351 -0.89705545 -0.27493057 -0.34598386 0.14365348
2688 -530 -324 -0.54319805 -0.091579296 0.83459514 0.16364142
2670 -543 -322 -0.9283042 0.33302104 0.16537328 0.1140434
2687 -562 -324 -0.60322976 -0.050461978 0.79596943 0.18141609
2651 -646 -366 -0.98048466 -0.083633892 -0.17791903 0.099341363
2660 -632 -367 -0.97689348 0.037959363 -0.21032877 0.1264105
2660 -664 -368 -0.94443315 -0.19414018 -0.26524618 0.11864583
2655 -679 -368 -0.93059611 -0.28344095 -0.23162934 0.10276657
2675 -701 -371 -0.57065099 -0.8009178 -0.18135059 0.15358911
2661 -600 -366 -0.95111746 0.28393441 -0.12147801 0.13600773
2660 -615 -366 -0.96880555 0.18308388 -0.1670213 0.12977923
2667 -558 -362 -0.95086622 0.30713668 -0.038993306 0.16656512
2665 -575 -363 -0.95274597 0.28359446 -0.10885446 0.14605875
2679 -535 -318 -0.80243367 0.23480935 0.54860252 0.12865415
2659 -660 -368 -0.95075792 -0.14957158 -0.27145448 0.11970896
2654 -642 -366 -0.98310369 -0.048468828 -0.17651592 0.11054859
2656 -590 -362 -0.9603647 0.26841506 -0.075185522 0.11928888
2656 -607 -364 -0.97072721 0.2203059 -0.095676549 0.12000187
2664 -679 -370 -0.88261759 -0.35186902 -0.31172797 0.14221802
2665 -697 -372 -0.78301734 -0.55714744 -0.27653307 0.13586199
2650 -623 -364 -0.98767477 0.11909105 -0.10156687 0.11225495
2671 -695 -395 -0.66036481 -0.70003659 -0.27178508 0.15257458
2654 -671 -392 -0.93824804 -0.25844327 -0.22999512 0.11902203
2653 -652 -390 -0.95343864 -0.14458187 -0.264671 0.10790867
2688 -561 -326 -0.56153369 -0.082012765 0.82337946 0.18278569
2671 -543 -323 -0.93050641 0.34629777 0.11931314 0.11259254
2678 -530 -324 -0.87811989 0.27404657 0.3921783 0.14622264
2662 -539 -323 -0.89010286 0.21932569 0.39951614 0.12297349
2683 -560 -327 -0.75569147 0.044323042 0.65342623 0.1786665
2679 -526 -324 -0.67790747 0.014439636 0.73500538 0.15204895
2661 -632 -377 -0.92437673 0.043785051 -0.37895975 0.12647279
2649 -680 -379 -0.94251871 -0.28040218 -0.18175018 0.14151992
2653 -664 -378 -0.94226718 -0.20783244 -0.26256093 0.10628248
2664 -700 -382 -0.72132909 -0.64351064 -0.25608295 0.14311934
2645 -645 -376 -0.97428775 -0.081704423 -0.20997056 0.086511105
2659 -599 -374 -0.91198957 0.29421613 -0.28585303 0.1250921
2667 -589 -354 -0.94993293 0.30416399 -0.071496345 0.14507195
2654 -624 -354 -0.99421781 0.094387241 0.051203925 0.11520075
2685 -537 -354 -0.86964256 0.45538947 -0.19063617 0.14732966
2660 -683 -357 -0.90646917 -0.35424727 -0.22983156 0.13274038
2654 -662 -356 -0.98102939 -0.13383472 -0.14024842 0.10756963
2665 -551 -352 -0.95290339 0.29671228 0.062745497 0.13997065
2666 -570 -353 -0.9597013 0.27970842 -0.027137857 0.13137734
2653 -643 -355 -0.9985624 -0.044386603 0.030049106 0.10842124
2661 -607 -354 -0.9806782 0.19532672 -0.01085321 0.13802864
2659 -567 -333 -0.96007043 0.27570522 0.047448948 0.09396024
2661 -585 -334 -0.97075146 0.22602439 0.080960944 0.13439082
2667 -550 -333 -0.94621193 0.31539139 0.072188675 0.10894404
2675 -533 -334 -0.91507554 0.26110688 0.30734333 0.15539667
2644 -618 -333 -0.97461832 0.11564553 0.19169055 0.11084083
2643 -655 -334 -0.99286407 -0.045500159 -0.11023009 0.099473499
2643 -637 -333 -0.98922902 -0.020026261 0.14499992 0.10132941
2649 -675 -335 -0.98007113 -0.14251727 -0.13838172 0.14046516
2658 -696 -337 -0.67373532 -0.70469439 -0.22245559 0.19922437
2653 -602 -333 -0.97059268 0.1907445 0.14685482 0.12064271
2673 -527 -317 -0.65524131 0.043246314 0.75418067 0.12708177
2663 -542 -317 -0.87082404 0.23024465 0.43434182 0.11326954
2659 -673 -365 -0.94082439 -0.24416381 -0.23501787 0.11573087
2657 -604 -362 -0.97130823 0.2253359 -0.076053113 0.11847552
2657 -655 -364 -0.97455275 -0.10957143 -0.19555315 0.11425999
2662 -690 -366 -0.87243068 -0.42372671 -0.2435578 0.12971015
2656 -638 -363 -0.98568034 -0.0066446993 -0.1684939 0.12218275
2653 -620 -362 -0.98428982 0.13698931 -0.11138897 0.11139312
2667 -541 -315 -0.89007759 0.27302834 0.3649897 0.10383939
2685 -530 -317 -0.56963575 0.008362622 0.82185471 0.14757712
2669 -550 -326 -0.94252592 0.31841499 0.10127629 0.1102467
2659 -579 -326 -0.97090107 0.22118725 0.091800049 0.1127281
2680 -537 -328 -0.91244203 0.34873018 0.21409522 0.13971837
2656 -593 -326 -0.93371689 0.1865706 0.30555558 0.12526123
2689 -523 -328 -0.53043807 -0.12153462 0.83896649 0.16301472
2661 -564 -326 -0.95788527 0.26209673 0.11730762 0.10091863
2655 -608 -326 -0.9403584 0.14757739 0.30650765 0.13425545
2685 -531 -333 -0.89351493 0.44901976 -0.0034981023 0.15034372
2666 -566 -333 -0.9621017 0.26746044 0.053153913 0.10694101
2666 -586 -335 -0.96964389 0.2259233 0.093539298 0.15028609
2668 -700 -388 -0.66849619 -0.70276004 -0.24339493 0.14565767
2657 -603 -335 -0.95588911 0.17597641 0.2351775 0.13331161
2690 -685 -390 -0.50077045 -0.65852529 -0.56175923 0.19212615
2666 -547 -332 -0.94406873 0.30537286 0.12442499 0.11746532
2673 -533 -366 -0.96229535 0.21410967 0.1677639 0.20374383
2668 -568 -366 -0.94112617 0.30285084 -0.15020925 0.17321257
2677 -552 -367 -0.85295534 0.38902068 -0.34803733 0.19955604
2686 -522 -342 -0.80415475 0.037059624 0.59326357 0.17295824
2649 -592 -383 -0.97673911 0.19431837 -0.090670601 0.15238234
2660 -550 -340 -0.95450729 0.25006589 0.16242802 0.13586554
2678 -537 -342 -0.91130674 0.40208724 -0.088577777 0.13348639
2661 -567 -341 -0.96295524 0.26759234 0.033339985 0.10651474
2649 -643 -385 -0.97004396 -0.087320961 -0.22669305 0.093822062
2645 -608 -384 -0.94659793 0.23097315 -0.22495277 0.1105416
2659 -679 -388 -0.91057682 -0.29425332 -0.29028407 0.13787429
2646 -626 -384 -0.95710278 0.051222641 -0.28518507 0.10000511
2653 -661 -386 -0.94629204 -0.20079899 -0.25339895 0.11630148
2668 -555 -358 -0.94908953 0.31127167 -0.048362181 0.15557674
2662 -610 -360 -0.97797143 0.20860207 -0.0075615449 0.15442419
2660 -591 -359 -0.96268135 0.26802987 -0.037476961 0.13700277
2673 -538 -358 -0.94406295 0.30849952 0.11650399 0.16436212
2666 -573 -359 -0.95656967 0.27898085 -0.084523425 0.14597809
2665 -570 -347 -0.96263516 0.27059156 -0.010664055 0.13259535
2676 -534 -346 -0.93084085 0.36479741 -0.021403655 0.13840464
2659 -588 -348 -0.95732331 0.28402922 -0.053474382 0.12529203
2669 -552 -347 -0.94196165 0.33530617 -0.01667599 0.12723875
2653 -606 -348 -0.98307145 0.16231577 0.084995158 0.11384831
2672 -553 -347 -0.93298417 0.34244126 -0.1107909 0.12423687
2662 -519 -345 -0.77164954 -0.049156222 0.63414562 0.17446469
2665 -568 -346 -0.96388668 0.2659708 0.013494353 0.13223779
2688 -541 -348 -0.83208925 0.47890443 -0.27978212 0.15236709
2659 -599 -346 -0.96642208 0.2520532 0.049975526 0.14284107
2663 -584 -347 -0.95149493 0.30192581 -0.05914576 0.14204217
2657 -614 -347 -0.98309159 0.16463496 0.08016412 0.12133219
2659 -585 -375 -0.94224262 0.2772986 -0.18784118 0.17147183
2683 -530 -331 -0.91559583 0.31939495 0.24427678 0.14807986
2674 -562 -332 -0.95536786 0.29537138 -0.0053076586 0.14867376
2669 -544 -330 -0.93998802 0.33211294 0.078252859 0.12026805
2653 -675 -381 -0.94064164 -0.2644293 -0.21276864 0.12004729
2651 -638 -378 -0.95671177 -0.024643999 -0.2899918 0.10178735
2652 -602 -376 -0.93943173 0.27368703 -0.2063093 0.11761715
2642 -617 -376 -0.97441196 0.12417411 -0.18735547 0.097851008
2673 -698 -386 -0.60111088 -0.76564616 -0.22902317 0.16045244
2654 -657 -380 -0.94640422 -0.16660008 -0.27670103 0.11527716
2671 -575 -365 -0.89956075 0.34564701 -0.26705542 0.16252835
2672 -556 -363 -0.94032496 0.33304191 -0.069800407 0.1729791
2661 -611 -366 -0.95929468 0.21534021 -0.18270813 0.13718882
2673 -674 -371 -0.85567796 -0.46784168 -0.22122245 0.22313018
2662 -651 -368 -0.96667475 -0.071394607 -0.24585119 0.14384075
2663 -632 -367 -0.96899366 0.063135728 -0.23888303 0.14200336
2664 -593 -365 -0.94242769 0.29458305 -0.15827455 0.14220577
2677 -560 -355 -0.8608011 0.38024715 -0.33828038 0.15385114
2647 -707 -355 -0.73347592 -0.43476492 -0.52248698 0.20710543
2678 -576 -355 -0.83888596 0.37531069 -0.39422357 0.17439082
2666 -665 -356 -0.96601045 -0.25708002 -0.027085479 0.19501279
2673 -590 -355 -0.95524991 0.29562774 -0.010094463 0.18577512
2675 -683 -358 -0.71572113 -0.6599859 -0.22838977 0.2264069
2654 -580 -361 -0.96742773 0.25214249 -0.022532335 0.12577184
2651 -618 -364 -0.98426074 0.14573762 -0.099957049 0.10740706
2658 -679 -369 -0.91555947 -0.32421872 -0.23797697 0.11662678
2679 -533 -316 -0.71865571 0.14458723 0.68016803 0.13628635
2656 -659 -367 -0.96773404 -0.13995516 -0.20953122 0.10822497
2655 -639 -365 -0.98239857 -0.0090581616 -0.18657726 0.11881766
2658 -561 -360 -0.97399479 0.18340614 0.13302746 0.14185725
2652 -599 -362 -0.96469343 0.25261778 -0.074503556 0.11431896
2667 -610 -363 -0.96907777 0.22823767 -0.093785837 0.16669686
2682 -594 -364 -0.65962309 0.3858642 -0.64498544 0.24875905
2661 -648 -365 -0.97729403 -0.043081854 -0.20746152 0.13879496
2688 -674 -369 -0.63003868 -0.76161778 -0.15162358 0.25156572
2676 -537 -306 -0.6505602 0.193644 0.73435241 0.099585831
2671 -569 -352 -0.9402293 0.31668255 -0.12522361 0.165547
2658 -603 -351 -0.97627473 0.21540394 0.022107974 0.13267365
2654 -640 -352 -0.99964327 -0.023552787 0.012596383 0.11638278
2671 -588 -352 -0.95056683 0.29826146 -0.086387604 0.17564453
2650 -620 -351 -0.99019158 0.11484488 0.079569504 0.11579815
2663 -661 -354 -0.9797852 -0.19838743 0.025753485 0.17289913
2679 -529 -339 -0.93238348 0.2952835 0.20849143 0.15422519
2661 -563 -338 -0.96241426 0.26756352 0.046567779 0.1029129
2656 -599 -339 -0.9737016 0.20858847 0.091629855 0.12224624
2660 -581 -339 -0.96803576 0.25024769 0.016819246 0.12200611
2670 -546 -339 -0.93539339 0.3534562 -0.010388937 0.12147097
2659 -675 -342 -0.95271158 -0.29557222 -0.07055337 0.1794073
2641 -614 -338 -0.98771256 0.14309639 0.062828057 0.092864901
2663 -674 -397 -0.85581422 -0.32397667 -0.40326312 0.15815002
2650 -632 -393 -0.93489861 0.016076947 -0.35455057 0.11898506
2655 -653 -394 -0.94234955 -0.16369572 -0.29185775 0.12163661
2688 -532 -334 -0.84768742 0.17495452 0.50081629 0.16683307
2674 -545 -332 -0.93405682 0.35590556 0.029480286 0.12504362
2657 -621 -333 -0.9642784 0.095965818 0.24689612 0.13555408
2663 -558 -331 -0.95314181 0.30005303 0.03858608 0.092801556
2655 -605 -332 -0.96580911 0.19510306 0.17072636 0.12790452
2659 -590 -332 -0.9575994 0.23657581 0.164424 0.13362333
2663 -574 -332 -0.96312439 0.26904851 0.0020832778 0.11899836
2656 -677 -359 -0.93999654 -0.26545289 -0.21433915 0.1001162
2649 -643 -357 -0.99802321 -0.043545969 -0.045315508 0.090210065
2642 -609 -355 -0.98242271 0.18588454 0.017104579 0.099365696
2677 -699 -362 -0.53898454 -0.83799314 -0.085224055 0.18429227
2651 -660 -357 -0.9835332 -0.1331232 -0.12223217 0.09441141
2656 -597 -356 -0.96335489 0.26110053 -0.061430991 0.11860368
2685 -571 -359 -0.661439 0.37468383 -0.64970028 0.17818348
2672 -542 -313 -0.85825062 0.28006953 0.43007782 0.10820305
2684 -528 -314 -0.62370914 0.046107184 0.78029549 0.13399057
2650 -627 -356 -0.99716938 0.063193679 0.040741134 0.11011911
2673 -584 -358 -0.89162093 0.39202765 -0.22655348 0.17543711
2641 -613 -359 -0.98739278 0.15802799 0.0090853991 0.096036963
2654 -597 -359 -0.96393442 0.25498256 -0.076250985 0.11205076
2668 -563 -358 -0.93340874 0.33115581 -0.13814479 0.1445813
2646 -633 -361 -0.99855512 0.00074835797 -0.053732354 0.093025357
2678 -538 -311 -0.75938851 0.23633492 0.60619718 0.11193682
2658 -579 -358 -0.96808398 0.25038052 -0.011092161 0.13897565
2654 -673 -365 -0.93888283 -0.25046095 -0.23615311 0.10719367
2652 -653 -363 -0.98272014 -0.092722185 -0.16019902 0.10304838
2684 -520 -319 -0.51621485 -0.057473645 0.85452861 0.13909017
2668 -536 -318 -0.78761756 0.16437709 0.59383386 0.12281183
2662 -574 -320 -0.96891576 0.2215329 0.11011586 0.11673976
2662 -593 -321 -0.85733724 0.11552621 0.50162381 0.14615273
2665 -555 -319 -0.94129241 0.29564789 0.16297543 0.093587965
2671 -695 -364 -0.7248013 -0.67174077 -0.15306059 0.18393935
2663 -579 -357 -0.94516748 0.31125212 -0.098896861 0.13463771
2645 -650 -358 -0.99041903 -0.088954672 -0.10562834 0.091030732
2641 -612 -356 -0.98722589 0.15674308 0.028575815 0.09858381
2650 -671 -360 -0.95703202 -0.2335802 -0.17184284 0.087573953
2652 -595 -357 -0.96914977 0.24359755 -0.03753699 0.1104304
2639 -630 -357 -0.99989551 0.014385875 -0.0013976167 0.077141814
2686 -565 -360 -0.64899141 0.34626105 -0.67743152 0.18652718
2663 -649 -366 -0.97512841 -0.0443542 -0.21715738 0.14134572
2679 -526 -318 -0.63074172 0.0094637768 0.77593511 0.14105435
2661 -541 -317 -0.84570247 0.18841133 0.49928796 0.11933512
2675 -671 -369 -0.83839303 -0.50178683 -0.21285459 0.22041161
2658 -577 -318 -0.96161294 0.16879326 0.21635465 0.097514659
2668 -560 -318 -0.94778764 0.26582399 0.17617092 0.11110633
2667 -597 -320 -0.6771062 -0.041473001 0.7347157 0.17905413
2671 -575 -358 -0.93145442 0.33014303 -0.15296528 0.17410654
2655 -590 -357 -0.96868086 0.24816893 -0.0083391834 0.12351562
2644 -640 -357 -0.99917203 -0.030052833 -0.02742558 0.082861468
2653 -607 -357 -0.97968596 0.19719633 -0.036456428 0.10974266
2643 -622 -356 -0.99545318 0.086997353 0.038787298 0.091196038
2679 -531 -311 -0.65429336 0.13387759 0.74429625 0.11275328
2648 -659 -358 -0.98288625 -0.14273769 -0.11645022 0.091338657
2656 -678 -360 -0.93912375 -0.27693412 -0.20335734 0.10488517
2661 -662 -391 -0.89024413 -0.16588904 -0.42420051 0.15839025
2663 -584 -345 -0.95931625 0.2817995 -0.017361727 0.13732351
2663 -680 -392 -0.82861584 -0.37098813 -0.41924158 0.16496281
2665 -567 -345 -0.96001697 0.27664557 -0.042834017 0.12988408
2671 -551 -345 -0.9336772 0.3565397 -0.033561524 0.12351421
2677 -536 -345 -0.93470931 0.3554084 -0.0018594599 0.14049079
2656 -599 -345 -0.97095388 0.21885562 0.096698985 0.12601912
2654 -615 -345 -0.98136038 0.16384849 0.10042617 0.12206525
2666 -543 -311 -0.87321371 0.30405933 0.38084871 0.1055959
2680 -530 -313 -0.68052304 0.12566532 0.72187024 0.12781329
2681 -589 -361 -0.72011143 0.47742471 -0.50349301 0.21994491
2655 -599 -358 -0.96321696 0.25973776 -0.068916366 0.11622719
2650 -643 -359 -0.99645483 -0.05152614 -0.066503458 0.095140226
2654 -660 -360 -0.97882068 -0.13703384 -0.15209109 0.10328402
2660 -676 -361 -0.91844589 -0.27924478 -0.28014177 0.11800726
2654 -629 -359 -0.99549979 0.071625061 -0.062048629 0.12443261
2649 -612 -358 -0.98275709 0.18430667 -0.014816526 0.10912228
2675 -696 -364 -0.60128063 -0.78917593 -0.12515174 0.20550635
2666 -545 -326 -0.93832761 0.26653859 0.22022355 0.11796818
2679 -528 -327 -0.81863147 0.15675358 0.55251318 0.15329801
2663 -564 -327 -0.95929646 0.26026976 0.1095903 0.1037436
2662 -622 -331 -0.87542659 0.041808184 0.48153973 0.15522386
2661 -583 -328 -0.97429353 0.20854414 0.085214727 0.13391958
2655 -601 -329 -0.95624596 0.18764216 0.22446407 0.12515369
2681 -523 -328 -0.5918225 -0.098624445 0.80001205 0.1557816
2646 -654 -333 -0.99692094 -0.070107654 -0.035122357 0.080634683
2644 -617 -330 -0.97079033 0.11335052 0.2114657 0.10178628
2648 -636 -332 -0.98720151 -0.0043551112 0.15941881 0.10143839
2659 -569 -328 -0.95873106 0.2830109 0.027195916 0.10289419
2674 -538 -328 -0.92760003 0.35802823 0.10664898 0.12739775
2660 -694 -337 -0.7150113 -0.68366456 -0.14615627 0.1921676
2666 -554 -328 -0.94545573 0.30150259 0.1233275 0.10269249
2648 -601 -329 -0.95431685 0.2128946 0.209655 0.10836717
2652 -674 -335 -0.98088306 -0.17206326 -0.090899415 0.11423738
2655 -585 -329 -0.97158283 0.22029053 0.086596332 0.10464029
2644 -645 -332 -0.99631923 -0.051716063 0.068362795 0.090189651
2657 -592 -331 -0.95420802 0.21643478 0.20650195 0.12737963
2673 -540 -331 -0.93193412 0.35276893 0.083981171 0.12049557
2650 -610 -331 -0.96872997 0.15006827 0.19758992 0.11542629
2688 -524 -332 -0.63914526 -0.066378586 0.76621616 0.17261806
2646 -627 -331 -0.97284168 0.029086554 0.22963677 0.10816462
2667 -557 -331 -0.94940972 0.30770537 0.062757365 0.11303121
2661 -575 -331 -0.96639156 0.25655231 0.016380092 0.11883853
2649 -665 -333 -0.99286133 -0.10560962 -0.05543505 0.092376567
2656 -686 -335 -0.93804914 -0.33955997 -0.069013588 0.14261679
2671 -541 -327 -0.93131483 0.35533407 0.079939775 0.12189771
2667 -556 -327 -0.94634283 0.28584778 0.15075262 0.10437342
2660 -586 -329 -0.9730432 0.2089138 0.097682901 0.13465738
2652 -599 -329 -0.96348149 0.20052272 0.17746547 0.11331739
2684 -528 -327 -0.80723381 0.15650682 0.5691039 0.15630084
2658 -570 -327 -0.95946103 0.27891737 0.040492795 0.098540321
2647 -630 -330 -0.97370392 0.0025095176 0.22780333 0.1042443
2649 -614 -329 -0.95259583 0.11467627 0.28179878 0.12162262
2651 -678 -334 -0.97133845 -0.17228237 -0.1637693 0.15494934
2652 -694 -336 -0.84220111 -0.45415276 -0.29058996 0.21184584
2650 -662 -333 -0.99239194 -0.1220768 -0.015981201 0.10682024
2645 -645 -331 -0.99538535 -0.048903484 0.082562245 0.089651778
