# .PCD v0.7 - Point Cloud Data file format
VERSION 0.7
FIELDS x y z normal_x normal_y normal_z curvature
SIZE 4 4 4 4 4 4 4
TYPE F F F F F F F
COUNT 1 1 1 1 1 1 1
WIDTH 439
HEIGHT 1
VIEWPOINT 0 0 0 1 0 0 0
POINTS 439
DATA ascii
2530 -734 -131 -0.83205932 -0.3981342 -0.38622078 0.068164326
2528 -765 -90 -0.8184644 -0.55102301 0.16275637 0.088304654
2530 -761 -131 -0.83849722 -0.42135251 -0.34552053 0.066832386
2525 -738 -90 -0.83831489 -0.53584802 0.10047369 0.11768393
2523 -719 -131 -0.80414593 -0.4534018 -0.38441655 0.080208436
2556 -725 -177 -0.60245049 -0.54163241 -0.58624882 0.040983122
2523 -750 -90 -0.82878971 -0.55332482 0.083301827 0.091360115
2534 -748 -131 -0.83782464 -0.40927637 -0.361307 0.066097543
2539 -732 -149 -0.79845107 -0.38569802 -0.46229094 0.074792288
2524 -733 -104 -0.85965616 -0.49822298 -0.11298295 0.12379551
2507 -715 -103 -0.63003969 -0.77025747 -0.098759249 0.12507106
2531 -716 -148 -0.80245185 -0.45016554 -0.39169118 0.082543351
2543 -747 -149 -0.78226191 -0.40844721 -0.47035858 0.074954301
2540 -740 -62 -0.72267014 -0.37047654 0.58351952 0.13823062
2536 -764 -104 -0.83580959 -0.54896486 -0.0077467649 0.095988669
2556 -758 -62 -0.75080138 -0.40602672 0.52099866 0.11458053
2534 -750 -104 -0.85540503 -0.5157187 -0.048128832 0.096755289
2558 -719 -182 -0.56237394 -0.59336466 -0.57589412 0.035558056
2540 -722 -147 -0.80380428 -0.41172588 -0.42939541 0.080354355
2562 -759 -149 -0.66094583 -0.49610761 -0.56305218 0.082933694
2562 -743 -149 -0.68397927 -0.49776012 -0.53329837 0.098533086
2535 -743 -60 -0.73345381 -0.49834821 0.46227115 0.15579319
2540 -758 -60 -0.72749859 -0.57481128 0.37461686 0.091015555
2572 -746 -173 -0.51996821 -0.57096207 -0.63532311 0.062089216
2561 -759 -129 -0.74256396 -0.52103895 -0.42085299 0.10269329
2556 -772 -129 -0.74135119 -0.54947382 -0.3853271 0.076166764
2550 -741 -128 -0.82918596 -0.4317314 -0.35504729 0.082707457
2529 -748 -100 -0.85950387 -0.5111267 0.0016081134 0.091804974
2546 -780 -100 -0.73209018 -0.678155 0.064418718 0.094489582
2534 -763 -100 -0.83163941 -0.5550856 0.015996208 0.095479436
2552 -764 -56 -0.7040689 -0.57327926 0.41909164 0.084976062
2546 -727 -161 -0.72306418 -0.4584454 -0.5167262 0.085712701
2576 -778 -76 -0.50045085 -0.78809094 0.35841548 0.070381373
2566 -760 -75 -0.69113851 -0.63494706 0.34520966 0.12475844
2523 -728 -116 -0.80685574 -0.50852317 -0.30064595 0.10421429
2546 -750 -118 -0.83721066 -0.47880238 -0.26424724 0.092287697
2558 -746 -163 -0.64816022 -0.49445978 -0.57913536 0.073015131
2550 -767 -119 -0.81192303 -0.52411807 -0.25706285 0.098349221
2549 -778 -99 -0.73348522 -0.67489624 0.080712847 0.089741878
2534 -760 -99 -0.84667194 -0.53123879 0.030528964 0.096111096
2536 -747 -99 -0.87383229 -0.48561022 0.024490559 0.11242683
2563 -764 -55 -0.62669295 -0.59336412 0.50514847 0.11387879
2578 -741 -169 -0.51057196 -0.59844714 -0.61739552 0.06915573
2533 -749 -93 -0.86239952 -0.50166196 0.067840703 0.099403694
2533 -762 -93 -0.83102047 -0.54883629 0.090463236 0.091597073
2515 -730 -92 -0.78680998 -0.61671245 0.024406875 0.12125365
2527 -736 -77 -0.83022547 -0.48491606 0.27492195 0.12166361
2537 -752 -77 -0.81243318 -0.53149647 0.23971629 0.1030525
2535 -766 -77 -0.78368139 -0.57319868 0.2393467 0.079787925
2547 -766 -63 -0.70030689 -0.62039763 0.35309631 0.083475843
2547 -752 -63 -0.79046023 -0.39103949 0.47144535 0.1247814
2563 -755 -146 -0.67463446 -0.49634597 -0.54635978 0.093265332
2539 -719 -145 -0.80385208 -0.42549255 -0.41566566 0.081652269
2563 -740 -146 -0.67471987 -0.51056117 -0.53299195 0.11782709
2551 -758 -67 -0.76739323 -0.52600235 0.36664563 0.09949474
2521 -732 -110 -0.82426792 -0.52798361 -0.20448872 0.10828358
2507 -714 -109 -0.6263991 -0.72212356 -0.29353312 0.11273928
2545 -743 -67 -0.81297684 -0.28646058 0.50696045 0.14368889
2530 -748 -110 -0.86883748 -0.46790937 -0.16180971 0.095105022
2534 -763 -111 -0.83875495 -0.52878666 -0.12990318 0.092090786
2539 -732 -76 -0.84386307 -0.32606599 0.42611754 0.15745024
2563 -753 -77 -0.86068624 -0.18706641 0.47352442 0.14862227
2540 -712 -163 -0.7233786 -0.54185843 -0.42791682 0.076432556
2547 -743 -121 -0.85036862 -0.44456348 -0.28148991 0.099697813
2543 -728 -121 -0.8651852 -0.40039942 -0.30188569 0.10953363
2562 -745 -164 -0.61559904 -0.51647651 -0.59522247 0.071700849
2557 -730 -164 -0.66912115 -0.49964014 -0.55012417 0.081060953
2549 -756 -121 -0.82648438 -0.47697347 -0.29903141 0.092733063
2544 -727 -132 -0.84482312 -0.38223523 -0.37439299 0.088048227
2549 -756 -132 -0.79666626 -0.46562153 -0.38538212 0.077280991
2563 -774 -133 -0.65629822 -0.61910623 -0.43125421 0.077427097
2548 -742 -132 -0.81334329 -0.43574542 -0.3854849 0.079594843
2545 -737 -80 -0.8936978 -0.2093057 0.39685678 0.15283294
2524 -714 -123 -0.77503037 -0.52444702 -0.35253826 0.086267099
2531 -729 -123 -0.84327042 -0.43299013 -0.3184565 0.085832052
2547 -765 -80 -0.78070545 -0.58396834 0.22244073 0.088131644
2551 -752 -80 -0.86851454 -0.41464639 0.27157116 0.13058209
2532 -743 -124 -0.85140312 -0.4164837 -0.31883246 0.076988868
2528 -755 -124 -0.84628469 -0.44129434 -0.29843178 0.074796841
2543 -756 -92 -0.82387561 -0.55682576 0.10570823 0.10698047
2536 -740 -92 -0.88906294 -0.44471568 0.10860537 0.12705365
2556 -758 -126 -0.80612755 -0.4777559 -0.34915289 0.097242676
2558 -727 -170 -0.62538445 -0.5434404 -0.55997038 0.080931738
2558 -744 -126 -0.80542076 -0.46361262 -0.36927056 0.10595179
2540 -762 -139 -0.78535557 -0.45363712 -0.42122439 0.069668606
2545 -754 -94 -0.83510768 -0.54365677 0.083859392 0.10940342
2540 -734 -137 -0.82749641 -0.38004506 -0.41329822 0.066724956
2538 -747 -138 -0.82244688 -0.39782393 -0.40659219 0.06746003
2543 -739 -93 -0.92186791 -0.35037267 0.16552535 0.15123652
2527 -716 -136 -0.80878514 -0.43059656 -0.40056598 0.075073086
2544 -767 -94 -0.77644002 -0.62208009 0.10078342 0.090936132
2555 -760 -57 -0.71435308 -0.50042313 0.48915875 0.10178268
2535 -758 -100 -0.85969871 -0.51043117 0.019446483 0.094990686
2539 -746 -100 -0.8821196 -0.47051761 0.021867024 0.11699561
2550 -744 -57 -0.75472099 -0.23302858 0.61326492 0.13242318
2511 -724 -99 -0.78590167 -0.61702651 -0.040457539 0.12950656
2533 -748 -110 -0.85458219 -0.49194387 -0.16637437 0.095984936
2550 -743 -67 -0.80690581 -0.24848238 0.5358727 0.14929156
2532 -734 -110 -0.89461267 -0.41719905 -0.16004083 0.11941506
2532 -761 -111 -0.85136378 -0.50416601 -0.14490138 0.091890454
2543 -755 -67 -0.77688026 -0.54055005 0.32289743 0.093441047
2548 -712 -167 -0.68315047 -0.53584325 -0.49616283 0.067600347
2538 -744 -127 -0.83529311 -0.43612856 -0.33477944 0.073831044
2539 -759 -128 -0.81287903 -0.46872818 -0.34571892 0.075116418
2526 -712 -125 -0.75765067 -0.53927439 -0.36762556 0.086435169
2537 -729 -126 -0.84420294 -0.41620669 -0.33777726 0.085124843
2544 -735 -84 -0.92021334 -0.2044642 0.33376908 0.1558712
2541 -749 -85 -0.87542951 -0.45304367 0.16844742 0.11879805
2542 -749 -74 -0.8327356 -0.45729747 0.31213853 0.11930401
2539 -734 -74 -0.8430742 -0.33281413 0.4224461 0.14939375
2540 -762 -74 -0.76133388 -0.60128015 0.24255493 0.089245103
2558 -714 -188 -0.53217751 -0.63282531 -0.56242257 0.028696382
2551 -745 -144 -0.75650442 -0.44807321 -0.4763732 0.079906523
2550 -730 -143 -0.79533643 -0.39852357 -0.45674807 0.093080275
2534 -760 -103 -0.84823108 -0.52948976 -0.012026701 0.10005393
2535 -746 -102 -0.8823415 -0.47060934 0.00042148979 0.11353555
2530 -710 -142 -0.77383286 -0.53219461 -0.34344092 0.077278249
2564 -759 -61 -0.69565773 -0.4568156 0.55441856 0.13308518
2530 -731 -102 -0.89610118 -0.44055203 -0.054005928 0.13573281
2553 -741 -60 -0.75221258 -0.16958237 0.63672441 0.13148661
2546 -747 -56 -0.74041247 -0.34109154 0.57917696 0.13223946
2534 -742 -113 -0.86002028 -0.46126804 -0.21816699 0.096308917
2535 -728 -113 -0.90253264 -0.39344651 -0.17502782 0.13000223
2549 -714 -157 -0.6901446 -0.58007365 -0.43268344 0.088767983
2541 -725 -157 -0.77626842 -0.4139075 -0.47548702 0.091541886
2555 -744 -159 -0.70106894 -0.46806902 -0.53797191 0.079099096
2540 -736 -72 -0.82651854 -0.32308358 0.46096 0.15058164
2544 -751 -73 -0.82798684 -0.46694317 0.3104865 0.11839784
2539 -758 -114 -0.8376143 -0.50618023 -0.20538703 0.09612368
2533 -743 -119 -0.85221392 -0.44872868 -0.26902416 0.081626385
2523 -727 -118 -0.79889405 -0.51005584 -0.31876546 0.099348783
2547 -751 -75 -0.85529339 -0.40734857 0.32021931 0.11097262
2529 -755 -119 -0.84852725 -0.45659792 -0.26743191 0.079243079
2548 -775 -120 -0.77625144 -0.57576138 -0.25677356 0.089839995
2543 -763 -75 -0.76393175 -0.59678119 0.24548015 0.084638372
2560 -759 -153 -0.67816341 -0.48515508 -0.55201352 0.077881947
2547 -758 -110 -0.82820344 -0.54574168 -0.12745607 0.10510091
2564 -768 -66 -0.6298058 -0.68084788 0.37388617 0.081055544
2548 -743 -153 -0.75376219 -0.42411417 -0.50196594 0.076150432
2532 -740 -109 -0.88608015 -0.43790078 -0.15200301 0.10311281
2548 -771 -110 -0.78020227 -0.62270033 -0.059402138 0.094153345
2533 -740 -77 -0.86186057 -0.42193305 0.28136966 0.11423352
2538 -763 -119 -0.84111601 -0.47076452 -0.26627934 0.088779122
2541 -724 -118 -0.87858593 -0.39812273 -0.26378983 0.13072884
2539 -755 -78 -0.79214847 -0.56902534 0.22070567 0.09791857
2559 -739 -164 -0.6486026 -0.49835539 -0.57528824 0.072640263
2546 -752 -119 -0.84113908 -0.46901378 -0.26927906 0.093237519
2532 -735 -118 -0.85705709 -0.43363714 -0.27823028 0.088027492
2542 -769 -78 -0.7379263 -0.62579781 0.25266963 0.077602513
2534 -719 -162 -0.75699812 -0.46409494 -0.45996705 0.070490688
2544 -769 -88 -0.75841218 -0.63399231 0.15121068 0.08997687
2532 -761 -131 -0.83330625 -0.42789984 -0.35000339 0.065532997
2545 -755 -87 -0.82565051 -0.54685497 0.13874705 0.10805739
2536 -749 -131 -0.83112216 -0.42472726 -0.35894659 0.070326969
2528 -732 -130 -0.8303805 -0.40451306 -0.38319367 0.070484847
2545 -742 -135 -0.81277215 -0.41517019 -0.40869936 0.078278311
2541 -727 -134 -0.84064555 -0.37684542 -0.38897625 0.083016962
2548 -757 -135 -0.78981256 -0.45290482 -0.41361016 0.068147302
2554 -755 -48 -0.75522268 -0.36926419 0.54155582 0.12541983
2543 -748 -90 -0.88966364 -0.43550175 0.13724743 0.12286007
2547 -764 -91 -0.77667779 -0.62014699 0.11040498 0.093507446
2546 -771 -136 -0.75308824 -0.50199205 -0.42527878 0.074403018
2541 -745 -89 -0.88813013 -0.4388276 0.13658427 0.121832
2573 -729 -173 -0.51664305 -0.59671348 -0.61401379 0.053982034
2532 -723 -129 -0.82078046 -0.43164271 -0.37417108 0.078174129
2540 -740 -131 -0.8324551 -0.42101419 -0.36022979 0.069449596
2554 -773 -133 -0.72121102 -0.55947322 -0.40846583 0.074765764
2539 -754 -131 -0.81889242 -0.44698697 -0.36002481 0.071268454
2540 -758 -89 -0.80932713 -0.57558584 0.11700672 0.094997302
2530 -749 -96 -0.8565383 -0.51541203 0.026317816 0.097768001
2531 -763 -95 -0.83761728 -0.53864616 0.090871669 0.08871416
2558 -753 -52 -0.73951787 -0.29647127 0.6043328 0.11453176
2520 -733 -95 -0.85666782 -0.51583511 -0.0058664572 0.12652771
2547 -748 -74 -0.84827977 -0.34683582 0.40015781 0.13065988
2526 -724 -115 -0.860488 -0.45013615 -0.23861638 0.12066496
2546 -770 -116 -0.80898291 -0.55451512 -0.19508865 0.099642366
2545 -726 -160 -0.73830014 -0.44771647 -0.50444317 0.08682517
2557 -743 -161 -0.66883302 -0.48822919 -0.56061989 0.074057043
2542 -760 -74 -0.78983128 -0.55236846 0.26656252 0.090413131
2531 -752 -115 -0.8601625 -0.45129728 -0.23759478 0.085064724
2542 -742 -115 -0.85504729 -0.45772624 -0.24368177 0.10204178
2540 -735 -140 -0.82316494 -0.37350297 -0.42766234 0.066674285
2556 -726 -141 -0.78952676 -0.41769338 -0.44964397 0.097679161
2538 -766 -99 -0.80072349 -0.59723705 0.046365719 0.093746945
2560 -725 -186 -0.55815703 -0.59289402 -0.58046311 0.033357486
2551 -765 -141 -0.73114836 -0.49329281 -0.47125819 0.06906084
2548 -751 -140 -0.77608305 -0.44859976 -0.44323066 0.064970866
2534 -751 -98 -0.85038948 -0.52517033 0.032152679 0.096667796
2574 -738 -169 -0.53188592 -0.59654486 -0.60102546 0.07491675
2559 -738 -125 -0.81852037 -0.45171803 -0.35492995 0.11425778
2562 -756 -126 -0.77497965 -0.4971157 -0.39023393 0.11027382
2560 -771 -127 -0.73836398 -0.55709398 -0.38008535 0.084372081
2538 -770 -85 -0.77210951 -0.60121542 0.20588079 0.080836616
2541 -767 -100 -0.80339444 -0.59327698 0.050791491 0.094294339
2502 -715 -99 -0.60410756 -0.79551268 0.047048166 0.11477895
2533 -751 -100 -0.85071933 -0.5256198 -0.00067611563 0.092188343
2558 -768 -56 -0.63709003 -0.65281296 0.40981898 0.089818694
2508 -730 -99 -0.77131653 -0.62629598 -0.1132435 0.11862191
2556 -753 -56 -0.76554662 -0.28693795 0.5758515 0.12560637
2536 -751 -93 -0.85987681 -0.50252867 0.089871004 0.1038333
2546 -767 -94 -0.78070086 -0.61586136 0.10592908 0.091773741
2548 -757 -102 -0.82949716 -0.55845594 0.0078341095 0.11235318
2507 -731 -100 -0.75236952 -0.64849526 -0.11573249 0.1219207
2548 -741 -145 -0.78404462 -0.40690693 -0.46872264 0.080859862
2562 -759 -146 -0.67233938 -0.50531727 -0.5409382 0.08924599
2516 -733 -107 -0.81955153 -0.54832566 -0.16635601 0.11199192
2556 -754 -150 -0.70286781 -0.48049799 -0.52449828 0.070297047
2551 -760 -66 -0.7482779 -0.55877018 0.35756958 0.09299843
2537 -752 -108 -0.85317713 -0.51299 -0.094498806 0.10368523
2560 -776 -66 -0.59917647 -0.71561497 0.35900247 0.07941775
2553 -766 -150 -0.67931288 -0.50073892 -0.53646487 0.069978073
2542 -767 -108 -0.81253719 -0.58033931 -0.054677024 0.095444784
2550 -739 -150 -0.76067394 -0.41933796 -0.49551073 0.076687381
2548 -766 -117 -0.81859291 -0.52305669 -0.23731282 0.099575616
2549 -752 -117 -0.84167165 -0.48077172 -0.24586043 0.098976962
2570 -753 -163 -0.52296418 -0.56641465 -0.63693243 0.075308107
2542 -737 -117 -0.86646312 -0.42965809 -0.25423509 0.10435627
2564 -758 -74 -0.74305111 -0.53431517 0.40296692 0.1367925
2568 -774 -74 -0.55253935 -0.75802296 0.34655651 0.07296671
2553 -734 -162 -0.70159972 -0.46818396 -0.53717929 0.08713036
2556 -782 -117 -0.65236682 -0.72648335 -0.2159619 0.092328891
2529 -723 -137 -0.8169691 -0.41266432 -0.40282694 0.077515483
2527 -741 -93 -0.86155587 -0.50522614 0.04967922 0.11605759
2539 -740 -138 -0.82376796 -0.38989413 -0.4115687 0.064964183
2541 -769 -139 -0.76273 -0.48222917 -0.43092689 0.068429522
2546 -760 -94 -0.82099247 -0.56369179 0.090679839 0.10438266
2538 -754 -138 -0.8111974 -0.41523069 -0.41175503 0.066297464
2549 -775 -95 -0.72965282 -0.67568052 0.10517889 0.08729513
2575 -758 -154 -0.52916425 -0.57921308 -0.62007856 0.090995349
2554 -735 -152 -0.74564922 -0.43374369 -0.50583965 0.089417614
2541 -773 -95 -0.75170058 -0.65131938 0.10358196 0.084798999
2545 -761 -96 -0.81735325 -0.57101625 0.076642469 0.093660824
2559 -763 -69 -0.70030606 -0.62945098 0.336694 0.098426171
2557 -752 -156 -0.68177402 -0.49247229 -0.54097605 0.076125488
2519 -730 -111 -0.82682341 -0.51367521 -0.22913058 0.1113423
2530 -741 -68 -0.80732328 -0.4630973 0.36574572 0.11038282
2551 -735 -155 -0.74991977 -0.43165851 -0.50128955 0.084944747
2548 -768 -114 -0.80839068 -0.56370479 -0.16953304 0.10373505
2549 -753 -113 -0.84950107 -0.50318426 -0.15859841 0.10887472
2557 -759 -57 -0.6965332 -0.48875698 0.52531713 0.1122274
2533 -742 -100 -0.89127272 -0.4533301 0.011168604 0.11602564
2539 -772 -100 -0.77908039 -0.62549353 0.042325858 0.096984938
2534 -756 -100 -0.85729164 -0.51462221 0.014668518 0.098625921
2538 -759 -90 -0.80892521 -0.57545912 0.1203614 0.090150513
2572 -765 -47 -0.54762435 -0.66588432 0.5066613 0.11662962
2533 -744 -90 -0.87760752 -0.46346509 0.12249559 0.1203316
2538 -773 -90 -0.75453699 -0.63730931 0.15655877 0.082581319
2545 -770 -64 -0.68569785 -0.63000512 0.36457083 0.086363271
2552 -759 -64 -0.75590074 -0.53061628 0.38348475 0.085605346
2566 -763 -145 -0.62861001 -0.54755151 -0.55230141 0.095837042
2561 -747 -145 -0.68616265 -0.50025213 -0.52813703 0.1024966
2554 -731 -144 -0.77752757 -0.41127372 -0.47571504 0.093022361
2548 -759 -75 -0.78966475 -0.55006844 0.27176169 0.099986307
2540 -767 -118 -0.8341983 -0.49989608 -0.23284584 0.083981164
2557 -737 -158 -0.71214074 -0.45989874 -0.5304231 0.080473259
2547 -744 -74 -0.87129915 -0.245627 0.42485902 0.14122561
2569 -755 -160 -0.56364781 -0.55578017 -0.61107248 0.079535335
2538 -752 -117 -0.8581081 -0.45376477 -0.24030805 0.08987879
2542 -739 -116 -0.86393893 -0.43667996 -0.25083891 0.10342155
2554 -722 -157 -0.71716034 -0.49927494 -0.4862155 0.088920839
2523 -719 -115 -0.79611737 -0.53861195 -0.27585205 0.12452326
2540 -745 -80 -0.87876123 -0.40870982 0.2464446 0.11845771
2539 -758 -80 -0.78449798 -0.5807656 0.21742651 0.086752884
2542 -772 -80 -0.734115 -0.62669599 0.26139486 0.077118255
2536 -740 -87 -0.88626468 -0.43770802 0.1514813 0.12690176
2547 -770 -87 -0.73859024 -0.65074039 0.17612897 0.085303523
2540 -755 -87 -0.82257235 -0.5517844 0.13750905 0.10515818
2538 -757 -54 -0.71056241 -0.5945251 0.37635219 0.10179236
2543 -740 -126 -0.83067167 -0.44137269 -0.33937398 0.084751837
2530 -718 -169 -0.73385841 -0.48543814 -0.47518587 0.051978078
2572 -745 -172 -0.52248424 -0.57705182 -0.6277113 0.06260369
2541 -725 -125 -0.84657443 -0.41661322 -0.33127794 0.10722425
2548 -771 -128 -0.77860624 -0.51228756 -0.3624 0.079131849
2543 -760 -86 -0.79114586 -0.5925414 0.15160121 0.092461035
2555 -754 -43 -0.73192376 -0.34017155 0.59039909 0.13516019
2547 -756 -127 -0.81701404 -0.46563593 -0.34010494 0.080478057
2547 -747 -85 -0.89534527 -0.39083835 0.21354711 0.13239676
2543 -768 -93 -0.77193272 -0.62610912 0.11003277 0.090120293
2521 -734 -92 -0.84372187 -0.53480154 0.046050116 0.11732236
2538 -752 -92 -0.8649959 -0.49158451 0.1006311 0.10596285
2556 -731 -171 -0.65276217 -0.5175783 -0.55318552 0.067110218
2543 -758 -129 -0.81617814 -0.45699587 -0.35356465 0.073818646
2542 -771 -129 -0.79380918 -0.4926838 -0.35655239 0.071403176
2540 -744 -129 -0.83188289 -0.43013746 -0.3506459 0.070737556
2549 -763 -87 -0.75655156 -0.63803285 0.14333126 0.09665744
2539 -731 -129 -0.84222883 -0.40019163 -0.36124408 0.083119109
2547 -749 -87 -0.8819018 -0.43734515 0.17600727 0.12932408
2549 -771 -103 -0.77671975 -0.62920421 0.028434407 0.093651243
2546 -766 -147 -0.7302404 -0.47404665 -0.49196419 0.070332661
2539 -740 -101 -0.89995265 -0.43592262 0.007534978 0.12223847
2537 -749 -146 -0.79512221 -0.40651211 -0.45003182 0.070535704
2546 -756 -102 -0.81933737 -0.57331109 -0.00080449309 0.11166039
2543 -737 -146 -0.80603021 -0.37870464 -0.45486039 0.069610327
2535 -720 -145 -0.8162933 -0.40433869 -0.41252333 0.085025422
2571 -733 -164 -0.54018044 -0.62589115 -0.56255257 0.089968488
2567 -747 -164 -0.57465887 -0.54392582 -0.61148334 0.077952854
2550 -749 -80 -0.8922649 -0.34564978 0.29049897 0.1369179
2535 -740 -123 -0.84471542 -0.43478823 -0.31211406 0.076413557
2522 -723 -122 -0.78914636 -0.48652881 -0.37488368 0.092689745
2553 -764 -80 -0.74084216 -0.63307941 0.22441798 0.099099949
2540 -756 -124 -0.82943428 -0.46560401 -0.30862877 0.076210611
2537 -769 -124 -0.82575274 -0.48093364 -0.29467821 0.080834679
2536 -734 -86 -0.90231234 -0.37542853 0.21186288 0.14434884
2544 -763 -86 -0.76889926 -0.61914116 0.15955605 0.088584781
2541 -748 -86 -0.87923092 -0.44862238 0.16028397 0.11941748
2538 -761 -111 -0.8337658 -0.53336746 -0.14266683 0.097106874
2549 -733 -153 -0.76410037 -0.4112623 -0.49700502 0.083837166
2557 -748 -153 -0.6885848 -0.4902505 -0.53432709 0.08305414
2556 -756 -69 -0.81201398 -0.36249965 0.4574137 0.12310533
2537 -747 -111 -0.86803883 -0.46257156 -0.18037762 0.10040494
2536 -734 -111 -0.90676862 -0.39214715 -0.15489116 0.11646229
2541 -717 -152 -0.76912487 -0.49420908 -0.4052214 0.080833711
2530 -735 -69 -0.8061353 -0.45542556 0.37780079 0.12386654
2565 -762 -75 -0.66093266 -0.67469823 0.32855794 0.092425905
2553 -734 -160 -0.71048599 -0.465938 -0.52736276 0.084648766
2555 -744 -74 -0.87859982 -0.10986066 0.46475038 0.14520343
2535 -714 -158 -0.7646262 -0.50579715 -0.39939463 0.084042914
2550 -737 -115 -0.89076185 -0.39758933 -0.22015014 0.12771705
2524 -715 -113 -0.76059544 -0.60590619 -0.2331787 0.14475764
2546 -750 -115 -0.83857363 -0.49853671 -0.2196712 0.10777637
2574 -754 -162 -0.50020224 -0.57314658 -0.64907682 0.075780757
2564 -759 -126 -0.74114019 -0.54435933 -0.39291748 0.11101872
2576 -746 -170 -0.50948626 -0.60462248 -0.61225444 0.069390602
2562 -743 -126 -0.80582279 -0.45327929 -0.38103488 0.10841538
2558 -726 -169 -0.65342921 -0.53475177 -0.53578997 0.082387142
2568 -775 -126 -0.55751985 -0.73890293 -0.37841001 0.10409797
2564 -766 -57 -0.61830318 -0.67077941 0.40958041 0.091560364
2537 -735 -101 -0.9131875 -0.40722424 0.016026976 0.13009508
2557 -750 -57 -0.75060046 -0.22936746 0.61966884 0.13079043
2518 -716 -100 -0.7578724 -0.65237737 -0.0057591056 0.15043716
2535 -762 -101 -0.83812022 -0.54539049 0.010187279 0.095754705
2534 -748 -101 -0.87506074 -0.48401162 0.0012442943 0.10176787
2558 -741 -56 -0.76905 -0.086919382 0.63325125 0.13201857
2564 -756 -57 -0.7300089 -0.29036111 0.61869013 0.13507484
2533 -752 -100 -0.85862643 -0.51256979 0.0057345438 0.093782544
2535 -725 -100 -0.94372123 -0.32440469 0.064434789 0.15840642
2517 -706 -99 -0.56760913 -0.80942398 0.15050787 0.14632086
2531 -737 -100 -0.88286477 -0.46954331 0.0088846497 0.12896846
2536 -743 -95 -0.89385122 -0.4419004 0.075856298 0.1202442
2530 -755 -95 -0.84591722 -0.5308637 0.051067054 0.095681749
2559 -745 -52 -0.75856161 -0.14591096 0.63505447 0.12672767
2534 -729 -95 -0.92446434 -0.35974967 0.1262769 0.15270501
2513 -710 -94 -0.57498711 -0.79358023 0.1990485 0.1361928
2525 -724 -103 -0.85137975 -0.52047044 -0.065291636 0.1526344
2546 -723 -148 -0.77363014 -0.43978962 -0.45615953 0.083635963
2553 -740 -149 -0.74983531 -0.42959443 -0.50318545 0.084158719
2559 -757 -150 -0.68004102 -0.48337445 -0.55126518 0.073493034
2545 -745 -105 -0.89374506 -0.44432235 -0.061622705 0.12827049
2546 -761 -105 -0.81366873 -0.57995552 -0.039935622 0.10856168
2563 -754 -62 -0.77698797 -0.21998215 0.58982831 0.1309893
2520 -725 -110 -0.84240568 -0.48814493 -0.22818235 0.11714283
2516 -711 -109 -0.68107033 -0.71109712 -0.17459667 0.13306239
2533 -757 -111 -0.86493897 -0.47739887 -0.15482537 0.093257368
2534 -743 -111 -0.86388749 -0.46138179 -0.20205228 0.098469272
2541 -736 -67 -0.7582956 -0.33506927 0.55921054 0.15105565
2559 -755 -68 -0.79676896 -0.31881133 0.51334059 0.13313548
2541 -750 -82 -0.86080295 -0.46239164 0.21263166 0.11283856
2542 -764 -82 -0.78036678 -0.58431739 0.22271226 0.085478179
2559 -736 -150 -0.70530099 -0.47919416 -0.52242082 0.10150794
2569 -754 -150 -0.62184089 -0.54028708 -0.56692481 0.10672163
2568 -731 -174 -0.5262931 -0.58776432 -0.61444998 0.056409333
2556 -751 -147 -0.72034872 -0.47354561 -0.5068059 0.083540015
2534 -715 -145 -0.80142897 -0.44640908 -0.39803338 0.086946107
2536 -765 -106 -0.83773726 -0.54522347 -0.030456591 0.094468191
2537 -751 -105 -0.85772747 -0.50934279 -0.069810189 0.10774007
2552 -759 -64 -0.75590074 -0.53061628 0.38348475 0.085605346
2545 -733 -146 -0.79765117 -0.38025567 -0.46814343 0.075007141
2521 -718 -103 -0.81804204 -0.56900036 -0.083939157 0.14820008
2548 -744 -63 -0.75845873 -0.27547836 0.59063703 0.13923302
2535 -736 -104 -0.91372645 -0.40391845 -0.044203077 0.12298742
2532 -718 -112 -0.88926345 -0.42364335 -0.17244388 0.1514847
2562 -742 -70 -0.81684232 -0.037129864 0.57566488 0.14285995
2562 -735 -158 -0.66511881 -0.50391954 -0.55107349 0.093743071
2554 -719 -157 -0.70178592 -0.53973258 -0.4649573 0.085689917
2575 -753 -159 -0.51764083 -0.58293343 -0.62628794 0.089967839
2547 -736 -113 -0.89358038 -0.40679404 -0.18982312 0.11933932
2563 -756 -70 -0.761002 -0.36881474 0.53371501 0.13359444
2549 -764 -113 -0.81263423 -0.56180191 -0.15493277 0.10454406
2571 -772 -70 -0.53155637 -0.75492245 0.38410917 0.077892177
2552 -751 -113 -0.83753705 -0.51883519 -0.17129433 0.11739942
2526 -719 -109 -0.82895195 -0.52404952 -0.19547586 0.14145528
2548 -744 -68 -0.81220424 -0.30517155 0.49718672 0.14768073
2557 -751 -153 -0.68381768 -0.49511448 -0.53596181 0.075061433
2538 -737 -110 -0.90184057 -0.40787986 -0.14253986 0.11523526
2555 -736 -152 -0.74411833 -0.43507263 -0.50695127 0.090637349
2539 -717 -150 -0.7864272 -0.46365738 -0.40811056 0.081922673
2532 -750 -111 -0.86068296 -0.4749777 -0.18336034 0.091186695
2549 -759 -69 -0.76574218 -0.54778105 0.33700854 0.09245497
2560 -752 -53 -0.74988025 -0.25469184 0.61058307 0.12049831
2506 -714 -95 -0.62349808 -0.77784282 0.078807414 0.1231858
2533 -749 -96 -0.86205238 -0.50434256 0.050041664 0.097646102
2533 -762 -97 -0.83516067 -0.54709655 0.056498405 0.090583578
2531 -735 -96 -0.89317614 -0.44481799 0.066130809 0.13910402
2542 -758 -81 -0.79137284 -0.57229835 0.21495014 0.086369023
2540 -744 -81 -0.87698406 -0.40723518 0.25506562 0.12308386
2534 -748 -95 -0.86685711 -0.49384207 0.068400376 0.10404701
2558 -751 -52 -0.75710291 -0.24252115 0.60661238 0.11387889
2535 -762 -95 -0.82194555 -0.56489772 0.072774164 0.092309736
2566 -767 -52 -0.58817989 -0.69021392 0.42148447 0.094659835
2505 -713 -94 -0.57434279 -0.80768901 0.13329975 0.12723306
2523 -731 -95 -0.86164403 -0.50647366 0.032464013 0.13302203
2531 -738 -114 -0.87001789 -0.43711552 -0.22803265 0.092451416
2519 -721 -113 -0.79469562 -0.54256427 -0.27218169 0.11644433
2559 -764 -70 -0.68388623 -0.65114754 0.32909957 0.087623686
2543 -745 -70 -0.82745814 -0.37640709 0.41669011 0.13162771
2537 -753 -114 -0.85945219 -0.45749903 -0.22811539 0.09075579
2539 -768 -114 -0.8328535 -0.52464843 -0.1763491 0.090091579
2559 -755 -131 -0.75584036 -0.49501166 -0.42856592 0.097640313
2556 -739 -130 -0.79533476 -0.45607001 -0.39930287 0.091515809
2562 -770 -131 -0.7111184 -0.55636442 -0.42984793 0.086571306
2548 -757 -82 -0.80886179 -0.54623288 0.21765168 0.10087515
2573 -738 -169 -0.52191907 -0.61251235 -0.59365731 0.074565038
2542 -733 -125 -0.85115206 -0.40613237 -0.33256075 0.09552373
2547 -742 -81 -0.90946501 -0.18762094 0.37104163 0.15063854
2546 -749 -126 -0.83632588 -0.43956682 -0.32762784 0.086916536
2543 -763 -126 -0.81369883 -0.47235382 -0.33878636 0.079312131
2550 -755 -43 -0.71744794 -0.47698 0.50769931 0.13460255
2541 -770 -87 -0.75587851 -0.6320281 0.170845 0.083944373
2537 -756 -87 -0.82215983 -0.54810768 0.15372431 0.091002733
2516 -736 -86 -0.80885059 -0.58375996 0.070604928 0.11884239
2516 -723 -110 -0.79593873 -0.56069767 -0.22825357 0.11912636
2536 -756 -112 -0.84609473 -0.50599623 -0.16760513 0.096585721
2555 -752 -68 -0.83515912 -0.24980238 0.49000818 0.1328592
2548 -764 -68 -0.72309083 -0.61481208 0.31487426 0.086005285
2535 -769 -112 -0.83814955 -0.52145016 -0.15998442 0.090428464
2534 -742 -111 -0.86557162 -0.45951724 -0.19907194 0.099558219
2553 -749 -67 -0.81135845 -0.26594716 0.52054739 0.1313162
2533 -712 -110 -0.80041295 -0.59757221 -0.047398135 0.18585978
2536 -740 -111 -0.87677348 -0.44184214 -0.18985182 0.10582394
2549 -762 -67 -0.73510915 -0.58783519 0.33773401 0.085922897
2558 -774 -112 -0.685588 -0.72075164 -0.10240203 0.1012755
2555 -736 -67 -0.78942382 -0.086126521 0.60777646 0.14094509
2534 -753 -111 -0.86253291 -0.47983712 -0.16060294 0.096648291
2529 -724 -110 -0.87372339 -0.45790979 -0.16409183 0.1216291
2553 -745 -110 -0.8796972 -0.4579109 -0.12825897 0.12469134
2551 -728 -109 -0.97286004 -0.22898825 -0.033284102 0.17903312
2555 -762 -111 -0.78570348 -0.60211945 -0.14185263 0.12297758
2569 -745 -154 -0.61184645 -0.54865652 -0.56975418 0.099983558
2555 -778 -111 -0.6743027 -0.73316348 -0.088245414 0.098138966
