# .PCD v0.7 - Point Cloud Data file format
VERSION 0.7
FIELDS x y z normal_x normal_y normal_z curvature
SIZE 4 4 4 4 4 4 4
TYPE F F F F F F F
COUNT 1 1 1 1 1 1 1
WIDTH 830
HEIGHT 1
VIEWPOINT 0 0 0 1 0 0 0
POINTS 830
DATA ascii
1002 952 125 -0.60069257 -0.54505527 0.58487886 0.16362762
946 917 52 -0.65151066 -0.18135218 0.73664463 0.12759079
995 957 110 -0.60663694 -0.59756631 0.524315 0.17492314
960 933 32 -0.56947225 -0.0085212607 0.82196635 0.10878611
1028 859 87 -0.54147649 0.12904735 0.83075267 0.088610984
1012 898 101 -0.50172526 -0.23114066 0.83357412 0.12952952
996 867 94 -0.54893452 -0.050479691 0.83433974 0.10167051
990 888 82 -0.52879119 -0.17065106 0.83141935 0.12656081
1004 899 103 -0.51868141 -0.35687754 0.77692217 0.13800244
1014 891 99 -0.52444333 -0.16294143 0.83570892 0.12081866
972 998 120 -0.64556926 -0.53889859 0.54113644 0.11197314
970 980 110 -0.67915535 -0.3488172 0.64581311 0.076885648
961 963 86 -0.63723326 -0.47219288 0.60907114 0.1412755
978 932 92 -0.65083587 -0.37329292 0.66110897 0.13220699
963 989 96 -0.61017519 -0.56358129 0.55683243 0.11648509
941 922 56 -0.6785965 -0.2244281 0.69938457 0.12780644
940 932 40 -0.60463047 -0.14228755 0.78369397 0.13115086
963 955 103 -0.72893786 -0.42520952 0.53651321 0.11579303
947 980 98 -0.64626873 -0.39467636 0.65312117 0.098535962
924 936 27 -0.54283595 -0.23848443 0.80526662 0.13270313
929 930 42 -0.61395377 -0.24806824 0.74934834 0.13434945
971 954 101 -0.72039312 -0.43360615 0.54131281 0.12252399
972 936 95 -0.68628532 -0.36876395 0.62691754 0.12811206
976 933 72 -0.67045617 -0.24336252 0.70090181 0.13453305
935 944 45 -0.59740472 -0.25538602 0.7601878 0.14089939
970 971 107 -0.70512998 -0.44125316 0.5550561 0.11347952
963 947 80 -0.68181038 -0.37982765 0.6251924 0.13015312
976 995 114 -0.65969586 -0.50505239 0.55652815 0.10119125
968 914 89 -0.66380388 -0.33158278 0.67038596 0.12286124
971 945 98 -0.71343839 -0.40867922 0.56919849 0.12722705
963 981 93 -0.62884635 -0.58545011 0.51166433 0.13160981
954 943 60 -0.65374297 -0.26704282 0.7080313 0.13750359
968 916 69 -0.65648872 -0.22237107 0.72081465 0.12683868
932 974 80 -0.51491815 -0.61875254 0.59329975 0.12015759
974 909 86 -0.62260753 -0.33442843 0.70747256 0.12486832
958 974 50 -0.55101705 -0.57801855 0.60189265 0.1587249
967 933 74 -0.68624276 -0.26026401 0.67921531 0.13810335
938 911 53 -0.6901325 -0.26825005 0.67213023 0.13541083
917 936 30 -0.52048302 -0.28489375 0.80494285 0.13791502
941 905 50 -0.68156493 -0.13411114 0.71936327 0.13361987
990 926 68 -0.58473712 -0.19835228 0.78659958 0.13622533
1063 856 134 -0.65710264 -0.27521533 0.70176405 0.14307219
1070 848 135 -0.63050038 -0.11481933 0.76764953 0.14484802
1051 899 110 -0.54869598 0.13988499 0.82423592 0.16949947
933 948 67 -0.62877142 -0.42571861 0.65069973 0.12968078
993 891 79 -0.51784432 -0.15054397 0.84212458 0.11795875
950 936 71 -0.67722589 -0.30260542 0.67066759 0.12919992
990 916 77 -0.54159522 -0.21023519 0.8139261 0.13303074
996 936 77 -0.57639259 -0.32470876 0.74989057 0.15026398
990 902 78 -0.53192949 -0.2351805 0.81347477 0.13550569
1059 880 134 -0.65435594 -0.0098907426 0.75612199 0.15439788
978 948 74 -0.68962151 -0.36071238 0.62794 0.14526561
1006 961 77 -0.55631065 -0.70195872 0.44471607 0.17653996
951 951 70 -0.66380632 -0.39200553 0.63694024 0.12880248
1066 872 134 -0.61224735 0.024343941 0.79029149 0.12499515
941 971 67 -0.58132547 -0.5473699 0.60203558 0.12847073
1031 921 142 -0.58358055 -0.74039149 0.33354804 0.20645723
1065 916 155 -0.59358531 -0.49577355 0.63392818 0.25788975
1064 907 156 -0.60201228 -0.39699164 0.69280505 0.23709591
954 956 60 -0.65218383 -0.40908802 0.6382032 0.13547961
1001 900 70 -0.51017702 -0.10011506 0.85422266 0.10423892
1073 908 125 -0.59096581 0.24614826 0.76822555 0.18602426
1046 871 122 -0.65495425 -0.023646379 0.75529844 0.13783671
979 894 67 -0.5198223 -0.07727176 0.8507725 0.11953832
961 948 62 -0.65021265 -0.31156358 0.69292969 0.14590733
971 929 64 -0.64849603 -0.17808934 0.74009258 0.13254227
971 900 66 -0.59633511 -0.25534222 0.76104188 0.12627228
970 914 65 -0.64421779 -0.17088601 0.74550748 0.12701133
936 953 58 -0.59973955 -0.41556838 0.68382412 0.13297544
924 955 56 -0.54350269 -0.47139922 0.69454128 0.12240893
1068 853 128 -0.64041013 -0.21133043 0.73838621 0.12707512
1073 884 128 -0.59289211 0.13795446 0.79337734 0.11801844
1009 942 118 -0.55033606 -0.61766666 0.56179905 0.16467446
1029 903 122 -0.56535381 -0.266038 0.78076816 0.18372205
956 994 107 -0.64234298 -0.44576854 0.62344682 0.11064957
973 944 101 -0.71870762 -0.40623882 0.56429553 0.12802692
1061 854 115 -0.61137998 -0.052997235 0.78956056 0.11092269
1055 862 114 -0.64756685 0.0071755867 0.76197487 0.11922992
989 945 103 -0.60028315 -0.52837986 0.60039562 0.15918934
1036 888 112 -0.5615713 0.04310884 0.82630461 0.14969747
1031 870 111 -0.58732843 -0.077906199 0.80559045 0.11337326
999 926 106 -0.54271477 -0.50936824 0.66783589 0.14737478
1029 896 111 -0.52663606 0.00070764642 0.8500905 0.16087221
955 971 96 -0.66111082 -0.49083513 0.56746221 0.12563623
936 982 92 -0.55561221 -0.43465334 0.70878172 0.077342339
1067 905 128 -0.62720597 0.17276038 0.75945145 0.20129719
1077 885 130 -0.59612274 0.12146354 0.79365253 0.12032772
1072 854 129 -0.63744044 -0.16083784 0.75352567 0.11850072
1068 885 130 -0.57768363 0.12790009 0.80617809 0.12977344
1025 875 124 -0.61260891 -0.24911831 0.75010026 0.11610818
944 976 37 -0.5256604 -0.57296008 0.62880671 0.15474711
950 968 39 -0.59565705 -0.43350601 0.67621392 0.15713282
1009 977 143 -0.58789778 -0.41389298 0.69503146 0.10380503
968 930 67 -0.66719282 -0.20827867 0.7151739 0.13423653
969 945 66 -0.68560404 -0.27837983 0.67264533 0.14349939
967 990 110 -0.66142923 -0.41184974 0.62681031 0.097687311
1001 948 71 -0.61466169 -0.23492999 0.75299329 0.16867664
970 921 71 -0.65194756 -0.22650366 0.7236439 0.12839703
986 940 70 -0.64934713 -0.24387197 0.72032964 0.1508383
989 923 75 -0.58468914 -0.24220285 0.77425861 0.13172162
980 929 68 -0.65881699 -0.2189955 0.71972299 0.13673353
979 934 67 -0.67667973 -0.22448096 0.7012223 0.13896412
985 923 77 -0.60100883 -0.24430433 0.76098871 0.13042374
981 911 71 -0.60803145 -0.23797029 0.75740862 0.12836854
1005 957 78 -0.60547912 -0.61099541 0.5099799 0.18151483
969 912 41 -0.55629313 0.024179557 0.8306343 0.10032327
957 912 59 -0.64946645 -0.19664773 0.73452228 0.12310203
1013 945 117 -0.52820647 -0.66138548 0.53251022 0.17323112
977 930 74 -0.66467643 -0.24837969 0.70463657 0.13716926
963 918 62 -0.64692712 -0.18751332 0.73913741 0.13030027
974 917 62 -0.61235684 -0.13425054 0.7790994 0.13017969
984 937 58 -0.66995639 -0.14730138 0.72764057 0.13438183
994 948 74 -0.63573837 -0.3442302 0.69089955 0.16106845
962 908 64 -0.64659995 -0.22083116 0.7301659 0.12788409
972 898 67 -0.57830769 -0.21953447 0.78572565 0.12938884
1031 896 108 -0.5026834 0.040069226 0.86354148 0.15520801
1026 884 105 -0.5598371 -0.032132529 0.82797939 0.11136542
989 897 79 -0.5613057 -0.22963287 0.79511297 0.13089737
987 907 85 -0.56249315 -0.31275842 0.76536512 0.13363206
1030 854 95 -0.54811865 0.060491633 0.83421016 0.083457775
1017 899 113 -0.50473261 -0.3258605 0.79941231 0.15531701
991 904 82 -0.54795474 -0.28020194 0.78818309 0.13645583
1023 873 102 -0.56156784 -0.019260379 0.82720655 0.095828518
1031 873 80 -0.53343076 0.1760678 0.82731599 0.092916645
1077 873 149 -0.50599951 0.016204486 0.86238158 0.1381889
1038 922 143 -0.64461535 -0.74383235 0.17659105 0.22447954
1002 975 134 -0.65886068 -0.38828361 0.64431232 0.11179329
1013 970 137 -0.61705035 -0.37297943 0.69291794 0.083683647
978 963 117 -0.66440535 -0.35103682 0.65980202 0.093752243
920 951 59 -0.50986928 -0.46074528 0.72646207 0.12648018
954 985 75 -0.53362888 -0.67640287 0.50766069 0.13577698
933 963 77 -0.58640677 -0.50748849 0.63133395 0.12553185
944 972 81 -0.61122131 -0.5429858 0.57582545 0.12508281
948 982 78 -0.54735786 -0.63836181 0.54119647 0.12771501
920 951 56 -0.53518367 -0.45173404 0.71380305 0.12736678
920 937 37 -0.54206377 -0.29529724 0.78674424 0.13422176
937 969 67 -0.56614214 -0.53818196 0.62437427 0.12261285
922 951 53 -0.531358 -0.46308061 0.70937651 0.12601812
938 961 44 -0.56484497 -0.42742053 0.70587671 0.13894084
928 960 63 -0.54821956 -0.51222247 0.66112286 0.11634532
922 947 47 -0.52345639 -0.40874133 0.74761218 0.13761853
914 941 49 -0.52581906 -0.46920359 0.70948035 0.12540032
922 942 40 -0.54469496 -0.29581329 0.78473037 0.13918395
954 987 72 -0.51698953 -0.68669915 0.51104414 0.13369893
982 913 80 -0.58125448 -0.29179224 0.75960547 0.12509657
977 977 109 -0.67720145 -0.41848335 0.60520232 0.093499519
986 917 101 -0.56762308 -0.40133262 0.71884358 0.13109863
958 904 62 -0.63785911 -0.1917761 0.74589396 0.13042738
981 969 122 -0.66046697 -0.38397706 0.64524806 0.089111507
980 929 86 -0.63651198 -0.33357117 0.69540119 0.1356837
952 955 49 -0.61794031 -0.289662 0.73092115 0.14383791
986 958 116 -0.6903767 -0.38825864 0.61043859 0.11733302
926 936 31 -0.56131178 -0.19370531 0.80461627 0.13350657
949 920 51 -0.6423263 -0.16325448 0.7488423 0.12834555
929 935 28 -0.56863588 -0.12795267 0.81257695 0.13514765
938 939 25 -0.56696194 -0.023043502 0.8234216 0.13129015
922 935 34 -0.54081458 -0.25596681 0.80124944 0.13622074
983 947 93 -0.66749233 -0.44253305 0.59884763 0.14499591
974 961 101 -0.72910756 -0.45696214 0.50949758 0.12852161
997 944 108 -0.54997063 -0.5907222 0.5904063 0.16308236
946 942 22 -0.57323515 0.017729621 0.81919909 0.1237356
970 911 82 -0.65558833 -0.31525025 0.68616414 0.12437741
965 919 65 -0.65917283 -0.20872641 0.72244334 0.12930903
995 959 114 -0.61820769 -0.57091635 0.54025346 0.15862094
987 910 78 -0.56033456 -0.26162252 0.78586185 0.12902747
983 955 96 -0.67792958 -0.48449409 0.55288053 0.14932694
944 936 42 -0.61577708 -0.12810254 0.77743709 0.13422176
933 931 45 -0.61835545 -0.2245933 0.7531231 0.12861963
981 936 109 -0.62098026 -0.47832856 0.62095511 0.14287949
944 931 39 -0.60186797 -0.10250346 0.79198992 0.13250721
955 932 54 -0.64009237 -0.18990549 0.74445796 0.1239084
989 928 104 -0.57541311 -0.46915084 0.66992331 0.14536783
985 945 70 -0.67018223 -0.29014346 0.68313432 0.15240771
980 959 99 -0.71035051 -0.47887334 0.51583171 0.13632083
981 896 75 -0.5863291 -0.25587279 0.76860082 0.1285814
951 935 57 -0.65580392 -0.23468132 0.71752763 0.12940726
983 896 95 -0.57488275 -0.37272093 0.72841537 0.1247688
955 963 52 -0.60059977 -0.41789797 0.68164605 0.14845361
994 878 88 -0.50452721 -0.1081294 0.85659814 0.11907615
1005 879 86 -0.50685376 -0.034770008 0.86133057 0.099086516
966 983 111 -0.66878927 -0.37682596 0.64087683 0.084698163
954 962 106 -0.68885398 -0.30098221 0.65946186 0.088617131
947 918 51 -0.65363485 -0.17968459 0.73517001 0.12803915
923 942 28 -0.50919062 -0.19173016 0.83902586 0.13466541
975 937 93 -0.67877418 -0.37373999 0.63212669 0.13038298
948 963 47 -0.60535514 -0.38773987 0.69512796 0.14974634
964 937 75 -0.69158703 -0.30458847 0.65492994 0.12785366
932 932 40 -0.61266679 -0.18354079 0.76873404 0.13963212
942 974 95 -0.62483591 -0.44046673 0.64464653 0.10799182
959 947 58 -0.65101963 -0.27446809 0.70770103 0.14396115
974 955 99 -0.72078431 -0.44142115 0.53443199 0.12708946
974 926 90 -0.66812825 -0.32429487 0.66965473 0.12920325
960 960 84 -0.65582466 -0.4524461 0.6043067 0.14088061
963 945 78 -0.67974645 -0.37526661 0.63017434 0.12764089
940 982 79 -0.52556551 -0.65508384 0.54281312 0.12347008
936 943 43 -0.61443186 -0.20029323 0.76312256 0.13900967
963 980 91 -0.61157393 -0.61227876 0.50109088 0.13421994
934 968 75 -0.56623048 -0.53942794 0.623218 0.1320599
949 928 54 -0.6397863 -0.19348007 0.7438004 0.12702286
960 985 94 -0.62098676 -0.61073661 0.49130052 0.12610011
956 946 100 -0.69494939 -0.40007746 0.59748071 0.11713722
942 982 99 -0.6213634 -0.36890578 0.69124234 0.085765503
976 931 70 -0.66843128 -0.23015782 0.70726728 0.13418454
969 969 105 -0.70042014 -0.47511387 0.53261471 0.1212989
958 967 87 -0.65327936 -0.47903523 0.58630311 0.13164844
978 949 96 -0.69685775 -0.42943224 0.57443637 0.1343417
949 940 38 -0.608675 -0.090657882 0.78822327 0.13053817
968 914 67 -0.65124732 -0.19795018 0.73259306 0.12686482
990 925 66 -0.57570451 -0.17034964 0.79971582 0.13446143
982 904 82 -0.57792431 -0.33240402 0.74532616 0.12837043
967 894 62 -0.53959543 -0.10028868 0.83592999 0.12324183
984 887 77 -0.53312331 -0.097734593 0.84037334 0.12323334
981 894 80 -0.58940071 -0.28226489 0.75692356 0.12956177
1083 855 139 -0.56040239 -0.095323309 0.82271653 0.12282374
1076 862 131 -0.6150195 -0.018892642 0.78828555 0.12109064
1046 867 116 -0.64256668 -0.04269053 0.76503956 0.12443975
1063 862 122 -0.63657737 -0.014130097 0.77108335 0.12771598
1082 859 136 -0.56587476 -0.036300655 0.82369167 0.11869964
1051 871 120 -0.63459194 0.028768703 0.77231175 0.12498887
1071 862 128 -0.60900581 0.017839057 0.79296511 0.12045114
1058 876 123 -0.64111954 0.084930211 0.76272702 0.13047004
1056 874 126 -0.64507681 0.040649906 0.76303571 0.1342994
1070 883 133 -0.57608926 0.098938689 0.81137681 0.13038057
1074 857 133 -0.63035542 -0.17837676 0.75553542 0.12576219
1072 866 126 -0.59924281 0.035160925 0.79979479 0.11209896
1058 874 129 -0.65650654 0.017088281 0.75412679 0.13914357
1077 881 132 -0.58618945 0.10290081 0.80361265 0.11891392
1060 879 127 -0.64606529 0.059804566 0.7609356 0.13588433
1066 868 128 -0.61974651 0.029522564 0.78424668 0.12426884
1064 881 125 -0.61546761 0.10755981 0.78078842 0.13647497
1062 877 122 -0.65027434 0.088599034 0.75451547 0.132117
974 947 63 -0.67607158 -0.29175165 0.67661524 0.14325818
1050 875 122 -0.62342286 0.034569923 0.78112018 0.13180281
1071 907 124 -0.59695399 0.25672853 0.7600897 0.19083086
997 897 69 -0.50957578 -0.083803929 0.85633487 0.11134812
966 954 62 -0.65474844 -0.37606177 0.65565389 0.1458126
966 896 65 -0.57293141 -0.15992153 0.80384988 0.12362878
973 917 65 -0.63383019 -0.17067806 0.75440592 0.13092048
977 935 64 -0.67225796 -0.2172714 0.70771629 0.14034371
979 895 67 -0.52453381 -0.10949117 0.84431988 0.12049168
960 962 60 -0.62380195 -0.47664449 0.61941999 0.14624333
922 954 55 -0.52921557 -0.46539521 0.7094633 0.12497082
1083 907 131 -0.52870899 0.30393359 0.79252201 0.14818335
1073 908 125 -0.59096581 0.24614826 0.76822555 0.18602426
1071 892 132 -0.5853827 0.093025401 0.80540264 0.14254054
1060 904 118 -0.61977696 0.1472314 0.77084339 0.19081503
1066 883 134 -0.58824176 0.099828921 0.80249971 0.14292429
1051 906 109 -0.50723732 0.1956393 0.83930653 0.17943326
1062 910 116 -0.59349388 0.20237325 0.77898014 0.19954123
1066 906 122 -0.59631485 0.19936848 0.77759945 0.19511545
1059 910 113 -0.59011793 0.17500299 0.78812104 0.18387488
1079 908 128 -0.58363736 0.26569608 0.76731551 0.16812675
1080 889 138 -0.55930835 0.11181188 0.82138443 0.12917128
1066 935 113 -0.55341315 -0.81064975 0.19126119 0.21346082
1059 928 109 -0.64151496 -0.28662604 0.71155047 0.23812796
1015 883 95 -0.52981031 -0.04242374 0.84705454 0.092799515
1048 906 106 -0.51328158 0.15379974 0.84432673 0.18032587
1025 890 98 -0.51377892 -0.0076433178 0.85788858 0.12035657
1060 929 106 -0.64011401 -0.39256477 0.66041428 0.22522143
1055 922 111 -0.58295941 0.1129816 0.80460757 0.22487842
1075 861 107 -0.57146513 0.05503146 0.81877905 0.089818753
1068 913 115 -0.60519391 0.20003833 0.77053541 0.20588861
1044 873 121 -0.64181107 -0.028518327 0.76633239 0.13406608
1062 903 111 -0.56859851 0.16715269 0.80545372 0.17444707
1040 858 114 -0.60303128 -0.088360108 0.79280883 0.093379147
1033 847 111 -0.55129242 -0.1770559 0.81530851 0.085139193
1056 907 116 -0.57201779 0.20014438 0.79544824 0.19149534
1046 851 110 -0.58666891 -0.14594428 0.79656756 0.087236673
1054 850 108 -0.59024215 -0.061420228 0.80488622 0.10946288
1044 885 126 -0.66373158 -0.10250819 0.74091327 0.15877642
1044 868 118 -0.65198958 -0.073725238 0.7546351 0.12897339
1051 885 124 -0.63449997 0.0017991504 0.77292085 0.15396205
934 913 49 -0.67693383 -0.26573703 0.68639964 0.13843067
949 946 56 -0.64624751 -0.28201076 0.709108 0.13693248
976 900 58 -0.5282129 -0.051478077 0.84755015 0.11508511
960 940 93 -0.69426262 -0.37540787 0.61405885 0.11381696
972 961 97 -0.71404648 -0.4526498 0.53408402 0.12499514
958 966 102 -0.7153722 -0.39955309 0.57323635 0.11838587
959 903 62 -0.63790697 -0.20931655 0.74112159 0.12775913
971 901 80 -0.63362026 -0.379464 0.67419016 0.12503941
954 963 82 -0.67386919 -0.45860735 0.5792923 0.13765648
965 1000 113 -0.62579882 -0.58368582 0.51738459 0.11274482
975 925 86 -0.65954095 -0.30436563 0.68728983 0.13093276
958 976 86 -0.61299956 -0.56566292 0.55159497 0.13919862
973 942 91 -0.70468831 -0.35879782 0.6121099 0.13137916
980 899 78 -0.60333449 -0.32005483 0.73044664 0.12632106
959 993 92 -0.56230438 -0.66528684 0.4911285 0.12821633
942 929 52 -0.63855106 -0.2121906 0.73974836 0.12761366
944 968 45 -0.56459832 -0.4946095 0.66074967 0.14205641
955 981 88 -0.58848393 -0.61048621 0.53008801 0.13227057
957 957 79 -0.66641116 -0.4169974 0.61806911 0.13621888
964 962 100 -0.71889639 -0.44323835 0.53546971 0.12933223
930 951 63 -0.58859873 -0.42761239 0.68607521 0.12880586
949 949 36 -0.61629212 -0.15542085 0.7720288 0.13987966
963 926 68 -0.68252724 -0.21949525 0.6971215 0.12611504
956 928 70 -0.67511678 -0.26503187 0.68845874 0.12129384
950 992 95 -0.59233761 -0.50536436 0.62748951 0.10906063
960 977 106 -0.66973698 -0.35375836 0.65292221 0.085114293
963 989 109 -0.66052443 -0.41374999 0.62651294 0.097366348
938 954 42 -0.57581764 -0.33239534 0.74695867 0.13784155
964 946 74 -0.68741453 -0.34959698 0.63658708 0.13719204
975 885 75 -0.52730185 -0.072512843 0.84657818 0.12383834
969 922 65 -0.64423144 -0.17318204 0.74496567 0.13157764
919 927 38 -0.56417572 -0.38970742 0.72789687 0.13527584
978 937 89 -0.65932578 -0.37601382 0.6510784 0.13927369
993 891 74 -0.5264439 -0.097034842 0.84465444 0.10610509
1073 871 134 -0.59894991 0.062996611 0.79830474 0.12169142
982 925 73 -0.63082653 -0.24026412 0.7377879 0.1368231
1002 959 73 -0.59359539 -0.57469028 0.56336087 0.17439905
969 942 70 -0.68433964 -0.2867943 0.67039412 0.13781868
941 955 42 -0.59908736 -0.30616379 0.73983651 0.13762248
948 976 41 -0.56356055 -0.54957092 0.61674249 0.15423489
952 951 44 -0.62048715 -0.20454003 0.75707269 0.14053854
1039 923 142 -0.64124429 -0.73336244 0.22579952 0.22357851
1001 960 135 -0.67616916 -0.30568251 0.67033827 0.10203724
993 904 88 -0.52452725 -0.30238658 0.79588532 0.13245089
981 907 86 -0.585899 -0.34088778 0.73519915 0.12987512
995 969 133 -0.66797155 -0.3612918 0.65060139 0.097204581
1088 921 125 -0.53800827 0.36949116 0.75764334 0.18064678
995 951 110 -0.58694702 -0.59744656 0.5463981 0.16664472
953 949 57 -0.63902712 -0.29989243 0.70831406 0.14034554
955 937 58 -0.65247148 -0.23523206 0.72037965 0.12965801
954 965 55 -0.60254604 -0.47461101 0.64162499 0.14524502
978 954 68 -0.68881547 -0.37123054 0.6226725 0.14956908
986 946 69 -0.67366821 -0.27270016 0.68688118 0.1556997
983 915 71 -0.59477669 -0.18911062 0.78133082 0.12969099
1051 878 127 -0.67046708 -0.0082794847 0.74189311 0.15162671
968 915 69 -0.66202396 -0.21190047 0.7189036 0.12716994
1057 870 128 -0.65808964 0.011395345 0.75285327 0.14050975
991 894 73 -0.52070832 -0.092280373 0.84873265 0.10858162
952 943 65 -0.66905242 -0.32376623 0.66898751 0.13055316
982 900 72 -0.57222426 -0.250303 0.78096598 0.12929703
999 900 97 -0.52452296 -0.33531255 0.78258616 0.13694209
928 963 60 -0.54392815 -0.52174658 0.65720826 0.12273252
929 949 61 -0.59486729 -0.4223111 0.68394905 0.13017273
1082 858 145 -0.53401959 -0.063702531 0.8430689 0.11934359
1074 856 136 -0.62089062 -0.20575711 0.75641185 0.12698688
1063 848 124 -0.64213622 -0.1726665 0.74689174 0.12853089
1078 860 134 -0.59389466 -0.060138229 0.80229217 0.12489159
1083 866 139 -0.51841724 0.067586333 0.85245275 0.11282375
1081 862 136 -0.55174518 0.02049786 0.8337608 0.11532937
1077 859 131 -0.61083585 -0.088708565 0.78677213 0.12080021
1040 853 119 -0.6261211 -0.1669586 0.76164114 0.11128679
1076 857 147 -0.56845897 -0.14618161 0.80962044 0.13102898
1038 921 141 -0.67107916 -0.71437025 0.19831255 0.22667469
1079 912 123 -0.60015744 0.30305338 0.74024975 0.17861922
1000 957 133 -0.68132317 -0.30308831 0.6662854 0.10309366
986 897 86 -0.55488199 -0.31866586 0.76847774 0.13198212
952 961 54 -0.61826873 -0.42772281 0.65939128 0.14354546
952 933 56 -0.65367723 -0.23344311 0.7198683 0.12885256
989 913 86 -0.5380879 -0.29932219 0.78795153 0.13094689
1000 954 109 -0.56809318 -0.62788206 0.53200966 0.16625617
953 948 55 -0.63474333 -0.28645554 0.71766579 0.14181411
1063 849 161 -0.63167131 -0.42675853 0.64720052 0.18199657
1071 846 164 -0.55255377 -0.17384988 0.81514454 0.17264399
999 924 124 -0.57869267 -0.57711589 0.57623947 0.15909562
1056 871 156 -0.63737351 -0.39979002 0.65872824 0.16858536
1027 898 142 -0.61395729 -0.63539261 0.46832961 0.20453067
1015 903 137 -0.64233309 -0.58221442 0.49843207 0.16761138
1020 915 135 -0.55239999 -0.66465396 0.50308001 0.19470051
1071 875 160 -0.50484943 -0.052251898 0.86162454 0.15356238
1064 859 160 -0.61889869 -0.35429403 0.70102799 0.16015613
1057 881 155 -0.61846745 -0.23804654 0.74888712 0.18055597
1044 888 150 -0.69466984 -0.33316594 0.63752204 0.20135742
1017 920 133 -0.50505489 -0.70785731 0.49381945 0.18397765
1048 882 152 -0.66451359 -0.35881552 0.65549445 0.17680044
1041 894 148 -0.78807068 -0.40389669 0.46455586 0.21907681
1027 906 140 -0.63867939 -0.63431603 0.43558201 0.19200836
1009 920 130 -0.57358795 -0.64067787 0.51042026 0.16536024
1042 904 146 -0.78164953 -0.51279408 0.35505804 0.22428219
1011 928 127 -0.50355941 -0.66411853 0.552607 0.17006764
989 933 115 -0.60941821 -0.53166181 0.58817106 0.14952184
960 935 93 -0.68776709 -0.36121556 0.62968224 0.11087772
968 936 99 -0.70502651 -0.38383001 0.59633225 0.12159885
962 941 90 -0.6883868 -0.36127511 0.6289705 0.11946411
960 943 84 -0.67907721 -0.36840519 0.63492662 0.121494
967 931 102 -0.69910914 -0.39816913 0.59389216 0.12315646
963 944 87 -0.6893931 -0.35935625 0.62896764 0.12254195
993 931 118 -0.5814082 -0.52065718 0.62520444 0.14446039
948 936 76 -0.68980151 -0.31968325 0.64959711 0.12582856
997 929 121 -0.60724229 -0.55806446 0.56552702 0.15717538
954 940 80 -0.68819857 -0.35345072 0.633605 0.11812697
965 938 96 -0.70099354 -0.37901324 0.60411668 0.11443403
976 931 108 -0.65548694 -0.44405335 0.61086291 0.12582175
963 951 75 -0.67730069 -0.39476416 0.62082607 0.13976824
974 934 105 -0.67425543 -0.42441252 0.60436213 0.12362592
981 930 112 -0.62493283 -0.4773393 0.61774272 0.13572375
954 926 36 -0.57583672 -0.040527098 0.81655973 0.12371701
947 926 42 -0.60914445 -0.11716426 0.78435677 0.12320355
977 955 64 -0.67840409 -0.38730806 0.62430787 0.14558193
998 977 141 -0.64568925 -0.34510547 0.68116635 0.11933804
999 969 118 -0.66775262 -0.49734578 0.55385339 0.14613184
967 955 59 -0.6519208 -0.35556671 0.66975486 0.14856552
948 919 55 -0.64156526 -0.17489684 0.74686354 0.12871929
992 972 124 -0.66986257 -0.37651131 0.6399402 0.093497433
933 915 44 -0.66725206 -0.31509995 0.67489761 0.14434476
967 923 65 -0.66023517 -0.1915742 0.72621542 0.13027816
945 934 70 -0.68107235 -0.29645604 0.66951793 0.13105012
949 938 67 -0.67545569 -0.30634713 0.67075408 0.12978549
1008 974 136 -0.63803023 -0.38144737 0.66889113 0.093300968
992 952 70 -0.66165531 -0.30478027 0.68507016 0.1661391
954 922 33 -0.57487381 -0.0022933551 0.81823891 0.12512597
974 949 60 -0.68630731 -0.26775485 0.67623186 0.15011474
938 924 51 -0.64663601 -0.20706886 0.73415554 0.13018905
992 976 144 -0.64687973 -0.40249982 0.6477195 0.12665167
985 946 129 -0.69020545 -0.28100228 0.66682398 0.10391033
945 912 52 -0.65601659 -0.17289878 0.73467553 0.12803164
970 959 62 -0.66670972 -0.41400877 0.6197539 0.14692301
951 927 39 -0.58104891 -0.083245203 0.80960011 0.12324524
948 937 64 -0.6699003 -0.29657879 0.68064278 0.12930779
959 946 55 -0.63009357 -0.2151178 0.74612772 0.14498322
957 920 50 -0.6198619 -0.072814181 0.7813254 0.12394468
937 921 47 -0.62902147 -0.18151432 0.75589985 0.1337816
1063 857 117 -0.63724697 -0.044274058 0.76938689 0.11657675
1047 856 115 -0.61698014 -0.049080566 0.78544676 0.10524883
1031 880 88 -0.50892192 0.13799024 0.8496806 0.088778831
1000 944 79 -0.58257675 -0.40468833 0.70486289 0.1665846
990 948 77 -0.6501593 -0.38209173 0.65673345 0.15462695
1035 859 113 -0.59954429 -0.10495097 0.79343057 0.082021154
942 954 68 -0.65240568 -0.41502449 0.63413054 0.12892249
976 909 78 -0.6034596 -0.29137748 0.74225038 0.12653214
964 912 99 -0.63931245 -0.37343493 0.67218 0.12195522
1030 866 89 -0.54144329 0.13151899 0.83038658 0.083813019
1031 882 112 -0.58381116 -0.037049327 0.81104362 0.12473143
946 1000 87 -0.52530724 -0.57631463 0.62603021 0.10892019
936 948 16 -0.51616162 -0.0083480058 0.85645056 0.1317825
935 947 57 -0.61254567 -0.35124516 0.70810634 0.13133495
944 936 49 -0.62168235 -0.22059111 0.75156546 0.13430589
1001 942 77 -0.58014679 -0.36029726 0.73049003 0.16328496
981 940 101 -0.66651458 -0.44240654 0.60002899 0.14030056
970 1000 110 -0.63870192 -0.48032731 0.60112023 0.10617018
939 965 46 -0.55968606 -0.48524556 0.67177993 0.13200732
971 957 90 -0.69822758 -0.43975413 0.56488454 0.12987231
973 966 113 -0.68639058 -0.35592923 0.63417846 0.091737069
976 926 98 -0.65356457 -0.3705557 0.65995592 0.12038872
989 919 93 -0.54547566 -0.37101981 0.7515322 0.13360164
987 954 105 -0.66041803 -0.53368938 0.52822691 0.15790495
975 960 110 -0.69684392 -0.42841181 0.57521462 0.11932329
964 966 115 -0.6763103 -0.32295638 0.66204494 0.078901485
934 919 45 -0.65470302 -0.27979279 0.7021966 0.13527003
972 980 100 -0.66595113 -0.57121712 0.47981265 0.12626754
966 940 63 -0.65210545 -0.20903307 0.72874111 0.13860658
929 949 42 -0.55585867 -0.34292829 0.7572459 0.13680817
966 931 60 -0.65158987 -0.15751895 0.7420367 0.13093001
937 955 61 -0.61935228 -0.44315135 0.64808911 0.13009597
919 928 36 -0.56250477 -0.3504917 0.74882847 0.13768403
975 975 96 -0.67150342 -0.58973902 0.44865474 0.13733441
961 984 105 -0.6418587 -0.38307229 0.66428381 0.086978666
949 906 56 -0.64380169 -0.1375093 0.75273544 0.12512632
973 933 81 -0.68348795 -0.31957951 0.65628743 0.12865138
970 947 86 -0.68702471 -0.38150522 0.61842608 0.12974718
958 974 102 -0.68217081 -0.45190254 0.57482791 0.10327129
917 931 39 -0.55626291 -0.37251461 0.7428354 0.13537401
941 940 51 -0.64178121 -0.24002238 0.72835851 0.13843696
969 937 83 -0.68563622 -0.32888657 0.64941251 0.12805097
934 939 54 -0.64231795 -0.28375179 0.7119779 0.13505191
930 932 33 -0.59413689 -0.17540634 0.78500563 0.13219342
992 924 73 -0.58094704 -0.22923455 0.78099436 0.13429169
976 953 107 -0.70981264 -0.45444959 0.53818363 0.13669486
983 895 87 -0.56632251 -0.31926978 0.75983262 0.13005988
971 895 69 -0.54698259 -0.18085629 0.81737453 0.12853859
940 936 41 -0.61625457 -0.15682527 0.77177465 0.13319451
989 938 70 -0.61363977 -0.24710143 0.74992478 0.14995727
948 915 43 -0.60425055 -0.062787779 0.79431659 0.12854357
973 952 67 -0.67505878 -0.36318845 0.64217585 0.1451792
931 912 41 -0.66742194 -0.38190889 0.63929147 0.14585935
1044 877 125 -0.63385761 -0.049584176 0.77185875 0.13596486
1051 870 126 -0.65266794 -0.011033248 0.75756371 0.13481961
987 951 69 -0.67589128 -0.32613286 0.66091478 0.16156831
1016 895 98 -0.50867492 -0.14793836 0.84815329 0.12738182
925 935 39 -0.57626116 -0.27484667 0.76966387 0.13727224
930 954 37 -0.53016955 -0.34006619 0.77670789 0.13672562
1065 881 134 -0.59631556 0.084599711 0.79827982 0.14490749
1073 860 135 -0.62123907 -0.087077625 0.77876794 0.13095905
1060 863 157 -0.62329125 -0.44625315 0.64215744 0.14334443
1051 882 132 -0.66929162 -0.061961479 0.74041164 0.16955498
1037 885 154 -0.64992487 -0.53744113 0.537359 0.15596828
1002 984 146 -0.62881786 -0.37536788 0.68094569 0.11451887
1033 909 129 -0.62177861 -0.40234727 0.67194355 0.20877272
1037 870 108 -0.57149065 0.0039506545 0.82059914 0.10360694
1046 864 109 -0.58914715 0.034621816 0.8072837 0.096056946
1058 916 110 -0.53028876 0.26301795 0.80598724 0.19893381
1068 882 136 -0.57418251 0.084015079 0.8144052 0.14170428
1068 855 112 -0.6057232 -0.027614886 0.79519606 0.089914411
1030 878 107 -0.58124173 -0.0097319232 0.81367278 0.11029074
1000 908 102 -0.50812358 -0.38926446 0.76829916 0.13582923
1057 860 111 -0.60000485 0.050941214 0.79837281 0.10335179
945 987 90 -0.54736906 -0.55062747 0.63023525 0.11536613
932 962 30 -0.5128901 -0.42487583 0.7459386 0.14565589
1047 858 113 -0.60886604 -0.031186804 0.7926597 0.099324308
1071 916 123 -0.73763818 0.075799443 0.670928 0.22292565
1072 913 126 -0.70374447 0.1486108 0.69473636 0.21958166
1052 888 102 -0.51529878 0.189184 0.83586878 0.11490142
1064 913 120 -0.51804513 0.30779052 0.79805648 0.22046182
1060 914 117 -0.55699277 0.24717815 0.79288208 0.20591007
1052 883 104 -0.52983069 0.19272332 0.82591599 0.1137915
1054 912 113 -0.53052408 0.21668459 0.81950718 0.19601664
1056 932 104 -0.57743198 -0.64029258 0.50655478 0.22977197
1015 893 94 -0.51007736 -0.085102387 0.85590804 0.11526768
1055 931 106 -0.55511701 -0.73963064 0.38051489 0.23449233
1016 891 93 -0.51032066 -0.048189722 0.85863298 0.10702707
1049 877 119 -0.61338186 0.070807181 0.78660607 0.13119373
1029 872 122 -0.62417996 -0.18930656 0.75799894 0.11615415
1069 920 115 -0.68835407 0.061464634 0.72276616 0.21689737
1042 865 115 -0.62545604 -0.081476107 0.77599382 0.11538108
1042 877 121 -0.63066316 -0.051664311 0.77433515 0.13837259
1048 851 108 -0.58669263 -0.12789425 0.79964674 0.093236409
1068 860 107 -0.60474467 0.032812953 0.79574311 0.090672553
1036 848 109 -0.56514269 -0.15662353 0.80998945 0.083244532
1057 905 111 -0.57159519 0.1689848 0.80294645 0.17340755
1037 855 112 -0.5948571 -0.055643383 0.80190325 0.080083236
932 947 61 -0.5979445 -0.38991928 0.70030373 0.13430122
952 933 54 -0.64480257 -0.22331971 0.73099792 0.12862018
959 916 50 -0.60109687 -0.053255178 0.79739982 0.11520547
976 909 46 -0.56160486 -0.0093954615 0.82735223 0.099681579
930 928 36 -0.62441361 -0.19696216 0.75585282 0.13565846
972 964 58 -0.65931284 -0.45335746 0.59981132 0.15218079
922 960 66 -0.51781511 -0.50809377 0.68826461 0.11681587
909 940 43 -0.52957654 -0.4918842 0.6910851 0.12369353
943 912 51 -0.67049783 -0.21155581 0.71110958 0.12641343
930 956 64 -0.58048522 -0.46696588 0.667068 0.12356623
929 938 39 -0.569471 -0.21268199 0.79402083 0.13820678
940 960 42 -0.58034378 -0.39476094 0.71229553 0.14368717
947 970 40 -0.57787687 -0.48819795 0.65400392 0.1495617
945 956 37 -0.6081875 -0.23140861 0.75931412 0.14735469
1060 881 128 -0.63934231 0.056789756 0.76682228 0.14125516
1028 880 124 -0.60754466 -0.20316014 0.76786417 0.13428609
1064 845 129 -0.65935457 -0.15824854 0.73498905 0.13403279
1041 878 126 -0.67007327 -0.11672211 0.73306054 0.14116801
953 926 63 -0.66710782 -0.21400453 0.71356088 0.12903517
977 997 108 -0.66642255 -0.47476485 0.57487321 0.098634765
955 989 105 -0.64148337 -0.40410304 0.65207344 0.099881098
1076 862 138 -0.59356433 -0.031405121 0.80417359 0.12303137
1072 872 138 -0.59784228 0.033140842 0.80092829 0.12453036
996 945 79 -0.61135787 -0.41609842 0.6731298 0.1607587
1055 911 112 -0.54421192 0.20828877 0.81268024 0.18706326
1001 922 81 -0.53514212 -0.27727234 0.79796171 0.14022501
1008 942 81 -0.5456571 -0.43522373 0.71612751 0.16703115
1063 904 113 -0.61572909 0.147407 0.77404708 0.18099304
932 972 68 -0.52655631 -0.58414662 0.61766583 0.12748119
960 985 71 -0.53618002 -0.68689167 0.49060249 0.13479394
941 972 34 -0.52233452 -0.51784527 0.67749757 0.14963858
944 962 32 -0.593665 -0.28627807 0.75206828 0.15981573
1016 901 137 -0.63114643 -0.58433717 0.51010227 0.17003442
1027 903 140 -0.65149546 -0.6267308 0.42750704 0.19543499
1063 883 155 -0.54346144 -0.068905875 0.83660126 0.18332951
1010 917 129 -0.54391015 -0.66135997 0.51649266 0.16876969
1014 907 134 -0.59538019 -0.60821283 0.52497566 0.17515114
1045 894 148 -0.76380235 -0.37881094 0.52259755 0.216546
1031 899 142 -0.5921765 -0.61099374 0.52537006 0.21527776
1068 878 157 -0.52584702 -0.022678507 0.85027677 0.15236722
1056 886 153 -0.59851128 -0.185892 0.7792486 0.19142194
1040 898 145 -0.74745727 -0.48798838 0.45074931 0.21751194
1066 867 159 -0.60020107 -0.30460393 0.73957759 0.15823856
1063 855 159 -0.6220777 -0.39668158 0.67502809 0.15920494
1052 892 151 -0.63327128 -0.24660578 0.73358917 0.20694198
1014 914 132 -0.59028602 -0.66068918 0.46373725 0.18095537
959 920 101 -0.67344648 -0.36393479 0.64344484 0.12050255
969 920 107 -0.67555726 -0.39758325 0.62092668 0.12781794
949 929 83 -0.68560421 -0.30505621 0.66097474 0.11951983
954 923 95 -0.69109708 -0.32606211 0.6450336 0.12015944
977 913 116 -0.65545756 -0.4512333 0.60561031 0.12806195
968 924 104 -0.66399449 -0.36800119 0.65091199 0.12422566
950 932 79 -0.6801011 -0.31724387 0.66092277 0.12062585
957 929 92 -0.68430263 -0.32949975 0.65050739 0.12147602
952 927 89 -0.67576355 -0.299631 0.67347223 0.12189614
978 919 113 -0.64947969 -0.44261152 0.61828077 0.12801908
960 925 98 -0.68906379 -0.34643233 0.63653409 0.11901513
978 907 118 -0.62267596 -0.49117005 0.60911947 0.12961595
975 921 111 -0.66421241 -0.4339034 0.60872799 0.12285167
1005 920 126 -0.55585569 -0.60605752 0.56896287 0.15530622
946 924 85 -0.68870747 -0.32365113 0.64879262 0.1148753
1002 983 146 -0.63297951 -0.34566495 0.69271392 0.1128813
970 940 60 -0.651151 -0.19414541 0.73369616 0.1381384
996 972 124 -0.6673705 -0.34994403 0.65738565 0.086910062
969 933 33 -0.55935508 0.011877488 0.82884306 0.099561855
934 914 47 -0.67070973 -0.27619085 0.68837994 0.14279106
959 922 53 -0.63804758 -0.11676227 0.76109248 0.12248269
965 933 36 -0.56571084 0.0047633466 0.82458991 0.10695926
973 957 62 -0.6716674 -0.38269597 0.63435537 0.14927809
945 929 54 -0.63888615 -0.18624255 0.74641687 0.12910737
954 926 39 -0.57956707 -0.052125704 0.81325567 0.12283677
951 926 42 -0.59469235 -0.1023839 0.79740739 0.12394211
979 956 67 -0.67938465 -0.40090314 0.61458373 0.15104416
952 936 58 -0.64625531 -0.23182048 0.72705799 0.13052024
933 915 50 -0.66960615 -0.31152508 0.67422527 0.13971402
957 943 65 -0.66979373 -0.2881611 0.68435341 0.13740234
1005 974 139 -0.62338519 -0.37979132 0.6834833 0.10647143
948 915 55 -0.65863246 -0.19154784 0.72767621 0.13011879
946 923 45 -0.612248 -0.12680638 0.78043097 0.12527052
970 943 63 -0.67918593 -0.23941904 0.69381911 0.14374691
974 900 73 -0.61491317 -0.35286158 0.70524496 0.13270162
1018 880 97 -0.53468853 -0.0091083664 0.84500015 0.092579499
1005 941 122 -0.60168093 -0.57951093 0.54967916 0.16475362
1021 892 100 -0.50430763 -0.046859145 0.86225164 0.11855531
1005 934 119 -0.56686407 -0.60521078 0.55891424 0.15941916
976 932 69 -0.67437088 -0.23401549 0.70032895 0.13461207
972 923 66 -0.64703262 -0.19073366 0.73822045 0.13167606
1012 892 102 -0.5257014 -0.2118022 0.82387978 0.12006139
993 885 83 -0.51546776 -0.1186762 0.84865129 0.11916824
967 913 62 -0.626037 -0.12768756 0.76926816 0.12658584
1003 931 98 -0.52113861 -0.48564377 0.70182949 0.15289836
970 890 70 -0.50465912 -0.10208398 0.85726196 0.13258488
1004 925 116 -0.50661939 -0.58509642 0.63324469 0.15500045
1009 958 129 -0.61170977 -0.50533032 0.60864812 0.14570612
1001 964 135 -0.65228677 -0.35064691 0.67198861 0.10028476
996 953 131 -0.68184423 -0.29505661 0.66935045 0.1035092
985 923 80 -0.59752595 -0.26160553 0.75797445 0.13307798
1004 946 125 -0.58416975 -0.56758392 0.58016735 0.16508158
975 908 76 -0.61731303 -0.27804905 0.73594391 0.12737402
924 939 27 -0.51933467 -0.19422208 0.83220744 0.13452892
910 946 45 -0.51295543 -0.4808031 0.71112949 0.12647599
914 952 49 -0.50779939 -0.48179483 0.71415228 0.12716976
929 972 70 -0.50100255 -0.60174549 0.62201184 0.12366325
915 942 36 -0.51166421 -0.36595246 0.77735353 0.13415551
918 937 29 -0.51285475 -0.26754466 0.8157205 0.1373679
927 971 66 -0.50610775 -0.5816713 0.63679945 0.12415291
918 948 39 -0.51658052 -0.41351917 0.74976432 0.13359243
945 958 47 -0.61017638 -0.33993667 0.71563107 0.14710578
926 969 63 -0.51297337 -0.57320333 0.63898051 0.1208198
930 964 43 -0.50326478 -0.50837576 0.69876945 0.12708417
915 938 32 -0.51785189 -0.3455565 0.78257281 0.13519177
928 970 73 -0.51283121 -0.58512151 0.62820143 0.12357879
998 925 98 -0.56098652 -0.44490978 0.6981042 0.14392161
935 940 21 -0.56152153 -0.042472169 0.82637137 0.13212924
992 964 113 -0.65406936 -0.51935881 0.54996347 0.16041169
983 947 89 -0.67268753 -0.42744237 0.60397387 0.14613527
988 952 109 -0.63390869 -0.53938341 0.55427915 0.1626002
952 906 61 -0.65525484 -0.19074099 0.73093027 0.12391739
998 916 95 -0.52642673 -0.38008717 0.76053178 0.13581045
981 977 101 -0.6928435 -0.54954225 0.46687385 0.12703606
965 957 57 -0.63862085 -0.36109236 0.67954081 0.15108716
936 944 44 -0.60812706 -0.23854049 0.7571525 0.14093684
987 926 80 -0.60038805 -0.29641354 0.74274707 0.13341737
927 928 40 -0.60124457 -0.25661707 0.75673813 0.13346207
983 939 86 -0.64923197 -0.38891169 0.65364027 0.14433572
986 908 74 -0.5543651 -0.2575607 0.79141766 0.12501724
976 949 91 -0.71310419 -0.40292671 0.57370073 0.12441535
980 893 71 -0.53787303 -0.10106491 0.83694589 0.11832178
944 940 38 -0.6147446 -0.12638152 0.77853507 0.13212459
992 895 69 -0.52146262 -0.084936753 0.84903622 0.10874916
990 936 103 -0.59317237 -0.48723468 0.64089698 0.14919075
975 963 117 -0.66244024 -0.35194555 0.66129214 0.08482939
982 985 105 -0.6537931 -0.59170991 0.47162902 0.11615359
987 917 77 -0.56401783 -0.21042104 0.7985028 0.13013679
983 938 105 -0.62047815 -0.48382089 0.61719066 0.14442562
936 946 24 -0.55521142 -0.064530246 0.82920206 0.13220719
946 925 50 -0.63318586 -0.1552528 0.75826925 0.12705103
992 929 100 -0.56810188 -0.46381575 0.67980528 0.14358751
981 929 82 -0.62236953 -0.31261563 0.71758461 0.13464914
974 935 65 -0.66413534 -0.2071621 0.71833706 0.13838625
955 941 53 -0.63172722 -0.20117888 0.74863052 0.13514869
979 960 95 -0.71995115 -0.46291432 0.51708859 0.13560034
961 971 106 -0.69583189 -0.38523811 0.60614312 0.10072298
977 965 98 -0.7203415 -0.46860203 0.51139045 0.12776314
986 966 115 -0.66570967 -0.43060625 0.60943323 0.12063864
974 943 68 -0.68704718 -0.28599739 0.66796076 0.13811475
1003 883 85 -0.51383078 -0.051382676 0.85635149 0.11141846
1020 879 81 -0.50054497 0.063128062 0.86340582 0.086110301
1006 876 83 -0.51099437 -0.0085589811 0.85954142 0.097069383
1027 883 116 -0.58118474 -0.099891476 0.80761749 0.12517895
1065 860 121 -0.62734425 -0.0058915461 0.77871972 0.12497304
1079 914 122 -0.58861333 0.32555199 0.73996639 0.18725494
994 939 109 -0.57878155 -0.54360414 0.6078704 0.15975189
1007 937 111 -0.57059842 -0.59989029 0.56084669 0.15886584
926 947 40 -0.53208321 -0.31283322 0.78678 0.13942514
951 935 53 -0.63816905 -0.22432368 0.73649108 0.12623745
963 942 73 -0.68091697 -0.33357903 0.65197939 0.13508552
961 913 46 -0.59627825 -0.018841594 0.80255669 0.11118668
948 981 87 -0.57779408 -0.57757497 0.57668114 0.12142404
951 973 84 -0.62353504 -0.53652638 0.56863302 0.13420019
933 948 60 -0.59332913 -0.39075196 0.70375663 0.13491622
955 949 56 -0.62556773 -0.29327297 0.72294939 0.14119303
970 928 68 -0.66191119 -0.2066554 0.72053254 0.13269447
961 908 65 -0.64363134 -0.22093762 0.73275185 0.12739052
934 987 92 -0.56115109 -0.39502859 0.72736651 0.072338976
947 921 50 -0.63845986 -0.17039047 0.75055712 0.12908943
938 963 63 -0.59451085 -0.49134797 0.63650143 0.12397372
956 957 78 -0.65931243 -0.42311218 0.62151676 0.13659775
955 999 91 -0.55423939 -0.55605781 0.61936933 0.12501344
956 968 81 -0.63875097 -0.49244818 0.59117842 0.13656305
936 938 35 -0.58908254 -0.11880577 0.79929149 0.13762005
937 972 66 -0.56675869 -0.56226653 0.60219675 0.13050066
929 941 37 -0.56327504 -0.19799206 0.80219716 0.13839602
974 962 62 -0.66102439 -0.44858533 0.60151297 0.15721008
999 957 66 -0.62991679 -0.25761163 0.73269445 0.18219784
982 955 64 -0.67730349 -0.36651483 0.63790816 0.15610223
971 974 60 -0.58191407 -0.60659313 0.54168326 0.1639798
1055 915 113 -0.53656566 0.20881978 0.81761336 0.21691771
1053 885 113 -0.57465136 0.17140746 0.80024707 0.13658132
1062 907 114 -0.62107021 0.13656417 0.77176547 0.18980302
1080 869 139 -0.54213858 0.045825653 0.83903855 0.11988565
1070 875 138 -0.58783376 0.043595258 0.80780619 0.13353363
1035 871 87 -0.53901792 0.1433453 0.83000714 0.088176027
1004 886 83 -0.51123834 -0.055109143 0.85767031 0.1016202
947 946 72 -0.670201 -0.37764204 0.6389187 0.12400366
942 972 70 -0.58197463 -0.56013447 0.58953792 0.12994669
969 939 76 -0.68091738 -0.31499329 0.66115862 0.13394265
950 964 72 -0.65194267 -0.4622696 0.60106367 0.13684531
1003 913 82 -0.50423592 -0.26253542 0.82269144 0.1350908
1040 887 119 -0.60646999 -0.011929402 0.79501683 0.1523322
1060 891 122 -0.63644493 0.14514787 0.75754201 0.15820657
1061 864 122 -0.63194418 0.0061792554 0.77498931 0.12769087
1056 873 122 -0.62131608 0.08108975 0.77935284 0.12876603
1074 847 124 -0.61660451 -0.098098516 0.78113741 0.11100525
1001 952 112 -0.56645983 -0.62315714 0.53925729 0.17246495
1003 940 113 -0.58863461 -0.59751314 0.54450655 0.16792628
1059 884 130 -0.63927001 0.031081168 0.768354 0.16377275
1009 893 99 -0.54544544 -0.23354101 0.80495209 0.12601765
1071 880 132 -0.57689822 0.12383125 0.80737489 0.11877856
950 976 40 -0.55428773 -0.55643511 0.61898714 0.16100188
1006 960 72 -0.57080674 -0.5937801 0.56710213 0.18215081
967 937 68 -0.67399991 -0.2408538 0.69836497 0.13484921
1047 884 124 -0.63053483 -0.067159995 0.77324986 0.14943416
1059 880 125 -0.65483153 0.067162678 0.75278473 0.1387182
967 953 64 -0.66385585 -0.37184265 0.64886701 0.14593031
1002 956 68 -0.6264866 -0.34886089 0.6970011 0.18203963
986 898 70 -0.54410684 -0.16503757 0.82262409 0.1183017
979 906 69 -0.61466479 -0.24054067 0.75121719 0.13190064
940 940 61 -0.65286702 -0.29796445 0.69640642 0.13466616
978 919 68 -0.63697237 -0.19587222 0.74558723 0.13343963
998 895 71 -0.51182795 -0.085166097 0.85485607 0.10788874
931 960 58 -0.55612981 -0.50061893 0.66340053 0.12270982
951 959 85 -0.66342413 -0.44201586 0.60373038 0.13220142
953 938 27 -0.57738763 0.014618618 0.81633919 0.11771359
949 939 30 -0.57446909 -0.0086179338 0.81848097 0.11725604
985 976 114 -0.65922886 -0.41293755 0.62841058 0.096249022
934 949 68 -0.63739818 -0.41478953 0.64936364 0.12833808
960 951 53 -0.63103288 -0.26461411 0.72923034 0.1453082
972 968 58 -0.60854489 -0.52121001 0.59834206 0.16482298
940 937 36 -0.60194814 -0.092574775 0.7931509 0.13102442
944 926 46 -0.62428272 -0.1653273 0.76350373 0.12688085
936 924 49 -0.63577056 -0.21396546 0.74162972 0.13049985
919 922 41 -0.56932408 -0.41896063 0.70734859 0.13775456
943 956 75 -0.65296859 -0.42442235 0.62729388 0.12253667
943 952 49 -0.63005602 -0.28005245 0.72429281 0.14218606
938 952 65 -0.64421499 -0.42079237 0.63868684 0.13049249
932 938 45 -0.60835266 -0.23186474 0.75904274 0.13687421
957 971 63 -0.58533585 -0.57164091 0.57498574 0.14768977
953 966 56 -0.6016553 -0.49566752 0.62635821 0.14181523
917 918 38 -0.5765118 -0.49942157 0.64669329 0.14456822
953 967 59 -0.60695404 -0.51913303 0.60175389 0.14143135
953 964 52 -0.61411089 -0.42439064 0.66540241 0.14647469
941 934 33 -0.5889715 -0.069502667 0.80515957 0.1320601
980 976 117 -0.66791457 -0.37935469 0.640297 0.08646591
984 911 85 -0.57593274 -0.32157815 0.75159103 0.1300444
992 964 104 -0.64697576 -0.56287831 0.51438349 0.15463218
999 924 106 -0.54771501 -0.47722587 0.68721449 0.14579499
991 976 111 -0.66836232 -0.49103716 0.55872554 0.14014366
988 930 111 -0.61736506 -0.50242531 0.60533392 0.14985301
956 933 44 -0.5992198 -0.099340759 0.79439723 0.12414383
997 977 129 -0.66332221 -0.40695158 0.62800789 0.10587554
993 950 118 -0.56723052 -0.56543535 0.59877568 0.16014165
998 906 100 -0.5276497 -0.37884724 0.76030296 0.13586724
963 918 72 -0.67035335 -0.25608921 0.69645149 0.12405754
993 903 80 -0.54042929 -0.2531029 0.80241829 0.13376905
961 930 59 -0.64034313 -0.15260532 0.75277632 0.13098939
1000 890 95 -0.52189976 -0.25061804 0.81535959 0.12827036
984 919 88 -0.58969796 -0.33171871 0.73635519 0.12906983
991 925 108 -0.58885854 -0.47682744 0.65259576 0.14850394
1001 918 104 -0.52238005 -0.44647819 0.72648221 0.14673199
992 942 115 -0.60742849 -0.54712903 0.57591695 0.15336344
992 942 95 -0.60130632 -0.49587053 0.62653261 0.15549281
1001 882 92 -0.51069295 -0.12161921 0.85111779 0.11468161
956 919 56 -0.65372562 -0.12616669 0.74613988 0.12289575
984 903 82 -0.56763852 -0.3113423 0.76213682 0.13110967
996 969 125 -0.66306198 -0.37007481 0.65068698 0.088529199
971 918 70 -0.66522843 -0.22088282 0.7132194 0.12169328
974 914 67 -0.63619715 -0.20961322 0.74250621 0.12438264
981 912 65 -0.61983913 -0.20102963 0.75854236 0.1297451
992 949 98 -0.60839069 -0.53928238 0.58226728 0.15680429
998 963 122 -0.65322912 -0.46601057 0.59676284 0.12879269
936 963 30 -0.52645081 -0.39154673 0.75467926 0.15157215
1037 870 102 -0.55491728 0.056283228 0.82999945 0.085728884
1058 930 103 -0.58146435 -0.12943478 0.80320966 0.21853217
1060 917 104 -0.50290751 0.20853612 0.83880675 0.18093696
996 932 95 -0.59009516 -0.45059261 0.669891 0.15235509
1058 874 129 -0.65650654 0.017088281 0.75412679 0.13914357
1029 877 101 -0.56703866 0.040802702 0.82267994 0.10278926
1049 866 104 -0.58463919 0.091272302 0.80614287 0.084574953
1080 906 131 -0.55729789 0.24256508 0.79409146 0.15917581
971 938 91 -0.69630748 -0.34474084 0.62953126 0.12768286
1060 918 118 -0.74157292 -0.018425733 0.67061919 0.23535061
1053 885 118 -0.6068126 0.096996948 0.78890437 0.15243666
957 946 54 -0.62989426 -0.2275033 0.74261397 0.14196149
933 981 93 -0.56333029 -0.41202429 0.71616685 0.070509844
998 978 130 -0.65675402 -0.41562369 0.6292305 0.096640363
992 958 130 -0.68860823 -0.309596 0.65572035 0.09257903
1046 922 140 -0.72582746 -0.63211662 0.27129868 0.22951734
986 919 83 -0.58242482 -0.27973035 0.76323795 0.13151225
1068 911 119 -0.56908351 0.24346602 0.78540957 0.20445988
994 912 85 -0.52687091 -0.28798538 0.79966956 0.13302484
970 973 54 -0.5493238 -0.57582647 0.60553044 0.16716869
1074 874 134 -0.58979851 0.063428812 0.80505556 0.12317358
1054 898 131 -0.6728251 0.0099595916 0.73973459 0.21224092
1016 982 147 -0.59652877 -0.35378605 0.72040886 0.094667599
987 947 72 -0.6692571 -0.33109099 0.66518706 0.15680778
963 964 45 -0.58270556 -0.39142978 0.71220577 0.16003838
939 954 42 -0.5850417 -0.31613809 0.74684858 0.13749005
981 927 73 -0.6280809 -0.25287458 0.73591363 0.13601696
949 980 41 -0.54152858 -0.60128415 0.58754081 0.15579973
1081 864 146 -0.51682162 -0.003989283 0.85608381 0.11754754
973 936 61 -0.65897381 -0.17818007 0.73075676 0.13682109
1001 905 66 -0.51058269 -0.08685293 0.85543078 0.099276043
965 957 58 -0.64195108 -0.35902691 0.67749429 0.15192194
965 972 57 -0.56786633 -0.56938636 0.59441316 0.1539205
1012 943 89 -0.50964683 -0.49906301 0.70085394 0.17681311
979 899 64 -0.589692 -0.16401666 0.79079825 0.1262245
970 948 59 -0.67057925 -0.26225585 0.69393468 0.14741293
968 917 61 -0.63642353 -0.16162379 0.75421673 0.12645793
1085 923 123 -0.64845091 0.19381511 0.73617065 0.19239503
967 902 62 -0.61265779 -0.18932186 0.76733804 0.12794113
1051 880 119 -0.62147629 0.089138694 0.77834541 0.14316775
926 962 52 -0.50725073 -0.51952982 0.68759394 0.12278939
1048 867 105 -0.57814503 0.076597892 0.81233066 0.085790567
1056 930 105 -0.59388566 -0.48874533 0.6390835 0.23688129
1088 914 134 -0.52106667 0.3131094 0.7940101 0.1678585
1061 919 106 -0.51219165 0.19274087 0.83696514 0.19490984
1036 884 103 -0.54362869 0.088404678 0.83465707 0.12605144
1060 876 131 -0.64989257 0.024776893 0.75962216 0.14607061
987 939 95 -0.60869205 -0.44812542 0.65473485 0.150508
1060 853 160 -0.62914598 -0.45688364 0.62883437 0.16516493
1065 884 161 -0.53662503 -0.12769713 0.83410251 0.1857314
1040 904 133 -0.71196711 -0.27489504 0.6461699 0.22348507
1079 854 138 -0.60010946 -0.14601135 0.78647906 0.12136213
1038 917 132 -0.65156871 -0.56921113 0.50145489 0.2112619
1047 882 134 -0.70564818 -0.12225389 0.697936 0.16963378
1075 878 138 -0.57456785 0.097087033 0.81267822 0.12299631
971 889 78 -0.58416945 -0.20870765 0.78433871 0.14010699
950 930 70 -0.6719135 -0.27003923 0.68964559 0.12425788
