# .PCD v0.7 - Point Cloud Data file format
VERSION 0.7
FIELDS x y z normal_x normal_y normal_z curvature
SIZE 4 4 4 4 4 4 4
TYPE F F F F F F F
COUNT 1 1 1 1 1 1 1
WIDTH 785
HEIGHT 1
VIEWPOINT 0 0 0 1 0 0 0
POINTS 785
DATA ascii
2574 -271 -55 -0.75680119 -0.55072892 0.35206473 0.076608881
2575 -293 -180 -0.86802238 -0.11187397 -0.48375744 0.12234341
2566 -253 -179 -0.58498532 0.57754791 -0.56941247 0.091202207
2586 -312 -137 -0.93817711 -0.32296199 0.12457626 0.13382599
2596 -327 -137 -0.99707538 0.052431628 0.055602904 0.16762941
2548 -238 -95 -0.99021083 -0.070069961 -0.12071743 0.10527003
2561 -279 -179 -0.82751679 0.095635802 -0.55323571 0.094192833
2555 -226 -95 -0.88779062 0.41355518 -0.20198983 0.1177597
2591 -360 -181 -0.72139448 -0.18607897 -0.66705662 0.11862399
2595 -348 -182 -0.72353911 -0.25506428 -0.6414308 0.1179485
2571 -319 -180 -0.90651172 -0.32733622 -0.26662242 0.13606167
2558 -264 -95 -0.91521722 -0.39386097 -0.085152961 0.077327333
2568 -362 -136 -0.86244166 0.1036449 -0.49543124 0.10956065
2564 -291 -96 -0.85561967 -0.51676726 0.029436545 0.056584343
2558 -277 -95 -0.89195883 -0.44937009 -0.049758129 0.062818401
2554 -251 -95 -0.95532995 -0.28391096 -0.082093097 0.08970242
2555 -256 -54 -0.88664347 -0.43663511 0.1523585 0.072342999
2623 -337 -98 -0.73759264 -0.23290464 0.63380802 0.21298517
2578 -305 -96 -0.81439674 -0.57350981 0.088568993 0.10977651
2581 -318 -96 -0.96677446 -0.25441 -0.024952045 0.21767388
2564 -266 -179 -0.70352346 0.38307062 -0.59859139 0.086577147
2553 -404 -96 -0.9883619 -0.04898658 0.1440175 0.11089991
2604 -437 -13 -0.74683917 -0.21290605 0.6300019 0.16610068
2595 -374 -182 -0.74360031 0.2582683 -0.61673021 0.098699383
2561 -410 -55 -0.95976388 -0.073371284 0.27105343 0.085329838
2557 -379 -96 -0.99107432 0.070652544 0.11304817 0.12794714
2565 -385 -55 -0.96204227 0.036013376 0.27051377 0.084115677
2573 -389 -137 -0.85723251 0.09514685 -0.50606269 0.11203994
2594 -409 -13 -0.78843069 -0.026230248 0.61456406 0.12963608
2559 -393 -96 -0.99228376 -0.08691033 0.088428557 0.13048504
2562 -367 -96 -0.9342916 0.34108293 0.10373884 0.14142817
2572 -399 -56 -0.95603627 -0.049241766 0.28908464 0.08438006
2570 -375 -137 -0.84355056 0.21225023 -0.49332774 0.099751174
2596 -397 -12 -0.77776098 0.02637987 0.62800634 0.13762598
2601 -423 -13 -0.7713635 -0.14891173 0.61872751 0.15754819
2712 -371 -247 -0.689408 -0.6642912 -0.288849 0.14522351
2631 -299 -237 -0.5853985 -0.028244551 -0.81025356 0.10269402
2586 -271 -191 -0.65516222 0.25370866 -0.71161389 0.10522373
2571 -227 -103 -0.59458345 0.75532287 -0.27560455 0.1329812
2573 -242 -104 -0.96543282 -0.16143064 -0.20464483 0.15317233
2660 -340 -198 -0.59674841 -0.68914431 -0.41106129 0.26099008
2580 -256 -104 -0.85873729 -0.46464163 -0.21605211 0.14337282
2603 -302 -193 -0.73752195 -0.27997467 -0.61455321 0.12313841
2635 -321 -196 -0.71328849 -0.55173808 -0.43220893 0.15936001
2591 -286 -192 -0.73473799 0.042575549 -0.67701358 0.10855115
2671 -334 -242 -0.64412344 -0.61654568 -0.45274317 0.10476603
2650 -353 -198 -0.54918003 -0.1619921 -0.8198536 0.22040629
2693 -353 -245 -0.55114585 -0.71399885 -0.43179145 0.11073479
2629 -314 -238 -0.76464874 -0.38650191 -0.51568264 0.20540152
2588 -256 -190 -0.51842427 0.53282064 -0.66883367 0.094844833
2648 -369 -199 -0.56146497 0.031952381 -0.82688332 0.13058294
2613 -358 -152 -0.75394547 0.39725465 -0.52321613 0.11316812
2595 -287 -106 -0.85633135 -0.50025588 -0.12822127 0.14242847
2598 -311 -149 -0.79098505 -0.61168915 0.013378334 0.15199199
2628 -381 -198 -0.59385437 0.083379373 -0.80024058 0.083407745
2606 -387 -152 -0.81513321 0.29396501 -0.49914163 0.15578298
2612 -373 -152 -0.80027336 0.3160575 -0.50957841 0.12096637
2581 -424 -49 -0.91242242 -0.29531759 0.28332454 0.12424785
2604 -447 -9 -0.72955227 -0.33669502 0.59530652 0.13345988
2597 -432 -9 -0.77205282 -0.21895577 0.59665138 0.14488752
2587 -399 -50 -0.93968892 0.0010988982 0.34202853 0.13426863
2558 -412 -92 -0.98021257 -0.079861857 0.18112287 0.11825022
2563 -387 -93 -0.99271679 -0.049677625 0.10975174 0.12707615
2572 -402 -93 -0.98745245 -0.037643064 0.15336438 0.13625768
2581 -411 -50 -0.93845987 -0.16043779 0.3058641 0.1072149
2573 -247 -96 -0.9288801 -0.34994251 -0.12133427 0.12398075
2595 -327 -95 -0.89195037 -0.029903021 0.45114341 0.23814349
2549 -270 -94 -0.91645378 -0.39753982 -0.045548156 0.061598014
2564 -279 -52 -0.7697078 -0.55440533 0.31651926 0.05459664
2577 -312 -95 -0.83593971 -0.54019153 0.096943364 0.14385398
2552 -257 -95 -0.94315398 -0.32509407 -0.06909658 0.087079585
2552 -252 -52 -0.88533622 -0.43959185 0.15145521 0.07986024
2565 -266 -52 -0.80960596 -0.52180153 0.2688148 0.076469943
2550 -399 -104 -0.99789625 -0.064805761 0.0018318071 0.13030738
2570 -363 -105 -0.86010981 0.50396454 -0.078935586 0.14702095
2598 -315 -107 -0.64875591 -0.74815661 0.13920328 0.16118737
2570 -389 -105 -0.98601574 -0.13817111 -0.093175016 0.15110542
2586 -400 -62 -0.96095526 -0.0496994 0.27220398 0.14323549
2583 -425 -62 -0.94065899 -0.26220739 0.21542509 0.14750989
2578 -282 -64 -0.75312543 -0.59526312 0.28011414 0.070533782
2572 -377 -105 -0.9392336 0.3419438 -0.030243805 0.16717541
2600 -420 -22 -0.83421266 -0.23328899 0.49966544 0.16472188
2607 -395 -22 -0.78936851 0.20212531 0.57969189 0.18776777
2580 -412 -62 -0.95281214 -0.2033406 0.22539212 0.11560012
2600 -407 -22 -0.85674959 -0.092763446 0.50732148 0.14657235
2597 -302 -107 -0.71044177 -0.69063962 0.13523836 0.1713073
2587 -387 -62 -0.9323169 0.2158415 0.29016823 0.14808966
2569 -268 -63 -0.85391718 -0.49474326 0.16141446 0.0757984
2556 -242 -64 -0.9328329 -0.35647577 0.052420389 0.085975543
2562 -255 -64 -0.90138578 -0.42600575 0.077606604 0.078300558
2564 -248 -107 -0.96358007 -0.21390593 -0.16049242 0.11885955
2550 -259 -106 -0.93889195 -0.32691485 -0.10774327 0.10446883
2571 -369 -105 -0.8319003 0.55355465 -0.038976885 0.15873112
2605 -322 -106 -0.77966195 -0.60619563 0.1570164 0.19821037
2561 -257 -63 -0.90151006 -0.42381012 0.08754798 0.074698955
2585 -308 -190 -0.80895346 -0.27484313 -0.51966876 0.13344206
2595 -308 -106 -0.74415511 -0.65604043 0.12587339 0.15573224
2619 -338 -192 -0.60329956 -0.35405409 -0.71461552 0.12989397
2549 -243 -63 -0.93793267 -0.3396399 0.070192426 0.08054509
2570 -271 -64 -0.84280765 -0.51135004 0.16791776 0.070463881
2639 -355 -194 -0.61495912 -0.045282621 -0.78725779 0.163067
2595 -379 -147 -0.807616 0.33641484 -0.48433617 0.12120005
2560 -252 -104 -0.9589259 -0.25442711 -0.12541115 0.10797422
2615 -378 -193 -0.67496693 0.13634653 -0.72514081 0.10287271
2579 -294 -189 -0.8114922 -0.084342293 -0.57824457 0.12437618
2575 -320 -189 -0.84355259 -0.37808511 -0.38140619 0.13498452
2565 -272 -144 -0.97519779 -0.060940873 -0.21278039 0.11697362
2629 -366 -194 -0.63492161 0.094448641 -0.76678163 0.11880904
2575 -281 -189 -0.75454354 0.096740641 -0.6490804 0.091494165
2591 -327 -146 -0.99996781 0.0038632338 0.0070385984 0.16101722
2591 -366 -147 -0.81434602 0.30283383 -0.4951084 0.10548672
2562 -265 -104 -0.90420389 -0.41434467 -0.10360393 0.088933021
2594 -286 -64 -0.56337315 -0.7026155 0.4346748 0.093111098
2573 -268 -188 -0.68468797 0.31408954 -0.65768546 0.093062274
2571 -412 -65 -0.95103538 -0.14629772 0.27226582 0.11281289
2606 -390 -192 -0.71384764 0.18298016 -0.67597318 0.12133025
2572 -382 -106 -0.98484302 0.14502315 -0.095144816 0.16956607
2588 -392 -147 -0.84996992 0.049194984 -0.52452928 0.13822046
2577 -387 -65 -0.9646256 0.077910937 0.25184789 0.10496187
2602 -424 -22 -0.81327164 -0.24868478 0.52606565 0.18226147
2572 -395 -106 -0.92813104 -0.34182054 -0.1474158 0.15617371
2577 -400 -65 -0.96597606 -0.04953143 0.25384429 0.12126344
2601 -411 -22 -0.84832937 -0.17512032 0.49967006 0.15264687
2600 -398 -22 -0.84995157 0.014340951 0.52666557 0.14458618
2635 -420 20 -0.5002616 0.0083584394 0.86583394 0.17471772
2570 -390 -61 -0.96590465 0.022709778 0.25789997 0.094016686
2562 -397 -104 -0.98843563 -0.14573207 -0.041919425 0.13785602
2596 -323 -104 -0.92060453 -0.32730356 0.21297805 0.23338088
2596 -297 -103 -0.7514959 -0.65414912 0.085690431 0.15375747
2575 -274 -59 -0.76993579 -0.55906492 0.30764472 0.072683476
2557 -246 -58 -0.90771675 -0.40793678 0.098172545 0.083525568
2584 -308 -103 -0.78059798 -0.6171329 0.099064089 0.13522629
2556 -233 -58 -0.932796 -0.35660219 0.052216157 0.11120994
2563 -267 -102 -0.9050774 -0.41576961 -0.089277901 0.083703004
2553 -369 -103 -0.97234887 0.23352221 0.0022453726 0.13277915
2563 -260 -59 -0.86143321 -0.4813827 0.16187519 0.075175859
2577 -404 -61 -0.95938003 -0.12331036 0.253741 0.10493168
2602 -284 -103 -0.84159017 -0.46074969 -0.28184333 0.1830744
2559 -383 -103 -0.99586582 0.090699427 -0.0049797776 0.14551817
2555 -240 -101 -0.9871068 -0.021142432 -0.15866096 0.11628591
2550 -253 -101 -0.95878178 -0.26381168 -0.10555076 0.0955735
2544 -407 -103 -0.99375844 0.022852359 0.10918736 0.12593932
2563 -415 -61 -0.95512277 -0.057923224 0.29049164 0.09934999
2586 -413 -21 -0.88614863 -0.13308011 0.44388092 0.11464129
2585 -439 -22 -0.85932243 -0.24558592 0.44861183 0.12844208
2583 -425 -21 -0.8813234 -0.16591278 0.44242731 0.11704823
2736 -366 -256 -0.5813818 -0.59883654 -0.55080849 0.16426609
2643 -346 -205 -0.55516016 -0.41997787 -0.71792471 0.1381948
2653 -326 -248 -0.70780724 -0.64967096 -0.2773743 0.19945499
2566 -272 -157 -0.9354586 0.086674564 -0.34264365 0.11883436
2597 -285 -201 -0.67225379 0.10720709 -0.73251718 0.092223816
2574 -243 -73 -0.90779382 -0.41665637 -0.048040759 0.12792182
2593 -299 -73 -0.57710445 -0.70861101 0.40598133 0.10459408
2572 -257 -73 -0.8837415 -0.46787253 -0.0098173479 0.10952748
2617 -326 -117 -0.63674295 -0.76587969 0.089368701 0.21093144
2602 -299 -202 -0.67789394 -0.11526684 -0.72606701 0.10037845
2578 -253 -115 -0.83551484 -0.49895811 -0.23012099 0.18633634
2576 -270 -73 -0.86606455 -0.49817121 0.04192343 0.088999286
2603 -331 -160 -0.94530684 -0.23250066 -0.22877613 0.17874962
2606 -313 -202 -0.66505766 -0.37002334 -0.64867628 0.099569306
2578 -324 -200 -0.71341109 -0.3360005 -0.6149376 0.12652069
2640 -311 -246 -0.61688888 0.22843127 -0.75317144 0.19679758
2590 -285 -73 -0.66640764 -0.67518598 0.31626692 0.097277232
2578 -259 -158 -0.54553854 0.70073915 -0.45973083 0.10171156
2691 -345 -251 -0.54314315 -0.76445472 -0.34728149 0.13020502
2597 -271 -201 -0.56056458 0.27947283 -0.77952695 0.097722188
2573 -266 -114 -0.89201289 -0.41497284 -0.17919406 0.12048513
2595 -381 -74 -0.75033814 0.57798582 0.32081923 0.19125
2624 -385 -204 -0.57091737 0.022545723 -0.82069784 0.077165753
2583 -420 -74 -0.92373806 -0.3390018 0.17828569 0.17899165
2656 -362 -206 -0.54735076 -0.17726259 -0.81791508 0.16817644
2580 -376 -116 -0.85226172 0.43453467 -0.29125535 0.17130189
2588 -408 -74 -0.9526993 -0.24625807 0.17810389 0.17654452
2571 -402 -115 -0.86826998 -0.37030214 -0.33012646 0.16306338
2579 -389 -116 -0.90827245 -0.13678923 -0.39538565 0.18340074
2649 -375 -206 -0.5152269 -0.093638584 -0.85192311 0.11520034
2595 -385 -160 -0.80144876 0.28445154 -0.52608675 0.11775077
2595 -371 -160 -0.78713053 0.27147862 -0.55382758 0.10718895
2589 -394 -74 -0.96624422 0.059405878 0.25068516 0.18067847
2596 -280 -192 -0.65775132 0.16079593 -0.73587221 0.10454345
2590 -264 -191 -0.59170336 0.36766011 -0.71743518 0.10836305
2687 -344 -247 -0.57841682 -0.7205326 -0.38244843 0.12710512
2639 -306 -241 -0.70572126 -0.21140528 -0.67621392 0.14270045
2656 -350 -199 -0.60211354 -0.31049776 -0.73556125 0.22077891
2720 -365 -250 -0.65877301 -0.60231441 -0.45081642 0.13889436
2605 -318 -151 -0.87798899 -0.47635233 0.047157828 0.18268961
2603 -381 -154 -0.78562945 0.36307228 -0.50096393 0.12758523
2657 -324 -243 -0.70472252 -0.58600396 -0.39995706 0.15746906
2572 -268 -148 -0.95790857 0.084544644 -0.27434161 0.13222675
2602 -296 -193 -0.7466687 -0.14904636 -0.64828306 0.1240136
2635 -379 -199 -0.59211171 0.10449541 -0.79905218 0.10066207
2609 -366 -153 -0.80116427 0.29769084 -0.51914936 0.11341893
2647 -365 -199 -0.5705781 -0.0092841107 -0.82119095 0.14694332
2559 -265 -79 -0.90997797 -0.41453964 -0.0098414086 0.078589842
2555 -238 -79 -0.95816129 -0.27861425 -0.065581501 0.11101908
2544 -245 -39 -0.87600791 -0.44152537 0.19407602 0.10776072
2553 -258 -122 -0.98538297 -0.016521502 -0.16955076 0.14436913
2552 -233 -39 -0.82832056 -0.5143168 0.22217843 0.13542844
2585 -262 -40 -0.52167827 -0.54082358 0.65981942 0.089894831
2557 -251 -79 -0.93201929 -0.36060613 -0.036101006 0.095869124
2568 -246 -122 -0.56528896 0.7908954 -0.23437735 0.15689909
2603 -322 -82 -0.62495905 -0.62292057 0.47052765 0.1873046
2562 -409 -83 -0.96769643 -0.054721676 0.24610816 0.1144889
2604 -415 -2 -0.7212835 -0.060382336 0.69000298 0.12568097
2546 -388 -125 -0.94558311 0.035607956 -0.32342643 0.12840112
2587 -314 -125 -0.79986721 -0.58766145 0.12192796 0.16654144
2554 -363 -124 -0.87693256 0.30997694 -0.36729228 0.13209102
2589 -381 -43 -0.87713838 0.25267974 0.40838844 0.14571053
2572 -405 -43 -0.9379313 -0.059940614 0.34160221 0.083940916
2611 -402 -2 -0.6763255 0.090929165 0.73096901 0.13123682
2562 -278 -80 -0.87260038 -0.48766807 0.027355995 0.058079787
2617 -337 -83 -0.62104827 0.043196213 0.78258109 0.17861725
2573 -391 -43 -0.93715137 -0.029996295 0.3476311 0.091110326
2565 -396 -83 -0.97377807 0.01934935 0.22667576 0.11004016
2564 -416 -43 -0.94762164 -0.1091772 0.30015603 0.092595018
2570 -384 -82 -0.9673543 0.056220837 0.24711291 0.11884214
2601 -428 -2 -0.72604609 -0.14052477 0.67313439 0.13543184
2593 -308 -81 -0.58794278 -0.7264477 0.35580453 0.11490896
2565 -378 -125 -0.89582461 0.11301358 -0.42979789 0.13890535
2574 -292 -80 -0.79931819 -0.58140451 0.15185291 0.073731214
2578 -408 -5 -0.82469094 -0.033587649 0.56458551 0.10360262
2595 -438 -4 -0.75990117 -0.25384954 0.59842348 0.13700581
2576 -421 -5 -0.83264607 -0.10268838 0.54420191 0.10906834
2628 -296 -224 -0.62767452 -0.03472548 -0.77770102 0.11596743
2591 -265 -179 -0.58302879 0.4391422 -0.68354338 0.11931079
2591 -280 -179 -0.83650017 0.019716518 -0.54761183 0.13386205
2601 -297 -179 -0.83263409 -0.31896359 -0.45275015 0.17045124
2714 -385 -233 -0.65112138 -0.57851756 -0.4912824 0.12786543
2666 -347 -228 -0.60591865 -0.6380896 -0.47508344 0.085176408
2620 -344 -181 -0.69192195 -0.089356519 -0.71642131 0.15257353
2640 -313 -226 -0.63499361 -0.41733938 -0.65008545 0.10039449
2609 -389 -181 -0.74349684 0.16245145 -0.64870793 0.11423913
2612 -325 -223 -0.63971317 -0.47329649 -0.60560507 0.11938974
2628 -361 -182 -0.667 0.24394597 -0.70398951 0.12832922
2623 -376 -182 -0.68169147 0.25161511 -0.68701279 0.11009071
2685 -365 -230 -0.56655467 -0.615282 -0.54812759 0.077318981
2600 -401 8 -0.72593093 0.021204615 0.68744063 0.099421412
2599 -413 8 -0.72184688 -0.010835726 0.69196796 0.10372879
2606 -279 -210 -0.59136182 0.22745962 -0.77366221 0.09155003
2575 -281 -165 -0.93468583 -0.057198528 -0.35084283 0.11499405
2619 -296 -211 -0.66803539 -0.11825679 -0.73467273 0.11357147
2582 -267 -165 -0.83179563 0.28048494 -0.47900346 0.13331382
2625 -312 -212 -0.66145074 -0.44628614 -0.60275334 0.10098457
2611 -396 -172 -0.78539103 0.18999808 -0.58911937 0.1150993
2608 -363 -170 -0.76039183 0.26409718 -0.59334385 0.097232729
2599 -378 -170 -0.77251679 0.32706833 -0.54428315 0.10494664
2649 -347 -216 -0.57273406 -0.48492768 -0.6609242 0.12405866
2703 -344 -266 -0.60701889 -0.78939122 -0.091594845 0.18582581
2603 -325 -211 -0.60421103 -0.41264609 -0.6816541 0.073112525
2679 -367 -219 -0.61050272 -0.51803583 -0.59910375 0.12676458
2598 -315 -168 -0.87948871 -0.44829214 -0.15979297 0.15900572
2598 -315 -96 -0.62749714 -0.73542351 0.25573328 0.16001597
2569 -230 -94 -0.97119039 0.145362 -0.18883589 0.14497283
2593 -365 -138 -0.82513797 0.3398788 -0.45125359 0.11988562
2569 -267 -136 -0.9721114 -0.15514912 -0.17586391 0.12921242
2590 -317 -181 -0.80918521 -0.4184218 -0.4124833 0.13622823
2619 -289 -225 -0.59961349 0.10023158 -0.79398817 0.087118484
2595 -393 -139 -0.84238672 -0.22784609 -0.48833466 0.15680613
2626 -349 -184 -0.63789344 -0.050517123 -0.768466 0.16635567
2620 -376 -184 -0.68488735 0.2436756 -0.68669611 0.1123999
2610 -389 -183 -0.73402548 0.19970089 -0.64909637 0.11356091
2631 -332 -227 -0.69274127 -0.5247193 -0.49475157 0.11892238
2609 -326 -139 -0.99751633 -0.06099112 -0.035231683 0.1986658
2581 -288 -180 -0.86385864 -0.084338397 -0.49662396 0.12747365
2571 -244 -94 -0.94310319 -0.31151226 -0.11625995 0.12387326
2592 -300 -95 -0.74106354 -0.66180438 0.11331285 0.12820017
2710 -385 -234 -0.68324578 -0.55964178 -0.46901616 0.14959398
2587 -262 -181 -0.52712446 0.50500077 -0.68345743 0.11022063
2583 -275 -180 -0.81276268 0.10307846 -0.57340354 0.11785793
2574 -258 -94 -0.89576089 -0.42811748 -0.11969888 0.10542502
2606 -329 -96 -0.79507643 -0.21131265 0.56850725 0.2161233
2625 -303 -226 -0.6422779 -0.25149393 -0.72403729 0.091832809
2691 -368 -232 -0.52843434 -0.62610155 -0.57337075 0.07934723
2636 -318 -227 -0.64958739 -0.47146493 -0.59645373 0.09849257
2670 -351 -230 -0.59550619 -0.66074324 -0.45693627 0.091303587
2578 -285 -95 -0.85249346 -0.52195328 -0.028626675 0.076989174
2595 -379 -138 -0.85550469 0.23414248 -0.46183231 0.13973631
2573 -271 -95 -0.87991953 -0.46027428 -0.11785213 0.087482274
2628 -363 -184 -0.66551995 0.20275548 -0.7183128 0.11739737
2620 -297 -221 -0.65994471 -0.12921548 -0.74011916 0.1116917
2582 -258 -172 -0.54068953 0.62697756 -0.5608511 0.10095593
2566 -262 -130 -0.97558874 -0.1232599 -0.18175176 0.14050007
2577 -272 -173 -0.84421951 0.11842807 -0.52275068 0.10855145
2610 -281 -219 -0.6055705 0.15599744 -0.78035194 0.07700862
2596 -394 -179 -0.77653414 0.13422473 -0.61561227 0.11340564
2691 -368 -229 -0.54275924 -0.60027599 -0.58743608 0.076180913
2582 -397 -135 -0.83130491 -0.25613251 -0.49328315 0.13056096
2654 -347 -225 -0.61618847 -0.55649853 -0.55733401 0.087925695
2679 -359 -271 -0.54553759 -0.66887754 0.50496691 0.1456053
2617 -367 -179 -0.71426505 0.28931743 -0.63727605 0.1118947
2629 -313 -222 -0.63220257 -0.40749362 -0.65899074 0.10015506
2585 -317 -175 -0.88706893 -0.40233767 -0.22634719 0.14549695
2626 -353 -179 -0.6909343 0.24991001 -0.67834711 0.1390371
2614 -327 -221 -0.63385904 -0.45022243 -0.62890577 0.074963301
2610 -381 -179 -0.72946042 0.25122425 -0.63621849 0.10352594
2684 -382 -229 -0.50418478 -0.50835311 -0.69812238 0.063199915
2588 -368 -135 -0.7972101 0.41255307 -0.44074488 0.11991786
2594 -384 -135 -0.83703721 0.33533347 -0.43234265 0.1506874
2583 -395 -56 -0.95642298 -0.036009241 0.28975564 0.12906542
2557 -383 -98 -0.99434662 0.042670786 0.097231813 0.1337665
2581 -382 -56 -0.94037253 0.15589464 0.30231839 0.1346505
2596 -390 -16 -0.81863177 0.043632135 0.57265896 0.12867996
2556 -238 -57 -0.9174422 -0.38827237 0.086858422 0.10211109
2586 -357 -56 -0.76137149 0.59163958 0.26509637 0.14483449
2583 -279 -57 -0.64720929 -0.61859959 0.44548255 0.066699542
2583 -369 -56 -0.85272223 0.4439145 0.27532643 0.15081483
2600 -377 -16 -0.77750409 0.1326797 0.61472231 0.12657551
2584 -297 -100 -0.80764014 -0.58766365 0.048670497 0.10905241
2560 -358 -99 -0.9225086 0.3841188 0.03782288 0.12673883
2609 -274 -102 -0.68185794 -0.3153927 -0.65999794 0.18918948
2553 -243 -100 -0.98664993 -0.099054478 -0.12926792 0.10975363
2573 -373 -99 -0.84958613 0.52328026 0.066190898 0.16220094
2594 -311 -101 -0.67688185 -0.71194035 0.18700764 0.15332651
2569 -265 -57 -0.82713711 -0.50923049 0.23775746 0.078611895
2553 -256 -99 -0.9459303 -0.31426165 -0.080347069 0.088432312
2567 -252 -57 -0.87282544 -0.45300671 0.1815507 0.096433498
2619 -337 -97 -0.73299682 0.042476896 0.67890453 0.20465185
2640 -333 -226 -0.64885277 -0.5309301 -0.54507184 0.089557759
2555 -245 -49 -0.87360156 -0.44410864 0.19896688 0.10232208
2611 -349 -180 -0.71446842 -0.14066236 -0.68538237 0.13464285
2594 -320 -96 -0.80752808 -0.55417109 0.20197237 0.21335423
2553 -236 -92 -0.98630923 -0.11442576 -0.11874673 0.11648612
2605 -356 -139 -0.85142112 0.28628495 -0.43945765 0.12355424
2570 -357 -96 -0.87551814 0.47364548 0.095539585 0.13201369
2561 -258 -134 -0.51886415 0.81968474 -0.24268682 0.097632594
2578 -318 -177 -0.89278489 -0.3677536 -0.26017779 0.13945936
2649 -349 -228 -0.62430191 -0.54468375 -0.55997038 0.10163373
2567 -259 -50 -0.79764867 -0.52385801 0.29888022 0.093082733
2562 -264 -93 -0.90923554 -0.40619832 -0.091070175 0.078488633
2612 -363 -181 -0.73231417 0.2021891 -0.65025806 0.1050223
2596 -315 -137 -0.83630562 -0.54077929 0.090281509 0.17198966
2614 -303 -223 -0.64437866 -0.20222521 -0.73748302 0.087579176
2597 -315 -222 -0.65170932 -0.20685947 -0.72971517 0.096637681
2607 -288 -222 -0.62707627 0.065306604 -0.77621543 0.072892413
2557 -224 -92 -0.85981077 0.47268733 -0.19311188 0.12198108
2581 -305 -95 -0.80130708 -0.59085399 0.093801059 0.11766158
2564 -277 -93 -0.88394403 -0.4646939 -0.051984742 0.067320503
2575 -264 -175 -0.71318454 0.39156449 -0.58141649 0.10065895
2572 -291 -94 -0.84435678 -0.53524208 0.024031002 0.064699456
2699 -369 -233 -0.55848604 -0.6027469 -0.56990314 0.07015565
2571 -277 -175 -0.84673381 0.10547099 -0.52145737 0.10058951
2559 -233 -49 -0.88002443 -0.44750926 0.15903576 0.13373597
2558 -250 -92 -0.95299351 -0.29011568 -0.087384962 0.10020466
2572 -365 -53 -0.93197644 0.24612416 0.26616302 0.12398979
2602 -375 -181 -0.74113417 0.26255643 -0.6178869 0.094721995
2700 -384 -233 -0.66976368 -0.45732677 -0.58503753 0.14080459
2600 -396 -140 -0.60850722 -0.69576836 -0.38160884 0.17710271
2573 -392 -54 -0.95661581 -0.011713831 0.29111686 0.099344209
2597 -388 -181 -0.75738692 0.22241516 -0.6139189 0.10995917
2570 -384 -97 -0.99761289 -0.015979836 0.06718041 0.14945593
2605 -402 -12 -0.7241928 0.072816677 0.68574244 0.14909022
2571 -378 -138 -0.83938402 0.23591946 -0.48966971 0.097748458
2566 -396 -97 -0.99283969 0.015003891 0.11850841 0.13442516
2577 -379 -54 -0.953116 0.09766487 0.2864114 0.11169717
2610 -389 -12 -0.66652423 0.12895131 0.73424578 0.16213003
2575 -371 -97 -0.82188332 0.56118423 0.097878486 0.16026731
2576 -366 -138 -0.82866353 0.27929679 -0.48508775 0.10181848
2602 -375 -12 -0.74116796 0.11292782 0.66175324 0.1389056
2582 -410 -22 -0.90189576 -0.054623932 0.42848614 0.095604129
2583 -423 -21 -0.88523436 -0.1699702 0.4329783 0.11464882
2543 -403 -104 -0.99873549 -0.032968964 0.037952736 0.12808612
2596 -321 -107 -0.83880222 -0.52050167 0.15965238 0.216034
2594 -302 -64 -0.53140295 -0.69954765 0.47774878 0.087506033
2579 -404 -62 -0.9596861 -0.12660401 0.25094628 0.11799131
2584 -436 -21 -0.86663663 -0.23172349 0.44186547 0.12618063
2571 -390 -62 -0.96326637 0.038763847 0.26573521 0.094795376
2561 -380 -105 -0.99252272 0.10534571 -0.061651692 0.15202732
2554 -367 -105 -0.9298408 0.3659457 -0.038468119 0.15332516
2559 -393 -105 -0.98133022 -0.1765959 -0.076190397 0.14540894
2563 -427 -61 -0.95981652 -0.14761469 0.2386674 0.11560176
2585 -306 -107 -0.79439777 -0.60508949 0.0529061 0.13611883
2571 -416 -61 -0.95818603 -0.1513273 0.24285708 0.10647321
2569 -274 -63 -0.8328228 -0.51994342 0.18990782 0.066959895
2574 -287 -63 -0.74218965 -0.59680426 0.30492505 0.062032737
2571 -241 -107 -0.96983224 -0.14659669 -0.19476855 0.15013552
2564 -266 -106 -0.8976568 -0.41751814 -0.14103481 0.099027067
2555 -247 -63 -0.92510593 -0.37350264 0.068371914 0.082420588
2557 -234 -64 -0.948668 -0.31577802 0.017698817 0.10310313
2557 -252 -106 -0.96402115 -0.22877736 -0.13536662 0.11141632
2554 -239 -24 -0.71244729 -0.64075875 0.28608939 0.13728088
2562 -260 -63 -0.88631094 -0.45079598 0.10599975 0.074805371
2580 -402 -10 -0.83873791 -0.010844034 0.54442739 0.10325155
2581 -415 -10 -0.82666838 -0.064437464 0.55898768 0.10289894
2577 -396 -50 -0.94693679 -0.029559312 0.3200576 0.097941205
2552 -258 -94 -0.94309747 -0.32611352 -0.064939111 0.08504872
2558 -240 -51 -0.88904107 -0.42815769 0.16213252 0.10773882
2560 -253 -51 -0.85229874 -0.47013894 0.22925106 0.094447926
2615 -329 -96 -0.66753829 -0.57185256 0.47684103 0.19587903
2568 -387 -93 -0.9944393 -0.044539787 0.095428824 0.12677959
2580 -281 -51 -0.60976219 -0.63371998 0.47601387 0.061234184
2561 -246 -94 -0.95637983 -0.27080366 -0.10955789 0.1083244
2564 -373 -93 -0.96860027 0.19862033 0.14954402 0.132493
2616 -394 -10 -0.66311049 0.10581869 0.74100393 0.16003275
2552 -397 -93 -0.98182166 -0.0079238247 0.18964034 0.10037323
2576 -427 -10 -0.83904016 -0.13005324 0.52829701 0.11581704
2570 -382 -50 -0.9570505 0.044945743 0.28641599 0.096028216
2570 -408 -50 -0.9534694 -0.09574081 0.28588423 0.091386266
2563 -266 -51 -0.80034268 -0.52858937 0.28292206 0.077398956
2593 -313 -95 -0.67907047 -0.69730836 0.22939971 0.15857846
2585 -424 -50 -0.91228002 -0.30407256 0.2743811 0.12671952
2563 -423 -64 -0.96236676 -0.10749589 0.24958932 0.12922989
2585 -422 -21 -0.88145888 -0.16819608 0.44129378 0.1137182
2577 -434 -21 -0.87596548 -0.18708022 0.4446184 0.10263027
2586 -410 -21 -0.8910045 -0.093523689 0.44425699 0.11062739
2558 -270 -65 -0.8694492 -0.47487849 0.13619258 0.06440793
2562 -385 -65 -0.96304429 0.036483221 0.26686081 0.080819815
2565 -411 -65 -0.95033276 -0.07732825 0.30147642 0.10558584
2547 -231 -65 -0.96394181 -0.26572168 0.014422452 0.10459039
2551 -244 -65 -0.94074881 -0.33584824 0.046877116 0.082372949
2553 -257 -65 -0.91297626 -0.40189409 0.070394881 0.069842368
2576 -297 -65 -0.69031096 -0.62810087 0.35911018 0.057428882
2575 -400 -65 -0.96643192 -0.072480373 0.2464872 0.11541487
2568 -241 -23 -0.58222842 -0.67098916 0.45911169 0.1362543
2568 -284 -65 -0.79200238 -0.56490749 0.23154202 0.056904767
2628 -300 -219 -0.67613399 -0.19106629 -0.7115733 0.12420663
2635 -318 -220 -0.63712251 -0.4844588 -0.59947854 0.10065452
2701 -375 -226 -0.55069619 -0.54346788 -0.63354278 0.064559355
2655 -352 -222 -0.58203465 -0.53144246 -0.61547107 0.11495946
2720 -394 -228 -0.60314745 -0.7136243 -0.35630539 0.1543051
2633 -333 -220 -0.61652058 -0.50203598 -0.60651654 0.073912114
2607 -325 -131 -0.90459919 -0.38141853 0.19031602 0.20052667
2588 -316 -174 -0.87890732 -0.42381456 -0.21886788 0.14815734
2615 -361 -176 -0.7400167 0.25990355 -0.62034303 0.10982545
2599 -327 -217 -0.58026719 -0.41926843 -0.69821489 0.076303266
2600 -328 -89 -0.80386961 -0.15232876 0.57496929 0.23977213
2561 -266 -129 -0.95131773 -0.27552867 -0.13812487 0.12324142
2608 -286 -217 -0.64164793 0.079054475 -0.7629143 0.081798792
2654 -348 -221 -0.58283073 -0.53786784 -0.60910296 0.10470691
2594 -300 -88 -0.64553958 -0.71977204 0.2553564 0.1244959
2584 -377 -131 -0.83533919 0.31667635 -0.44936007 0.14335935
2571 -257 -87 -0.90381694 -0.41530427 -0.10313697 0.10999568
2579 -271 -88 -0.87667161 -0.47485217 -0.077216275 0.098534726
2595 -385 -175 -0.77909124 0.20821829 -0.5913223 0.10230418
2580 -285 -88 -0.83932883 -0.54314947 0.022713354 0.078228883
2683 -380 -224 -0.51615769 -0.47632465 -0.71182585 0.057532188
2603 -290 -175 -0.88300896 -0.25775552 -0.39224651 0.18639256
2566 -229 -87 -0.98813164 -0.074900754 -0.13411079 0.14390641
2593 -399 -175 -0.80058336 0.15160498 -0.57972586 0.12337946
2619 -302 -218 -0.68234956 -0.26710945 -0.68047893 0.1069773
2622 -344 -89 -0.62509108 0.048102308 0.77906823 0.16929831
2582 -390 -131 -0.85996187 -0.17563884 -0.47918332 0.13453496
2626 -317 -219 -0.65346992 -0.45321429 -0.60627878 0.089291811
2701 -348 -268 -0.59064209 -0.80684179 0.012175898 0.17328471
2568 -243 -87 -0.94004077 -0.3208397 -0.1156946 0.11967909
2611 -374 -176 -0.73384374 0.29145709 -0.61361718 0.10671815
2576 -403 -130 -0.73134768 -0.46468571 -0.49919713 0.14127046
2579 -274 -173 -0.86913943 0.061552547 -0.49072188 0.11732963
2681 -366 -224 -0.61335868 -0.57346666 -0.54307193 0.10320555
2582 -393 -88 -0.97403604 0.1082438 0.19883943 0.1610872
2584 -407 -89 -0.9084242 -0.41470891 0.052744914 0.17902468
2598 -314 -89 -0.61298174 -0.74042886 0.27571452 0.15053302
2579 -420 -88 -0.78694272 -0.6153006 0.046113119 0.18681987
2619 -412 10 -0.65418953 0.026173038 0.75587767 0.13258743
2625 -386 9 -0.58961689 0.23871389 0.77160066 0.17472479
2573 -397 -33 -0.91770285 -0.031105593 0.39604795 0.089659333
2581 -371 -34 -0.88381308 0.18528883 0.429584 0.12336083
2582 -385 -34 -0.91000247 0.035358392 0.41309217 0.1087921
2544 -237 -37 -0.87175983 -0.46014646 0.16822599 0.12665521
2548 -250 -37 -0.82967138 -0.49212381 0.2635515 0.11159968
2623 -399 9 -0.61680615 0.16076773 0.77052188 0.15749405
2591 -258 -184 -0.5080139 0.53599107 -0.67426664 0.10704011
2606 -321 -143 -0.89792645 -0.42737889 0.1052404 0.19190936
2640 -315 -233 -0.66755313 -0.42885268 -0.60865271 0.11254384
2725 -386 -241 -0.56040567 -0.74824941 -0.35506096 0.16577481
2645 -330 -233 -0.72284728 -0.5541591 -0.41279477 0.10875375
2591 -363 -143 -0.82649761 0.27925497 -0.48879269 0.1071287
2608 -303 -186 -0.72673231 -0.46189648 -0.50844043 0.16464832
2604 -379 -144 -0.79913783 0.42357767 -0.42656845 0.14815259
2690 -351 -238 -0.55943185 -0.67041993 -0.48741487 0.094125271
2587 -315 -184 -0.82019192 -0.38053331 -0.42717627 0.13577594
2633 -299 -232 -0.58960015 -0.14366819 -0.79481524 0.10536242
2645 -352 -189 -0.62471241 0.2089847 -0.75236952 0.21368927
2593 -273 -184 -0.7178725 0.2000706 -0.66680646 0.12935887
2637 -365 -188 -0.61149263 0.18096836 -0.77027726 0.14261432
2625 -379 -188 -0.66249055 0.18198593 -0.72662741 0.10461041
2694 -366 -238 -0.55840933 -0.66874576 -0.49087486 0.083935872
2591 -287 -184 -0.83299816 -0.054571088 -0.55057794 0.13150735
2609 -391 -187 -0.7080369 0.16909131 -0.68563253 0.11924298
2588 -391 -143 -0.85311759 -0.075120129 -0.51628226 0.1320616
2598 -357 -143 -0.82745808 0.2350051 -0.50998598 0.11023808
2568 -253 -181 -0.56839442 0.58835936 -0.57511824 0.090093844
2569 -280 -182 -0.81971592 0.064599119 -0.56911582 0.098973498
2541 -232 -56 -0.94870758 -0.30924538 0.065735981 0.098304659
2559 -227 -97 -0.88555294 0.40422863 -0.22889997 0.12774329
2640 -342 -189 -0.60146099 -0.31113073 -0.73582762 0.23427558
2582 -381 -143 -0.83729124 0.25034463 -0.48607713 0.094589934
2570 -373 -102 -0.89022791 0.45544171 0.0081931148 0.15063177
2587 -275 -58 -0.64273185 -0.6111384 0.46195844 0.084578983
2600 -378 -188 -0.7231766 0.25581118 -0.64154208 0.095493451
2553 -240 -97 -0.98725456 -0.09667813 -0.12641911 0.11120062
2563 -259 -138 -0.50874263 0.82229823 -0.2549639 0.094722927
2568 -267 -98 -0.89861518 -0.42338333 -0.11505357 0.082486108
2593 -316 -141 -0.95652598 -0.27632752 0.093279652 0.16122779
2579 -367 -60 -0.87437558 0.3940635 0.28316304 0.1318837
2584 -282 -99 -0.86219078 -0.49714682 -0.097324632 0.08898785
2608 -366 -188 -0.72614694 0.091221586 -0.68146104 0.10287356
2624 -354 -188 -0.64010429 -0.057184242 -0.76615691 0.13952753
2590 -309 -100 -0.72541416 -0.67141593 0.15157515 0.14034984
2570 -260 -57 -0.8394208 -0.49653605 0.22096321 0.089873657
2585 -296 -99 -0.80786413 -0.58896798 0.021729389 0.11132625
2576 -380 -61 -0.96409625 0.090865791 0.24952318 0.10677938
2562 -254 -97 -0.93598419 -0.33663955 -0.10299222 0.103689
2589 -369 -143 -0.82664591 0.30624244 -0.47209328 0.10440937
2553 -246 -56 -0.90387374 -0.41330609 0.11041005 0.083911434
2580 -295 -183 -0.85404146 -0.13808562 -0.50154322 0.1344292
2595 -323 -185 -0.75108856 -0.42985052 -0.50109339 0.12328072
2574 -267 -182 -0.71014178 0.34169286 -0.61558485 0.089046501
2567 -360 -101 -0.87122279 0.49083525 0.0071840235 0.14087462
2584 -308 -184 -0.83594704 -0.29402277 -0.46340388 0.1371776
2580 -394 -143 -0.85738099 -0.037228402 -0.51333421 0.11169717
2571 -392 -61 -0.96486765 0.0069594793 0.26264399 0.091778971
2602 -392 -18 -0.79488206 0.072294675 0.60244161 0.15709426
2563 -386 -102 -0.99991697 -0.010833349 0.0069748545 0.14549178
2600 -405 -18 -0.81662905 -0.032660015 0.5762381 0.14266077
2570 -405 -61 -0.95950031 -0.12026463 0.25474614 0.093903728
2587 -325 -83 -0.89013749 -0.13568257 0.43502355 0.22648937
2562 -399 -82 -0.97233081 -0.0072892732 0.2334947 0.10433023
2569 -285 -83 -0.84571177 -0.53104526 0.052559525 0.063003637
2609 -419 0 -0.70877814 -0.064327069 0.70249242 0.12732145
2602 -405 0 -0.71440005 0.022987667 0.69935983 0.1194639
2603 -432 1 -0.73158187 -0.18658064 0.65572524 0.12655617
2587 -398 -39 -0.91020179 0.015944544 0.41385785 0.11714093
2590 -424 -39 -0.89460099 -0.25747728 0.3652322 0.12474637
2554 -253 -40 -0.81540787 -0.4867855 0.31328887 0.10197865
2561 -411 -82 -0.96803874 -0.053950299 0.24492943 0.1176917
2574 -311 -83 -0.81599641 -0.55234247 0.17049246 0.11921015
2557 -271 -82 -0.89858824 -0.43870559 0.0087484363 0.061669417
2556 -240 -40 -0.82100964 -0.4924092 0.28892267 0.13018616
2580 -268 -40 -0.56096697 -0.57684827 0.59376949 0.074249014
2579 -388 -82 -0.94916546 0.14346983 0.28018063 0.1443624
2582 -410 -39 -0.9149282 -0.0897827 0.39350411 0.10251143
2550 -257 -82 -0.93567187 -0.35261166 -0.013532196 0.084834553
2581 -384 -39 -0.91125453 0.05343407 0.40836248 0.11928897
2560 -373 -82 -0.95926559 0.12818518 0.25175005 0.10257456
2552 -245 -82 -0.95016432 -0.30687714 -0.054901727 0.094639584
2571 -298 -83 -0.80117154 -0.58332753 0.13361536 0.06948553
2604 -340 -84 -0.550565 0.26980171 0.78999066 0.17987615
2552 -232 -82 -0.97838873 -0.19136642 -0.078322411 0.11413705
2581 -288 -63 -0.68184602 -0.63037264 0.37110141 0.070345163
2575 -274 -63 -0.79726863 -0.55265552 0.24276443 0.074501939
2558 -252 -105 -0.95692116 -0.25799584 -0.13319208 0.11037824
2562 -260 -62 -0.88229746 -0.45530695 0.11936034 0.073854178
2569 -266 -106 -0.89580625 -0.4222022 -0.13883977 0.09754844
2557 -234 -63 -0.94496804 -0.32637671 0.022663351 0.10332462
2587 -306 -106 -0.78611881 -0.61470765 0.064433493 0.14283119
2555 -247 -62 -0.91928422 -0.38509956 0.081332177 0.080590315
2603 -321 -107 -0.78839689 -0.59001285 0.17411269 0.21504886
2574 -241 -106 -0.91587007 0.30534765 -0.26066238 0.17584832
2574 -366 -46 -0.92332733 0.22572976 0.31066489 0.12586872
2595 -387 -6 -0.76714957 0.081986919 0.63620728 0.11085976
2545 -240 -89 -0.98285753 -0.16746163 -0.077121027 0.097104214
2582 -277 -47 -0.57217312 -0.60965824 0.54857522 0.060225949
2556 -249 -47 -0.85240209 -0.45976371 0.24905427 0.10698009
2562 -279 -90 -0.87518388 -0.48378387 0.0025023194 0.06090495
2601 -335 -91 -0.72474039 0.16320015 0.66941553 0.18711832
2556 -368 -89 -0.95949858 0.18149093 0.21546102 0.10756151
2559 -261 -47 -0.81214809 -0.50768763 0.28752178 0.081261739
2581 -320 -90 -0.99440789 -0.094593935 -0.046956878 0.21312839
2551 -266 -90 -0.9191252 -0.39154688 -0.043587636 0.062585071
2556 -381 -89 -0.97340739 0.082939036 0.21353959 0.10542008
2576 -307 -90 -0.78941143 -0.59530431 0.14980769 0.10813741
2571 -293 -90 -0.83059347 -0.5529691 0.065875918 0.061693579
2570 -391 -46 -0.94585443 -0.048282724 0.32097995 0.086820461
2548 -253 -89 -0.95122731 -0.30523968 -0.044670451 0.080021024
2576 -379 -46 -0.94261676 0.057069279 0.3289631 0.11253001
2552 -236 -47 -0.88920194 -0.42405623 0.17174473 0.12173401
2545 -227 -90 -0.96226996 0.22719017 -0.14973696 0.11231862
2596 -374 -6 -0.75141555 0.10584144 0.65128517 0.12862012
2559 -394 -89 -0.97692621 0.0065105786 0.21347797 0.10940038
2570 -402 -55 -0.95791632 -0.060625426 0.28057218 0.083668433
2602 -402 -12 -0.74479669 0.048145253 0.66555226 0.14280033
2604 -416 -12 -0.76027501 -0.11928914 0.63855469 0.14261766
2576 -390 -56 -0.95959705 0.016727543 0.28088015 0.104315
2558 -260 -56 -0.87429404 -0.45902374 0.15781967 0.072955735
2571 -274 -56 -0.77003187 -0.54745919 0.32762694 0.06772355
2545 -234 -56 -0.93061543 -0.35667121 0.082100816 0.092086419
2596 -388 -12 -0.7880587 0.062217664 0.61244792 0.12333767
2567 -376 -56 -0.96189445 0.096856669 0.2556909 0.084991656
2562 -362 -56 -0.95547694 0.12911445 0.26531741 0.099409059
2548 -247 -56 -0.9107613 -0.39600757 0.11701236 0.078281827
2651 -313 -245 -0.72325873 -0.34018391 -0.60097563 0.15397149
2607 -296 -198 -0.68144673 -0.099859998 -0.72502297 0.11519558
2603 -311 -198 -0.68899846 -0.35658568 -0.6309737 0.10496005
2599 -279 -197 -0.66022331 0.14267184 -0.73739403 0.096115321
2626 -378 -200 -0.59052271 0.04813201 -0.80558437 0.083268389
2672 -332 -247 -0.6523661 -0.61758184 -0.43933034 0.14245914
2643 -365 -201 -0.56239307 -0.061892852 -0.82455033 0.12543063
2652 -350 -202 -0.54169106 -0.3500399 -0.76422703 0.18662672
2705 -352 -250 -0.59813499 -0.682338 -0.42029658 0.11451209
2596 -389 -6 -0.75539035 0.081742547 0.65015662 0.11702032
2591 -427 -6 -0.78974175 -0.14713363 0.59553313 0.11626101
2596 -415 -6 -0.74734926 -0.029913807 0.66375774 0.1270199
2595 -402 -6 -0.76282644 -0.012275575 0.64648676 0.11888304
2554 -404 -94 -0.98350143 -0.040539213 0.17629957 0.10659102
2579 -305 -96 -0.8094151 -0.57757318 0.10609622 0.11839341
2573 -415 -52 -0.95517182 -0.10944215 0.27508038 0.10024811
2585 -391 -52 -0.93492168 0.064537153 0.34893599 0.12873511
2572 -381 -95 -0.98924434 0.10956179 0.096911445 0.15650825
2597 -398 -12 -0.78302282 0.025605077 0.6214658 0.1376337
2579 -403 -52 -0.94773144 -0.12122216 0.29514444 0.098415397
2584 -318 -96 -0.95379591 -0.29734552 0.043115035 0.21477064
2601 -411 -12 -0.76582909 -0.068383537 0.6393978 0.13682331
2602 -425 -12 -0.75845975 -0.20295943 0.61931109 0.15906781
2564 -392 -95 -0.99384415 -0.020235071 0.10892368 0.12872891
2555 -365 -95 -0.95242971 0.28323019 0.11250857 0.12789696
2576 -377 -52 -0.94700688 0.13444746 0.29172236 0.11125157
2566 -260 -53 -0.8190248 -0.51104969 0.26081917 0.085065283
2584 -280 -97 -0.86319286 -0.49456039 -0.10152879 0.094591804
2559 -247 -53 -0.88029367 -0.44355962 0.16833903 0.097607933
2560 -234 -53 -0.89542812 -0.43043211 0.11373957 0.13169336
2575 -274 -53 -0.71176112 -0.57090938 0.40921721 0.066934742
2565 -265 -96 -0.895863 -0.4293932 -0.11424038 0.080730021
2585 -293 -97 -0.81565243 -0.5782277 0.019075101 0.10379039
2558 -239 -96 -0.98515588 -0.1185167 -0.12418428 0.1166983
2550 -251 -95 -0.95933086 -0.27437627 -0.066347025 0.092332073
2553 -234 -84 -0.97845989 -0.18930896 -0.08233092 0.11557788
2659 -375 -218 -0.50258023 -0.23064393 -0.83319658 0.092580147
2551 -241 -41 -0.83580238 -0.48234895 0.26224768 0.11632293
2583 -316 -167 -0.94009048 -0.3147769 -0.13094024 0.14254476
2598 -371 -169 -0.78527027 0.26417464 -0.55996644 0.10015479
2585 -325 -211 -0.64047956 -0.29424855 -0.70936859 0.1097356
2566 -261 -85 -0.9089039 -0.41396171 -0.050293744 0.08768639
2596 -311 -127 -0.53929895 -0.83094418 0.13670608 0.17239231
2630 -344 -215 -0.55437535 -0.42646357 -0.7147004 0.091534711
2555 -247 -84 -0.94953382 -0.30596676 -0.069064789 0.09707389
2569 -373 -127 -0.87396812 0.20386529 -0.44115609 0.13798015
2620 -332 -87 -0.67350972 -0.17645991 0.7178067 0.18311113
2599 -358 -169 -0.78846884 0.031253312 -0.6142801 0.11503339
2600 -301 -212 -0.6776734 -0.11943591 -0.72559893 0.087631822
2613 -315 -213 -0.637362 -0.41267267 -0.65074652 0.091267303
2564 -256 -125 -0.90295923 0.3698602 -0.2187877 0.14700852
2573 -263 -166 -0.73273897 0.44742376 -0.51274323 0.1067128
2568 -377 -85 -0.95691466 0.15241696 0.2471506 0.1163981
2601 -316 -86 -0.58257061 -0.73951608 0.337235 0.15954509
2626 -346 -87 -0.59702206 -0.02878038 0.8017084 0.17462163
2569 -256 -42 -0.73440933 -0.53601909 0.41632506 0.10212782
2566 -274 -85 -0.87495708 -0.48414564 -0.0072894674 0.066538759
2574 -287 -85 -0.82916445 -0.55408913 0.073969834 0.069443971
2601 -325 -128 -0.98673648 -0.14883094 0.06481158 0.18667957
2592 -363 -127 -0.79888058 0.43178579 -0.41874924 0.12526509
2598 -274 -212 -0.62005275 0.200762 -0.75843859 0.085060284
2597 -384 -169 -0.79161108 0.27102044 -0.54763108 0.10228561
2591 -302 -86 -0.65030617 -0.70891064 0.27303392 0.10940488
2576 -277 -166 -0.92044121 -0.0096011581 -0.3907631 0.11686007
2647 -360 -217 -0.51661289 -0.36142534 -0.77619761 0.11563151
2577 -384 -42 -0.93030387 0.012706984 0.36656946 0.1061522
2567 -402 -85 -0.97417504 -0.047013793 0.22084543 0.11846657
2593 -396 -169 -0.81119221 0.1800573 -0.55636895 0.11746854
2571 -390 -85 -0.97868752 0.0072613698 0.20522678 0.11446991
2565 -385 -126 -0.90227562 -0.01453051 -0.43091473 0.13772914
2611 -406 0 -0.67899227 0.080368236 0.72973311 0.13552722
2576 -397 -42 -0.93242776 -0.03532584 0.35962555 0.087473653
2606 -393 0 -0.6795578 0.089442298 0.72814924 0.12787388
2571 -409 -42 -0.93790978 -0.073809057 0.33893579 0.0861772
2613 -420 -1 -0.68918508 -0.039185178 0.72352499 0.13711619
2564 -260 -86 -0.91395247 -0.40091184 -0.062932648 0.089383356
2555 -246 -86 -0.95640182 -0.28441119 -0.066376679 0.09643615
2600 -311 -132 -0.51776975 -0.84360194 0.14230376 0.16909873
2582 -301 -88 -0.78788668 -0.60678214 0.1051186 0.097792439
2560 -254 -46 -0.82797134 -0.48727793 0.27753165 0.099126041
2562 -273 -87 -0.88355106 -0.46792775 -0.019525899 0.063350715
2560 -254 -129 -0.61485475 0.75654858 -0.22268344 0.12766536
2614 -345 -90 -0.64001393 0.15988833 0.7515437 0.17508459
2543 -240 -46 -0.89623159 -0.41513321 0.1563115 0.10130181
2585 -315 -88 -0.75373387 -0.61317295 0.23644039 0.16073358
2597 -324 -133 -0.99188656 -0.088435568 0.091324285 0.18115202
2565 -286 -87 -0.85786259 -0.51327729 0.024864571 0.061691634
2558 -233 -86 -0.97739518 -0.18217616 -0.10728767 0.126077
2596 -329 -89 -0.80665964 -0.010180258 0.59092861 0.22930218
2567 -365 -89 -0.87627935 0.44336048 0.1885896 0.12775145
2587 -415 -51 -0.93357587 -0.20708403 0.29249328 0.11586718
2561 -391 -90 -0.98353732 -0.010185227 0.18041773 0.12323105
2568 -372 -49 -0.95319653 0.11511967 0.27957812 0.094051428
2569 -399 -50 -0.95120323 -0.051280387 0.30427402 0.083560154
2604 -410 -9 -0.74194402 -0.043777008 0.66903114 0.13748731
2563 -359 -132 -0.87067693 0.12542912 -0.4755936 0.12162576
2608 -424 -10 -0.73653775 -0.18919486 0.64939773 0.16096883
2602 -396 -9 -0.71798265 0.10187645 0.68856525 0.13529159
2561 -372 -132 -0.85147005 0.22996163 -0.47129217 0.11970319
2555 -384 -132 -0.89075458 0.12304387 -0.43751165 0.11511437
2559 -404 -90 -0.97833079 -0.024217295 0.20562696 0.10941302
2569 -379 -90 -0.98001719 0.12296189 0.15635473 0.13397513
2569 -386 -50 -0.95647413 0.0030552759 0.29180104 0.092232697
2578 -280 -160 -0.9516992 -0.13588133 -0.27532682 0.12955359
2614 -295 -205 -0.68448836 -0.10435907 -0.72151572 0.11530843
2603 -279 -204 -0.6286037 0.20285329 -0.75080478 0.084399968
2588 -266 -160 -0.85788542 0.257332 -0.44476157 0.16322254
2655 -323 -253 -0.56794548 -0.8125571 0.13110638 0.20140715
2588 -323 -203 -0.6412791 -0.35156962 -0.68202639 0.10233667
2609 -375 -162 -0.78170168 0.31819662 -0.53637046 0.10469193
2662 -363 -209 -0.55206358 -0.31380469 -0.77249748 0.16213621
2619 -311 -205 -0.65152031 -0.44769245 -0.61244816 0.10983066
2606 -359 -162 -0.78271317 0.21620712 -0.58362186 0.098739445
2644 -345 -208 -0.55522346 -0.4372285 -0.70750141 0.13420567
2689 -343 -257 -0.5928238 -0.77052462 -0.23420449 0.14253803
2605 -328 -162 -0.91128844 -0.32221588 -0.25637925 0.19695102
2604 -389 -162 -0.78357548 0.34762901 -0.51494032 0.11866134
2654 -377 -209 -0.50810575 -0.13068864 -0.85132188 0.11258301
2583 -284 -67 -0.714481 -0.63441485 0.2950165 0.08472345
2597 -320 -112 -0.84675997 -0.52129447 0.10606407 0.20395929
2567 -270 -67 -0.86305332 -0.49113536 0.11800431 0.070799984
2556 -243 -66 -0.93393499 -0.3559694 0.032421995 0.085705571
2560 -256 -66 -0.90582573 -0.41702181 0.074649759 0.080894805
2568 -264 -110 -0.89946884 -0.40875077 -0.15452729 0.10712492
2558 -230 -66 -0.96442586 -0.26314512 -0.025245937 0.11398724
2592 -306 -112 -0.79015702 -0.6102134 0.057370715 0.15912077
2557 -250 -109 -0.97552347 -0.14982909 -0.16095099 0.12214702
2570 -414 -70 -0.94419116 -0.16679046 0.28404915 0.12826137
2570 -401 -70 -0.9597311 -0.039554033 0.27812168 0.11130967
2563 -381 -112 -0.9639799 0.014067651 -0.26560268 0.16484591
2563 -426 -70 -0.93134254 -0.13554329 0.33797786 0.14130692
2585 -410 -30 -0.9082002 -0.09901461 0.40665528 0.10565132
2584 -436 -31 -0.87310398 -0.3283118 0.36041757 0.1216625
2561 -368 -112 -0.92106944 0.31188232 -0.23315348 0.1740738
2587 -424 -30 -0.89209151 -0.2073541 0.40146863 0.1267295
2571 -388 -70 -0.95571309 0.058428839 0.28844154 0.10186579
2545 -405 -112 -0.99185175 -0.08992584 -0.09024059 0.16077574
2561 -394 -113 -0.94410801 -0.17794646 -0.27747998 0.15568623
2614 -343 -182 -0.68081886 -0.1991836 -0.70484859 0.14960951
2625 -376 -184 -0.67537951 0.23564823 -0.69880784 0.1095459
2585 -277 -178 -0.8220588 0.052774541 -0.56695169 0.12933081
2715 -383 -235 -0.66484767 -0.58839166 -0.46018785 0.12335772
2687 -363 -232 -0.55374444 -0.61863416 -0.55736768 0.075845808
2607 -320 -223 -0.64890832 -0.3840647 -0.65681988 0.13320179
2675 -345 -230 -0.5783658 -0.66855198 -0.46747324 0.084601484
2597 -263 -178 -0.5089128 0.5403893 -0.67006505 0.12720138
2622 -290 -223 -0.58609545 0.090216838 -0.80520374 0.10452043
2643 -309 -226 -0.66182262 -0.40446913 -0.63118583 0.10253832
2633 -361 -184 -0.63370329 0.22938745 -0.73878384 0.13938898
2563 -375 -88 -0.96692109 0.15147999 0.20522551 0.11504462
2612 -409 -5 -0.68563962 0.036546815 0.72702318 0.13857386
2577 -373 -45 -0.93500113 0.14873938 0.32194659 0.1129124
2565 -388 -88 -0.98499459 -0.02334637 0.17099884 0.11632131
2609 -395 -5 -0.68072444 0.10000312 0.72568148 0.14102247
2612 -422 -4 -0.69644809 -0.062359501 0.71489257 0.13988264
2578 -412 -45 -0.93663228 -0.14405578 0.31932423 0.10089787
2585 -400 -45 -0.92786419 -0.017115535 0.37252539 0.12017214
2561 -401 -88 -0.9773773 -0.021575544 0.21040016 0.10860305
2578 -386 -45 -0.93489373 0.033342518 0.35335827 0.11059297
2597 -329 -89 -0.8347792 -0.053621229 0.54796761 0.22787456
2554 -242 -45 -0.85986614 -0.46056193 0.22025636 0.1188715
2568 -231 -46 -0.80427974 -0.53683144 0.25484541 0.17205702
2589 -315 -89 -0.70067179 -0.66657376 0.2544376 0.16418347
2548 -222 -88 -0.90717858 0.38982528 -0.15831405 0.11690536
2555 -255 -45 -0.82406718 -0.48588353 0.29125655 0.095337331
2575 -300 -89 -0.8054688 -0.58555132 0.091376379 0.087481238
2559 -260 -88 -0.92252207 -0.38204327 -0.054735225 0.085409999
2565 -286 -88 -0.85888284 -0.51156211 0.02498962 0.062845327
2547 -247 -88 -0.96607465 -0.25325748 -0.05059965 0.090081401
2567 -274 -89 -0.87961251 -0.47200099 -0.059135519 0.07096117
2603 -342 -89 -0.58941376 0.28831774 0.7546286 0.17137504
2551 -234 -88 -0.98947597 -0.11117893 -0.092610143 0.11325068
2550 -238 -66 -0.95402515 -0.29911757 0.01909332 0.087878898
2561 -247 -108 -0.97483802 -0.14096455 -0.17268418 0.11706243
2557 -251 -67 -0.92833912 -0.37000829 0.035781264 0.081918247
2571 -364 -109 -0.79474938 0.59223396 -0.13278678 0.16217519
2576 -289 -192 -0.77348757 0.013995591 -0.63365698 0.10519551
2582 -302 -193 -0.78197825 -0.14174347 -0.60697508 0.12636845
2582 -396 -68 -0.96432787 0.0034914489 0.26468769 0.13970099
2590 -360 -150 -0.82157558 0.15591969 -0.54836363 0.11014779
2572 -266 -67 -0.86530024 -0.49040523 0.1037214 0.08512982
2601 -316 -110 -0.62794602 -0.76447701 0.14580378 0.17376423
2565 -313 -192 -0.86083573 -0.16243535 -0.48226187 0.13677485
2585 -301 -109 -0.82465333 -0.56559569 0.0069636982 0.13415013
2627 -348 -197 -0.56844038 -0.2826156 -0.77266032 0.13769676
2566 -262 -191 -0.67520386 0.38893011 -0.62676394 0.088432804
2583 -386 -150 -0.83648664 0.16572692 -0.52232623 0.11599422
2573 -390 -109 -0.97100419 -0.12829007 -0.20172392 0.16739503
2563 -401 -109 -0.93778008 -0.28452978 -0.1990262 0.1570043
2658 -338 -199 -0.61491942 -0.62245858 -0.48416871 0.2449687
2599 -383 -195 -0.72564608 0.22336908 -0.65080255 0.10629109
2601 -323 -150 -0.96999747 -0.24235626 0.019191457 0.17347422
2597 -290 -109 -0.81722975 -0.57303965 -0.061327856 0.16992933
2577 -382 -68 -0.95289236 0.11777635 0.27950829 0.11296092
2574 -397 -150 -0.83065772 -0.049602192 -0.55456954 0.11674005
2591 -374 -150 -0.81133884 0.28579703 -0.50995022 0.11161605
2569 -376 -109 -0.93843395 0.30939078 -0.15368485 0.18267901
2617 -373 -196 -0.64191365 0.091587521 -0.76128751 0.09251295
2570 -275 -192 -0.70892274 0.17828491 -0.68238044 0.092493258
2567 -260 -108 -0.90034801 -0.40657958 -0.15513372 0.11004056
2580 -408 -68 -0.95299691 -0.20705104 0.22119391 0.12864128
2560 -266 -147 -0.85700142 0.38783652 -0.33931023 0.10953452
2627 -361 -197 -0.600914 -0.041438729 -0.79823881 0.12874418
2615 -395 -25 -0.50407422 0.61706448 0.60426861 0.25407124
2589 -308 -101 -0.74864084 -0.65045863 0.12822042 0.13801169
