# .PCD v0.7 - Point Cloud Data file format
VERSION 0.7
FIELDS x y z normal_x normal_y normal_z curvature
SIZE 4 4 4 4 4 4 4
TYPE F F F F F F F
COUNT 1 1 1 1 1 1 1
WIDTH 622
HEIGHT 1
VIEWPOINT 0 0 0 1 0 0 0
POINTS 622
DATA ascii
2675 9 -65 -0.91598302 0.40053985 -0.023301808 0.12128139
2675 -46 -64 -0.9918173 -0.12441146 0.028640581 0.1153638
2697 23 -66 -0.66678005 0.21636432 0.71315563 0.16533336
2679 -32 -65 -0.99835825 0.056714509 0.0080243694 0.10140355
2681 -18 -65 -0.97738206 0.21140191 -0.0057811653 0.12334011
2696 -75 -65 -0.88137335 -0.45817432 -0.11514022 0.1294165
2666 -4 -65 -0.96186572 0.2734367 -0.0068338639 0.095426507
2678 -60 -64 -0.97029269 -0.23994432 -0.030964904 0.11526468
2666 -21 -64 -0.98805392 0.15331629 0.015605001 0.090632476
2667 -35 -64 -0.99969381 0.020755369 0.013473072 0.092562489
2667 -8 -64 -0.9685331 0.24870504 -0.009459273 0.086879782
2669 4 -64 -0.93492401 0.35476846 -0.0075134519 0.09031079
2708 31 -65 -0.58894938 0.30404472 0.74879593 0.1656303
2675 18 -64 -0.89478457 0.1400332 0.42397088 0.16025697
2679 -88 -65 -0.87152082 -0.48960268 -0.02721568 0.086830527
2692 -102 -65 -0.78345978 -0.61382133 -0.097026035 0.094335914
2671 -61 -64 -0.96662045 -0.25410941 0.032761741 0.099100024
2667 -48 -64 -0.99201006 -0.11022512 0.061371021 0.10553437
2668 -74 -64 -0.92879218 -0.36711863 0.050684217 0.083958574
2720 44 -43 -0.51051676 0.38748309 0.76761287 0.12858078
2709 30 -42 -0.60321224 0.37768584 0.70248735 0.13603622
2679 3 -42 -0.9027949 0.4035663 0.14864609 0.10851707
2692 17 -42 -0.76805598 0.57160646 0.28871456 0.15415047
2689 -81 -83 -0.84301817 -0.51079184 -0.16855876 0.10750992
2709 -95 -83 -0.64314425 -0.70774257 -0.29234558 0.15433308
2679 -67 -82 -0.92915213 -0.3495594 -0.12035178 0.10488565
2674 -41 -82 -0.99550134 -0.066493504 -0.067496285 0.10922025
2674 -54 -82 -0.97483462 -0.20666283 -0.083594516 0.10280862
2668 -27 -82 -0.99670041 0.068011172 -0.044303156 0.10034555
2662 -29 -79 -0.9992218 0.039255843 -0.0038382942 0.095733635
2659 -56 -79 -0.98036802 -0.19715697 -0.002779023 0.090459593
2685 15 -36 -0.80953026 0.51941556 0.27362069 0.13736399
2686 2 -36 -0.86710322 0.39345166 0.30549589 0.13196412
2687 29 -36 -0.68813026 0.34907085 0.63610238 0.1533502
2702 42 -36 -0.54924387 0.34832951 0.75960368 0.11821374
2703 -101 -112 -0.52393007 -0.73574686 -0.42915475 0.10289449
2693 -88 -112 -0.71754676 -0.55567116 -0.41994768 0.11686851
2671 -2 -67 -0.95539248 0.29515481 -0.010434027 0.094841041
2674 -29 -67 -0.99747097 0.069227718 0.016097132 0.096791722
2666 -42 -67 -0.99660945 -0.073486529 0.037004396 0.094841793
2680 -16 -67 -0.97294402 0.22533409 -0.051034924 0.11420244
2671 -55 -67 -0.98047411 -0.19574992 0.01877638 0.10922741
2709 19 -26 -0.53760809 0.6642797 0.5193361 0.12413818
2703 23 -68 -0.73202747 0.31211978 0.60557163 0.17335501
2680 10 -67 -0.90810853 0.41801837 -0.024485236 0.12187845
2696 -107 -85 -0.705199 -0.67653823 -0.212109 0.068561792
2679 -7 -41 -0.94098073 0.30402091 0.14874965 0.1085304
2665 -66 -85 -0.9413653 -0.31330371 -0.12518847 0.085896783
2690 5 -41 -0.84439403 0.46975726 0.25753975 0.14761457
2652 -53 -84 -0.99029589 -0.13703611 -0.023135239 0.089952029
2677 -80 -85 -0.88483053 -0.43806714 -0.15865703 0.082933076
2699 45 -42 -0.54518974 0.31265178 0.7778284 0.13787121
2682 18 -41 -0.84470099 0.43378001 0.31355256 0.14878789
2692 31 -42 -0.6333133 0.27468705 0.72350627 0.15266617
2675 20 -53 -0.86321306 0.1828136 0.4705767 0.15849963
2668 -5 -53 -0.95768774 0.2788918 0.071088329 0.096491992
2679 7 -53 -0.90389985 0.41914976 0.085314199 0.11915884
2697 47 -53 -0.55798668 0.19992836 0.80540645 0.14679137
2699 34 -53 -0.59308028 0.25025427 0.76526374 0.16279872
2681 -53 -97 -0.95296222 -0.20686978 -0.22151268 0.12117879
2703 -67 -98 -0.80913544 -0.44851282 -0.37965271 0.16198838
2682 -39 -97 -0.95541239 -0.0020214822 -0.29526779 0.14467186
2679 -26 -96 -0.94432014 0.12315612 -0.30510971 0.13599338
2679 -81 -112 -0.807796 -0.45539421 -0.37427488 0.090064824
2678 -22 -68 -0.98983365 0.14037269 0.022909116 0.097307868
2678 -9 -68 -0.95942551 0.27983889 -0.034538984 0.10608448
2675 17 -68 -0.89845824 0.15413493 0.41111469 0.15257858
2708 30 -69 -0.554533 0.30938312 0.77251232 0.17322451
2674 -48 -68 -0.98754579 -0.15730889 0.0026723936 0.10954919
2701 -95 -113 -0.58442432 -0.65699446 -0.47624201 0.11281718
2672 -35 -68 -0.99945515 0.0070501254 0.032244287 0.094763063
2672 3 -68 -0.93396109 0.35549715 -0.036584511 0.098604493
2678 -18 -57 -0.97768974 0.19787981 0.070471726 0.098459661
2693 -90 -103 -0.74675941 -0.56771964 -0.34647456 0.097400919
2669 -31 -57 -0.99677652 0.060973804 0.052141983 0.094046205
2689 -44 -58 -0.9898383 -0.097270064 0.10372404 0.15058582
2710 -104 -103 -0.54073876 -0.73492062 -0.40925953 0.091425724
2691 21 -58 -0.77484149 0.2660726 0.57343352 0.15726781
2694 8 -58 -0.81497478 0.56784391 -0.11562553 0.15082772
2697 34 -58 -0.59563798 0.21483928 0.77398938 0.15552075
2681 -37 -102 -0.93550843 0.035789259 -0.35148695 0.15287243
2684 -4 -58 -0.92865205 0.37065241 -0.014905788 0.11818264
2662 -50 -101 -0.96544951 -0.18114203 -0.18733615 0.10940481
2680 -76 -102 -0.85590583 -0.43291956 -0.28285313 0.083896928
2681 25 -68 -0.7292555 0.12478133 0.6727674 0.14098704
2694 38 -68 -0.53288907 0.17229536 0.82845855 0.16532019
2665 -1 -68 -0.95615524 0.29270843 -0.0094259633 0.091433093
2688 -27 -69 -0.99242318 0.11413869 0.045481864 0.15164053
2672 12 -68 -0.9437114 0.32893756 0.034768041 0.124545
2663 -14 -68 -0.98063254 0.19583894 0.0026264619 0.088833034
2705 33 -31 -0.56046027 0.41309273 0.71780139 0.13551961
2681 19 -31 -0.79403454 0.49996042 0.34575826 0.12060449
2707 -106 -111 -0.50333172 -0.74270362 -0.44164294 0.083350241
2670 -59 -65 -0.97228992 -0.2322832 0.026397005 0.094609179
2703 -92 -111 -0.58973336 -0.63712907 -0.49626714 0.11818945
2679 -20 -65 -0.97986305 0.19780461 -0.027235702 0.10998326
2675 -46 -65 -0.99261081 -0.11969977 0.019894818 0.11318651
2674 5 -65 -0.92216289 0.38618213 -0.02188809 0.10261973
2676 -33 -65 -0.99892205 0.039152183 0.02493877 0.097682245
2673 -7 -65 -0.96270651 0.2692793 0.026168836 0.097314395
2692 19 -66 -0.75885785 0.24185677 0.60468185 0.17171445
2685 -14 -58 -0.96830165 0.24665247 0.039426725 0.1234123
2690 25 -59 -0.72724068 0.24214055 0.64225304 0.14800625
2678 11 -58 -0.90188164 0.42625743 0.070100665 0.12085046
2678 -1 -58 -0.93981528 0.33911839 0.041784212 0.10380328
2693 38 -59 -0.59831983 0.19588524 0.77694422 0.16109134
2671 -21 -103 -0.94487774 0.17553508 -0.27639368 0.12906931
2701 -88 -104 -0.66613787 -0.61740261 -0.41841885 0.13073014
2661 -34 -102 -0.99217594 -0.031750593 -0.12074246 0.11246882
2669 -47 -102 -0.95808482 -0.16372806 -0.2350885 0.10820949
2676 -61 -103 -0.9176994 -0.3116163 -0.24642068 0.097068414
2678 -74 -103 -0.85981107 -0.42758426 -0.27909964 0.082570434
2689 20 -80 -0.62586522 0.18296868 0.7581656 0.15695396
2681 7 -80 -0.84614176 0.46879092 -0.25353321 0.12772922
2677 -6 -80 -0.95201808 0.28827286 -0.10276318 0.11721434
2676 -19 -80 -0.98174948 0.1758367 -0.072453462 0.10016468
2685 -33 -80 -0.98636043 0.038602572 -0.16000943 0.1512091
2675 -17 -93 -0.93671572 0.21687026 -0.27482876 0.12074444
2686 -59 -92 -0.92748982 -0.2913025 -0.23431945 0.13514827
2683 -67 -76 -0.93192387 -0.34906599 -0.098340459 0.10509913
2675 -54 -76 -0.98003316 -0.19722354 0.025257234 0.11119068
2703 17 -36 -0.63775629 0.65434551 0.40632346 0.13056204
2674 -40 -76 -0.99823111 -0.059250496 0.004898902 0.10886396
2719 30 -36 -0.52218717 0.35012943 0.77764392 0.12571941
2673 -27 -76 -0.99598736 0.089408822 0.0038945412 0.10647157
2671 -14 -76 -0.97642958 0.21195592 -0.040741574 0.096074738
2674 0 -76 -0.9418413 0.33322966 -0.043508716 0.11376533
2683 -13 -63 -0.96591538 0.25856042 -0.012412528 0.11917951
2691 -85 -107 -0.76124698 -0.53230613 -0.3703422 0.10019726
2689 0 -63 -0.90048456 0.42519599 -0.091301434 0.14472248
2708 -99 -108 -0.54602307 -0.71353328 -0.43900925 0.096934684
2679 -39 -62 -0.99643523 -0.03667916 0.075970732 0.10795757
2672 -52 -62 -0.98432791 -0.1603006 0.073500581 0.1076672
2681 -26 -63 -0.98875594 0.14774622 -0.023083657 0.12672175
2695 26 -63 -0.65932035 0.21064261 0.72175229 0.15991291
2680 12 -63 -0.90670824 0.42060307 0.031197213 0.12442967
2688 -16 -79 -0.95583183 0.25188679 -0.15145482 0.14029193
2678 -42 -79 -0.9950794 -0.076985046 -0.062372398 0.12285668
2667 -29 -79 -0.99847609 0.054138649 -0.010701204 0.10263754
2681 1 -38 -0.9001413 0.38758993 0.19879563 0.11502589
2685 -83 -80 -0.85907608 -0.49649921 -0.12440592 0.097275726
2692 15 -38 -0.76446027 0.58457786 0.2717889 0.14754277
2678 -69 -79 -0.9314357 -0.35327488 -0.087318175 0.096720144
2719 -111 -81 -0.50349712 -0.83248776 -0.23120283 0.10935409
2677 -56 -79 -0.96438819 -0.25288686 -0.077483244 0.1092096
2694 -96 -80 -0.7762993 -0.61428809 -0.1414554 0.098674834
2719 28 -38 -0.55456346 0.40183067 0.72869158 0.12910922
2693 -89 -68 -0.83130443 -0.55011398 -0.07941965 0.10150548
2691 -102 -68 -0.78236312 -0.61668485 -0.087222449 0.088304847
2675 -62 -68 -0.96598291 -0.25850239 0.0073160441 0.1061631
2717 -116 -69 -0.51350981 -0.83968842 -0.17672309 0.12157604
2687 -75 -68 -0.89755458 -0.43975234 -0.031836171 0.11303324
2682 21 -64 -0.82772374 0.19021127 0.52791387 0.15690184
2680 8 -64 -0.91011709 0.41419369 -0.01141958 0.11736663
2668 -31 -64 -0.99793941 0.062887907 0.012732815 0.097557157
2682 -45 -64 -0.99321038 -0.11475457 0.01909546 0.13978887
2713 -113 -65 -0.57070512 -0.79553914 -0.20350206 0.12848277
2688 -98 -64 -0.81148261 -0.57814968 -0.085082293 0.093076989
2672 -5 -64 -0.95494157 0.29672989 -0.0061580343 0.098013327
2674 -18 -64 -0.98241752 0.18659 0.0063200817 0.090565339
2674 -71 -64 -0.93476862 -0.35525671 0.00064470823 0.088289388
2677 -85 -64 -0.8966471 -0.44261742 -0.010665592 0.088827066
2673 -58 -64 -0.97442538 -0.22456692 0.0080573494 0.10326699
2685 19 -65 -0.86527157 0.24027106 0.43997151 0.16092363
2669 -60 -66 -0.96947217 -0.24283558 0.03397854 0.093386143
2667 -7 -65 -0.96751863 0.25205991 -0.019326197 0.088720925
2672 -47 -66 -0.99263501 -0.11962619 0.019109588 0.10252389
2678 5 -65 -0.91697258 0.3978174 -0.03004447 0.10880864
2687 -74 -66 -0.90519029 -0.42500475 -0.0012455947 0.11946522
2712 32 -66 -0.51913404 0.32862964 0.78898817 0.17316654
2666 -33 -65 -0.99935216 0.021545038 0.028829174 0.091433935
2668 -20 -65 -0.98651838 0.16358016 0.0047901114 0.086096816
2725 -102 -68 -0.59279656 -0.75311607 -0.28532165 0.18733822
2704 -88 -67 -0.79483622 -0.58901346 -0.14593993 0.14477277
2725 40 -43 -0.54597962 0.43419489 0.71650612 0.13605727
2682 -27 -42 -0.95405447 0.0554961 0.29444906 0.11272928
2686 12 -42 -0.82843703 0.52561468 0.19344601 0.13072644
2684 -13 -42 -0.93734872 0.21393523 0.27497101 0.13062677
2706 26 -42 -0.63771695 0.50350451 0.58292389 0.14908482
2679 0 -42 -0.91885573 0.3631891 0.15426543 0.1163898
2670 -40 -42 -0.98245096 -0.051216785 0.17935109 0.10731626
2681 -83 -74 -0.87811148 -0.47294182 -0.072431259 0.087697335
2704 -110 -75 -0.66359371 -0.72849065 -0.17013164 0.09319286
2663 -56 -74 -0.97928238 -0.20083465 -0.025913864 0.095040232
2675 -69 -74 -0.93639302 -0.34870261 -0.03967981 0.09069968
2680 -96 -74 -0.82453591 -0.5610531 -0.073211871 0.072600342
2673 -43 -75 -0.99576986 -0.089973778 0.018630706 0.10667846
2709 42 -31 -0.51504737 0.38422337 0.76622361 0.10939034
2677 -10 -31 -0.93608856 0.29048964 0.19837852 0.10001659
2690 2 -31 -0.8150456 0.37472489 0.44190711 0.13874562
2697 29 -31 -0.6382091 0.44918218 0.62523961 0.138943
2685 15 -31 -0.78475165 0.53404278 0.31458423 0.12301928
2673 -13 -56 -0.97068185 0.23273243 0.060102552 0.090345822
2668 -39 -56 -0.99375951 -0.040718663 0.10384647 0.094773643
2689 26 -56 -0.73836911 0.24909332 0.62670851 0.14995268
2691 13 -56 -0.84749573 0.52850288 0.049352635 0.15063311
2722 40 -57 -0.5784955 0.40948233 0.70545524 0.15303279
2696 -93 -57 -0.82014769 -0.56611753 -0.082877889 0.11844464
2715 -108 -58 -0.60054511 -0.76906765 -0.21881633 0.16870958
2674 0 -56 -0.93869805 0.34181765 0.044796407 0.10209608
2668 -26 -56 -0.99112666 0.095545493 0.092406668 0.095303111
2665 -53 -56 -0.98361892 -0.15383686 0.093957871 0.1026139
2676 -66 -57 -0.95502144 -0.29110497 0.056497119 0.09901309
2701 4 -30 -0.72531134 0.47055653 0.50249368 0.16273706
2673 -79 -71 -0.90821624 -0.41788384 -0.022722872 0.077461205
2668 -39 -70 -0.99904072 -0.03826452 0.021295648 0.1020651
2700 -107 -71 -0.72394866 -0.67704624 -0.13231334 0.086303353
2687 -93 -71 -0.80901176 -0.58459944 -0.061183009 0.095381066
2685 -13 -71 -0.96329725 0.26041964 -0.065116011 0.13087748
2674 -66 -71 -0.94945747 -0.31156653 -0.038169097 0.093744136
2673 -53 -71 -0.98141599 -0.19177055 0.0068312185 0.10880914
2709 31 -30 -0.5703606 0.45383975 0.68463004 0.12293828
2670 -26 -71 -0.99505442 0.09819217 0.015002333 0.098553069
2699 18 -30 -0.63926154 0.67159086 0.37458044 0.13075168
2703 31 -70 -0.55697191 0.20743056 0.80421072 0.17686185
2678 -22 -69 -0.98850799 0.1510157 -0.0067943945 0.099910565
2682 4 -69 -0.89488876 0.42599165 -0.13306116 0.11588878
2664 -35 -68 -0.99963272 0.0084774587 0.02574046 0.087526537
2678 -9 -69 -0.95905679 0.28094456 -0.03577897 0.10743163
2689 17 -70 -0.86528367 0.25779864 0.42991158 0.16967902
2676 -49 -68 -0.98977053 -0.1425789 -0.0050571538 0.11193828
2673 -39 -77 -0.99858576 -0.053152051 0.0011827188 0.10925232
2675 0 -78 -0.93965912 0.33777419 -0.054307174 0.11286116
2669 -12 -77 -0.97594142 0.21712206 -0.019907206 0.094404809
2677 -52 -77 -0.98229074 -0.18709275 -0.010059359 0.1159512
2678 -65 -77 -0.94093615 -0.32721755 -0.086993992 0.10345897
2679 -25 -77 -0.9913559 0.12496617 -0.039961167 0.11640451
2677 -57 -70 -0.97492039 -0.22249852 0.0049631647 0.11227948
2663 -30 -69 -0.99894589 0.045464043 -0.006330994 0.090517461
2671 -17 -69 -0.98139918 0.19061054 0.022875585 0.086125463
2683 23 -69 -0.68779558 0.13705985 0.71284771 0.14976418
2662 -43 -69 -0.9973824 -0.072306521 -5.5470526e-05 0.094590656
2690 -88 -115 -0.71445781 -0.54858416 -0.43428725 0.10165609
2679 9 -69 -0.91253614 0.4083102 -0.023674419 0.1219689
2675 -65 -66 -0.95881885 -0.28350741 -0.017024759 0.10285882
2691 -78 -66 -0.88221604 -0.47008926 -0.026662985 0.11268856
2682 -25 -66 -0.98972553 0.14171354 0.018992845 0.12568247
2674 -38 -66 -0.99903196 -0.016042341 0.040961765 0.095374882
2703 -105 -66 -0.7306751 -0.67155248 -0.12300856 0.12350204
2674 -3 -25 -0.89292312 0.3719601 0.25364172 0.10428303
2672 -51 -66 -0.98656279 -0.16242185 0.017692957 0.11130869
2706 23 -26 -0.56741279 0.66039896 0.49184942 0.1241449
2679 9 -25 -0.8158896 0.48267144 0.31835893 0.10865869
2715 -119 -67 -0.50642723 -0.83925456 -0.19794725 0.13592787
2693 -92 -66 -0.8105616 -0.57952756 -0.084484555 0.10246251
2691 29 -31 -0.65680629 0.46414915 0.59428191 0.14287505
2713 42 -32 -0.50858063 0.3320654 0.79440433 0.10492451
2693 23 -74 -0.60316885 0.16000031 0.78140086 0.16458842
2678 9 -74 -0.90763938 0.41474319 -0.064644076 0.12504916
2674 -3 -74 -0.94901055 0.31246239 -0.041787423 0.10983421
2678 -16 -74 -0.97652406 0.21504837 -0.012446538 0.10437668
2672 -43 -73 -0.99621201 -0.086116411 -0.012066836 0.10477012
2702 -76 -116 -0.50035375 -0.29696941 -0.81329906 0.15615754
2673 -30 -73 -0.9981299 0.053713214 0.029182771 0.10155862
2681 -56 -73 -0.97280657 -0.23147458 0.0081813047 0.1202314
2671 -16 -58 -0.98059112 0.19359204 0.031035615 0.082015112
2664 -42 -57 -0.99407315 -0.066023111 0.086367942 0.094794601
2712 -104 -101 -0.54029602 -0.7354008 -0.40898147 0.089991562
2682 10 -58 -0.88490826 0.46237651 0.056082513 0.1280607
2663 -29 -57 -0.99573374 0.05873191 0.071168229 0.092439868
2667 -2 -58 -0.95433885 0.29812169 0.01899535 0.095802031
2699 -91 -100 -0.6886574 -0.60934305 -0.39300403 0.11848527
2687 23 -58 -0.76673621 0.24093355 0.59503496 0.15484175
2705 37 -59 -0.52299887 0.19347793 0.83008337 0.15806484
2697 -66 -104 -0.80411762 -0.44420302 -0.39506757 0.15628143
2700 -106 -57 -0.75215793 -0.64681816 -0.12603489 0.10025702
2682 0 -58 -0.92880708 0.36994177 0.021461064 0.11686672
2682 -65 -57 -0.94815451 -0.31027374 0.068798386 0.1262814
2680 -26 -58 -0.98965973 0.11747281 0.082303584 0.10016807
2679 -52 -57 -0.97759271 -0.16951829 0.12480389 0.11962434
2712 -120 -58 -0.54826337 -0.81811893 -0.17346095 0.12654179
2698 -93 -58 -0.79981327 -0.58928055 -0.11422412 0.12474554
2685 -79 -57 -0.89260763 -0.44979909 0.030535027 0.1155743
2681 -39 -58 -0.98725742 -0.056652181 0.14870557 0.1225861
2682 -13 -58 -0.96843559 0.24916852 0.0068925759 0.11791779
2693 -81 -69 -0.86405611 -0.50181913 -0.03980739 0.11358625
2703 -95 -69 -0.76438278 -0.63170648 -0.12909591 0.13329138
2718 -109 -69 -0.57365334 -0.80149543 -0.16889893 0.1641224
2707 20 -28 -0.56088555 0.69169062 0.45494124 0.12467823
2679 -55 -68 -0.97671479 -0.21252473 0.029349621 0.12251818
2679 -68 -68 -0.93978643 -0.34074241 -0.026380694 0.100633
2695 6 -28 -0.74044102 0.42444038 0.52115005 0.15426168
2681 -41 -68 -0.99459624 -0.093889616 0.044307221 0.13061689
2677 -28 -68 -0.99598044 0.085928641 0.025281172 0.10195351
2674 -15 -68 -0.9772234 0.21221235 -0.00063009659 0.091040023
2677 -16 -67 -0.97515178 0.21794187 -0.039752815 0.10066094
2676 -56 -67 -0.97715008 -0.21227863 -0.010747141 0.11156989
2713 23 -68 -0.63801968 0.36381742 0.67865145 0.19594921
2690 10 -67 -0.84173769 0.52526861 -0.12478171 0.15304288
2670 -42 -66 -0.99773341 -0.062331211 0.025354126 0.095306605
2667 -29 -67 -0.9974255 0.071640216 0.0031885551 0.096175507
2658 -3 -67 -0.96572375 0.25523984 0.047224935 0.089729585
2684 -69 -67 -0.93092984 -0.36512655 0.0072269361 0.11367828
2681 21 -60 -0.81727618 0.19830526 0.54104966 0.15280208
2686 8 -60 -0.88154358 0.47209957 0.0016965142 0.13669111
2674 -31 -60 -0.9965018 0.076710507 0.033161882 0.098190971
2683 -5 -60 -0.93751502 0.34783694 -0.0086567868 0.1152693
2666 -58 -60 -0.97172409 -0.21596381 0.095455945 0.094263017
2678 -44 -60 -0.99060786 -0.08733014 0.10521139 0.10814397
2684 -18 -60 -0.97460645 0.221247 0.034526449 0.1215426
2694 -86 -77 -0.8273536 -0.54268378 -0.14484604 0.1157667
2710 -100 -77 -0.62601125 -0.73842406 -0.25067875 0.1640916
2696 -72 -77 -0.86868662 -0.43454364 -0.23781379 0.14232659
2693 -43 -77 -0.9770962 -0.088092014 -0.19370838 0.19744682
2687 -29 -77 -0.96167171 0.11996426 -0.24656861 0.16952042
2715 -115 -77 -0.52087164 -0.83161676 -0.1926302 0.10742914
2671 -35 -79 -0.99957174 -0.009952425 -0.027518095 0.10015056
2684 -4 -38 -0.90326655 0.32738683 0.27735776 0.13117845
2696 9 -38 -0.76415712 0.54162878 0.3502886 0.14793609
2710 22 -39 -0.60630989 0.67166811 0.42573491 0.12863559
2676 -48 -80 -0.98686701 -0.15247862 -0.053327192 0.11660618
2671 -62 -80 -0.95547265 -0.27823958 -0.098258473 0.08571665
2700 -103 -81 -0.69588202 -0.68072855 -0.22881609 0.10620593
2692 -89 -80 -0.80758959 -0.57215959 -0.14294212 0.10749511
2673 -75 -80 -0.91495818 -0.38828197 -0.1099484 0.077550575
2694 -72 -99 -0.8067441 -0.44916561 -0.38394561 0.14046374
2701 -86 -99 -0.70102262 -0.5911383 -0.39890185 0.13301784
2714 -101 -100 -0.55413991 -0.72462785 -0.40968689 0.09927924
2685 -58 -99 -0.91295654 -0.29343095 -0.283564 0.12015274
2707 27 -62 -0.62943208 0.3098166 0.71262115 0.16903315
2686 13 -61 -0.87780541 0.47603682 0.053354405 0.14321518
2687 -12 -61 -0.95860749 0.28467792 0.0054903431 0.124916
2681 -25 -61 -0.9867956 0.16169839 0.0093826214 0.12114925
2676 -38 -61 -0.99826312 -0.027359411 0.052174285 0.096875601
2705 -98 -106 -0.59149498 -0.69163483 -0.41445738 0.096741736
2675 0 -61 -0.94341123 0.33050534 0.027230239 0.101118
2703 -85 -106 -0.67533582 -0.59615964 -0.43418324 0.15166451
2679 -52 -61 -0.98184788 -0.18504278 0.041640941 0.12230557
2720 38 -48 -0.55082434 0.36521593 0.75047308 0.13565198
2690 11 -47 -0.82459962 0.53943777 0.17041829 0.15015145
2696 -2 -48 -0.88128078 0.3833763 0.27634537 0.16780466
2672 -59 -92 -0.95221883 -0.25991702 -0.16038221 0.088954531
2696 24 -47 -0.68333226 0.37560591 0.62608087 0.16375767
2666 -45 -92 -0.98697972 -0.10410351 -0.12261121 0.10527032
2695 -15 -48 -0.92874622 0.2538451 0.27017218 0.15686601
2687 -73 -93 -0.86495674 -0.42701498 -0.26364407 0.11060062
2676 -32 -92 -0.96671754 0.061554253 -0.24833119 0.12981826
2697 -86 -94 -0.75215024 -0.56213319 -0.34391317 0.12792429
2711 27 -27 -0.54601979 0.52612132 0.65196532 0.12940307
2679 0 -27 -0.88080657 0.3908034 0.26730594 0.11340746
2692 14 -27 -0.7151255 0.5770492 0.39447403 0.12404158
2670 -12 -27 -0.94830412 0.26020658 0.18169172 0.095879264
2677 -54 -55 -0.98187792 -0.16342925 0.095951937 0.11001337
2681 -41 -55 -0.98197943 -0.061483689 0.17870706 0.12760524
2682 -67 -55 -0.94320589 -0.3294104 0.043028314 0.12305562
2694 7 -14 -0.56675476 0.39834139 0.72118878 0.13949168
2697 -112 -69 -0.72042912 -0.67909181 -0.14077038 0.088443205
2660 -32 -68 -0.99956304 0.022053616 0.019682014 0.087575287
2665 -45 -68 -0.99495953 -0.09187492 0.040180266 0.097914413
2665 -72 -68 -0.9434098 -0.33153197 0.0080334721 0.077919595
2663 -58 -68 -0.97957855 -0.19785905 0.035744213 0.089941666
2671 -85 -68 -0.89803368 -0.43978339 -0.011230624 0.078035779
2676 -98 -69 -0.82983738 -0.5498535 -0.095032476 0.069579303
2709 25 -24 -0.54080945 0.63793629 0.54823571 0.12207919
2671 0 -24 -0.8824389 0.38759196 0.26659721 0.098182701
2687 12 -24 -0.75921011 0.51077622 0.40337041 0.12136299
2698 -86 -92 -0.75385928 -0.56892806 -0.32865965 0.13013026
2685 -24 -43 -0.94919413 0.11435001 0.29318011 0.12881385
2677 2 -43 -0.91037458 0.38903043 0.1409732 0.10799421
2668 -10 -43 -0.96565998 0.22824991 0.12410774 0.086238906
2684 15 -43 -0.83394212 0.50361657 0.22563438 0.14092232
2689 42 -44 -0.60850155 0.25203708 0.75246471 0.14249368
2693 29 -44 -0.62774873 0.27634352 0.72771263 0.16058551
2708 37 -55 -0.52907002 0.21929494 0.81975269 0.15019467
2689 10 -55 -0.85335732 0.52131599 0.0033213478 0.14369312
2674 -16 -55 -0.97624344 0.21022172 0.052494351 0.089861557
2671 -3 -55 -0.95107573 0.30622953 0.040968843 0.094805539
2688 23 -55 -0.76042038 0.25394145 0.5977245 0.1529634
2668 -42 -55 -0.99220002 -0.070039332 0.10311939 0.096233569
2668 -29 -55 -0.99299079 0.076340042 0.090229668 0.092040345
2674 -40 -42 -0.97491175 -0.067250095 0.21219011 0.11340411
2673 -54 -42 -0.97132486 -0.1727685 0.16333732 0.12239524
2677 -27 -42 -0.97718483 0.086804979 0.19384181 0.096839398
2688 -14 -42 -0.92757654 0.2184474 0.30312127 0.13306056
2698 11 -42 -0.75861174 0.57403058 0.30821604 0.14338411
2699 38 -42 -0.56677735 0.27417028 0.77691323 0.14011507
2682 -1 -42 -0.91202098 0.38356191 0.14525193 0.11601601
2697 25 -42 -0.66228569 0.42107049 0.61973971 0.1585016
2681 -47 -67 -0.9888913 -0.14763314 0.017274603 0.12992437
2680 -34 -67 -0.99901545 0.025500132 0.036303844 0.12270401
2699 -101 -67 -0.76562732 -0.63198185 -0.12005673 0.10876995
2680 -21 -67 -0.98310542 0.18296507 -0.0052424362 0.12152267
2690 -87 -67 -0.85115951 -0.52062494 -0.066911131 0.10683049
2681 -8 -67 -0.94994259 0.31083173 -0.031507235 0.112658
2683 -74 -67 -0.91232431 -0.40871182 -0.024882333 0.10870157
2680 -60 -67 -0.97078836 -0.23991539 -0.0032505419 0.12168183
2685 4 -67 -0.88461977 0.44916692 -0.12528774 0.12845139
2668 -42 -95 -0.98516375 -0.080877863 -0.1513641 0.10918685
2662 -55 -94 -0.96319097 -0.22863533 -0.14138235 0.098079413
2667 -28 -94 -0.98913813 0.061497875 -0.13350604 0.10905056
2699 3 -51 -0.84700316 0.52165276 0.10229389 0.17010278
2661 -15 -94 -0.98251164 0.14772363 -0.11335181 0.11276671
2691 29 -50 -0.64945203 0.26918793 0.71116096 0.15919362
2701 -10 -51 -0.86930341 0.2568495 0.42230293 0.18313599
2691 42 -50 -0.6218729 0.23723622 0.74631965 0.14500998
2698 16 -51 -0.76667851 0.6224283 0.15743881 0.15577053
2675 3 -59 -0.92275435 0.38469627 0.023088494 0.10594387
2660 -9 -59 -0.97543263 0.21418375 0.051540323 0.080104202
2676 -22 -59 -0.98711812 0.14476585 0.068122029 0.091717578
2693 43 -59 -0.59846818 0.16014265 0.78497767 0.153319
2683 17 -59 -0.88848585 0.30336502 0.344329 0.15483408
2682 -2 -70 -0.92756659 0.35892257 -0.10389843 0.11608966
2693 -80 -115 -0.67049873 -0.46007738 -0.58203119 0.13362688
2686 -44 -71 -0.99226522 -0.12247345 0.02024807 0.16015066
2698 25 -70 -0.61901665 0.18569109 0.7631101 0.16909228
2692 -16 -70 -0.97097427 0.23894049 0.010781217 0.14591254
2684 -30 -70 -0.99564463 0.059702147 0.071605682 0.1408526
2688 11 -70 -0.86084819 0.4945915 -0.11966456 0.1505104
2708 -106 -102 -0.53933805 -0.74766266 -0.38744667 0.077869907
2692 32 -57 -0.60617667 0.19725467 0.77048063 0.15698558
2686 -20 -57 -0.97736102 0.19020063 0.092678115 0.1280359
2685 -7 -56 -0.93677753 0.34971043 -0.012266249 0.13046995
2672 -34 -56 -0.99540681 0.027597379 0.091671541 0.096199133
2696 18 -57 -0.8065384 0.54556155 0.2277244 0.16650522
2687 5 -56 -0.88571531 0.46217817 0.043585811 0.1356087
2693 -79 -102 -0.77010399 -0.50236934 -0.39314741 0.12798414
2698 -93 -102 -0.66072953 -0.64417905 -0.38531783 0.10370422
2674 -47 -56 -0.98843992 -0.11043678 0.10387593 0.10227636
2731 39 -46 -0.50675517 0.40420395 0.76145816 0.14707072
2681 -19 -89 -0.95689934 0.21084616 -0.19971901 0.12175558
2675 -59 -89 -0.94996005 -0.27172726 -0.15407847 0.1009307
2691 -86 -89 -0.80713624 -0.53623688 -0.24694371 0.10992102
2688 12 -45 -0.81432015 0.55149513 0.18093058 0.13740997
2665 -45 -88 -0.99273425 -0.091497034 -0.078146935 0.10062347
2662 -32 -88 -0.99633658 0.023236372 -0.082300715 0.097135946
2679 -72 -89 -0.90067929 -0.38615659 -0.19914776 0.087577604
2718 25 -46 -0.59231317 0.59112918 0.54747719 0.14175902
2683 -83 -87 -0.85124886 -0.48832572 -0.19212838 0.079620779
2683 1 -46 -0.90638059 0.4036108 0.12479036 0.12385914
2707 14 -46 -0.68217951 0.63840485 0.3564693 0.16154149
2676 -70 -87 -0.9225083 -0.35518274 -0.15107517 0.082966223
2670 -29 -86 -0.99709809 0.05057152 -0.056903023 0.10262258
2694 -97 -88 -0.73968256 -0.62658048 -0.24549271 0.085001446
2726 41 -46 -0.5446288 0.38723227 0.74392921 0.14267582
2679 -43 -87 -0.98190302 -0.092773832 -0.16510457 0.12297584
2711 28 -46 -0.60646731 0.39039844 0.69266617 0.14557083
2679 -56 -87 -0.96138817 -0.22562806 -0.1575591 0.10347515
2675 -67 -67 -0.94852185 -0.31538484 -0.028958946 0.095309235
2672 -40 -66 -0.99809402 -0.047035243 0.039950255 0.096522905
2691 -94 -67 -0.8035686 -0.58914375 -0.084777422 0.090864122
2687 12 -67 -0.87707019 0.47910005 -0.034800317 0.15610869
2666 -26 -66 -0.9951843 0.09553057 0.021959644 0.097461246
2703 -108 -68 -0.71725136 -0.68219638 -0.14198077 0.096249223
2674 -53 -67 -0.98245925 -0.1864749 0.00099526742 0.1083318
2670 -80 -67 -0.9087348 -0.4173108 0.0072596837 0.07842584
2670 -13 -66 -0.97724843 0.21159418 0.014608238 0.085699052
2670 0 -66 -0.94939083 0.31409726 0.00013749822 0.096545301
2721 26 -67 -0.63192236 0.65785414 0.40975863 0.21050245
2685 -3 -48 -0.91827375 0.3781364 0.11741459 0.11986195
2678 -9 -93 -0.89642173 0.30299896 -0.32344958 0.12211794
2692 22 -48 -0.74800944 0.40133908 0.52859128 0.15852983
2699 9 -49 -0.79011452 0.58963972 0.16746321 0.16594149
2682 -62 -93 -0.92852253 -0.32611191 -0.17747357 0.1075514
2725 49 -49 -0.53310609 0.4653264 0.70658988 0.14257431
2672 -48 -93 -0.97274709 -0.17042719 -0.15721855 0.11962231
2709 36 -49 -0.53706187 0.29600081 0.78990376 0.1448337
2666 -22 -92 -0.987562 0.10623695 -0.11590976 0.11232866
2667 -35 -92 -0.99528337 0.0020564953 -0.096988551 0.11228333
2685 15 -71 -0.89398897 0.30596742 0.32736492 0.16724473
2662 2 -70 -0.94535244 0.32534799 -0.02138759 0.10104725
2690 29 -72 -0.61896122 0.15542904 0.76988882 0.15310292
2676 -10 -71 -0.96995717 0.24325241 -0.00336734 0.098670259
2699 -72 -114 -0.59112769 -0.30123436 -0.74821514 0.15612835
2688 22 -58 -0.77582258 0.24747123 0.58039397 0.15861799
2703 36 -58 -0.55181921 0.209631 0.80718672 0.15820634
2722 50 -58 -0.51742315 0.51249284 0.68529141 0.18299238
2670 -21 -99 -0.95509857 0.16902389 -0.24334672 0.12407453
2680 -48 -99 -0.95607811 -0.18369214 -0.22841175 0.12537108
2701 -76 -100 -0.75339013 -0.50922972 -0.41603887 0.15449975
2686 9 -58 -0.86887199 0.49346203 0.03945433 0.13663132
2677 -62 -99 -0.92672753 -0.31165516 -0.20987411 0.097144172
2680 -4 -58 -0.94064391 0.33678338 0.042023923 0.1115445
2669 -35 -99 -0.98795456 -0.0087060183 -0.15449937 0.11269824
2685 -7 -32 -0.8751725 0.27380106 0.39888102 0.13863313
2694 18 -33 -0.69494724 0.64647007 0.31484079 0.13288344
2678 5 -32 -0.87690938 0.41509452 0.24233559 0.10774232
2684 8 -27 -0.81530845 0.49468946 0.30092257 0.12612218
2688 -93 -68 -0.81496465 -0.57658476 -0.058160026 0.090884194
2678 -4 -27 -0.90123767 0.35593247 0.24714936 0.10981934
2695 -106 -68 -0.74846137 -0.65733695 -0.087827958 0.083854817
2669 -66 -67 -0.9555214 -0.29483637 0.0071018147 0.090106539
2683 -79 -68 -0.8901099 -0.45568189 0.0076393816 0.10745225
2715 22 -27 -0.52088451 0.56763619 0.63754886 0.12313157
2673 -40 -68 -0.9985069 -0.047886647 0.026284954 0.10085041
2670 -53 -68 -0.98620719 -0.16422507 0.020628082 0.10202485
2670 -6 -27 -0.92366242 0.33441463 0.18712153 0.088700742
2683 6 -27 -0.83206987 0.47259197 0.29037294 0.11983233
2692 19 -28 -0.68984276 0.61708575 0.37857905 0.12297823
2676 11 -19 -0.79692489 0.46781728 0.38217509 0.11081065
2701 24 -19 -0.55218673 0.60607594 0.57250476 0.094592668
2682 -2 -19 -0.84147227 0.41353467 0.3477262 0.13557747
2684 2 -64 -0.89993131 0.42216551 -0.10908647 0.12766801
2699 16 -65 -0.80071521 0.59851223 -0.025262309 0.17160812
2687 -11 -64 -0.95570862 0.29257685 -0.031936057 0.12332349
2700 -96 -63 -0.77820683 -0.61460942 -0.12903278 0.12681478
2686 -67 -63 -0.94162518 -0.33628726 -0.015905026 0.11736607
2686 -81 -63 -0.87924713 -0.47515777 -0.033907332 0.10831545
2686 -39 -64 -0.99290341 -0.060947206 0.10211896 0.15434597
2707 -110 -64 -0.63451022 -0.76054776 -0.13770953 0.13505077
2689 -25 -64 -0.98723227 0.12952323 0.092715763 0.14771745
2717 45 -59 -0.52925497 0.35899088 0.76877481 0.16518895
2677 4 -58 -0.91947508 0.39229679 0.025860393 0.10787655
2691 18 -58 -0.8315559 0.40890002 0.37591976 0.16954669
2684 -8 -58 -0.94467968 0.32778028 -0.011852175 0.12471822
2673 -41 -102 -0.96351922 -0.079629332 -0.25551873 0.12514272
2676 -35 -58 -0.99732697 0.021447634 0.069849022 0.09760166
2675 -68 -102 -0.89281702 -0.36431229 -0.26486668 0.085868239
2694 -95 -103 -0.70134974 -0.63851315 -0.31687444 0.084504746
2665 -21 -58 -0.98773581 0.15191977 0.036033008 0.086854495
2707 -109 -104 -0.54150116 -0.74221879 -0.3948262 0.073586136
2682 -81 -103 -0.81857133 -0.47792065 -0.31864226 0.08212965
2675 -54 -102 -0.93891054 -0.23670876 -0.24983174 0.10512978
2668 -43 -45 -0.97843117 -0.076132275 0.19203247 0.10732307
2689 9 -45 -0.83448571 0.52660716 0.16222982 0.14193891
2673 -17 -45 -0.97284472 0.1846853 0.1395151 0.089250326
2673 -3 -45 -0.94147444 0.3157728 0.11795513 0.10544045
2703 22 -45 -0.68385363 0.58213115 0.43984935 0.15333641
2663 -30 -45 -0.9888857 0.04180222 0.14268033 0.09596736
2715 36 -45 -0.55950683 0.3388744 0.75638378 0.13111752
2668 -56 -45 -0.97033554 -0.18139189 0.15983114 0.11636289
2715 -112 -47 -0.54167527 -0.83290702 -0.11337438 0.18406282
2706 -99 -73 -0.72140706 -0.6763227 -0.14886087 0.14411679
2694 -84 -73 -0.83992058 -0.52869475 -0.12253705 0.12273603
2686 -28 -73 -0.99085391 0.079704374 0.10888359 0.14810212
2695 -70 -73 -0.90003765 -0.4094713 -0.14921652 0.14260472
2685 -42 -73 -0.99533129 -0.096120968 -0.0087466342 0.16132507
2715 -113 -73 -0.54491025 -0.823991 -0.15527906 0.12201784
2700 24 -48 -0.67584813 0.45175284 0.58236474 0.16297594
2712 38 -48 -0.55411327 0.29501382 0.77841198 0.13424306
2712 36 -50 -0.55552435 0.29183432 0.77860475 0.13537669
2672 -56 -50 -0.96438998 -0.19338839 0.18042402 0.10287988
2670 -43 -49 -0.9832046 -0.076646738 0.16563232 0.10551404
2667 -3 -49 -0.95151347 0.28556114 0.11435488 0.087861024
2686 9 -49 -0.86779916 0.4915151 0.073057294 0.13495991
2681 -70 -50 -0.9304055 -0.3465257 0.11943815 0.113584
2689 -97 -50 -0.82809716 -0.55988413 -0.02801461 0.11325634
2686 23 -49 -0.75594866 0.28212389 0.59071803 0.15746894
2669 -29 -49 -0.98680389 0.076388232 0.14276892 0.098522723
2688 -83 -50 -0.87516409 -0.47165379 0.10784523 0.11938796
2715 -111 -51 -0.52763742 -0.83574373 -0.15208901 0.16434863
2675 -16 -49 -0.9729175 0.20301932 0.11052036 0.089695692
2668 -56 -62 -0.97842807 -0.19598958 0.065318957 0.096193321
2704 -110 -63 -0.71826035 -0.6812408 -0.141468 0.10265782
2688 -83 -63 -0.86943936 -0.49035573 -0.060219709 0.10942464
2683 5 -22 -0.80978858 0.47781688 0.34048998 0.11916951
2694 -96 -63 -0.80160898 -0.59122568 -0.088742949 0.10098273
2676 -69 -62 -0.93999368 -0.3406902 0.018494168 0.10004678
2671 -30 -62 -0.99731678 0.069037937 0.024350703 0.095512606
2676 -43 -63 -0.99512082 -0.081547543 0.055538181 0.10704593
2692 18 -22 -0.66418564 0.58901042 0.46035221 0.1089191
2696 -96 -61 -0.80684137 -0.57965589 -0.11404461 0.10567989
2668 -55 -60 -0.98036665 -0.18231112 0.075125836 0.098403238
2697 5 -20 -0.66936094 0.41868544 0.61372501 0.1578341
2707 -109 -61 -0.65605342 -0.73652732 -0.16468588 0.13299397
2681 -42 -61 -0.99355817 -0.071922936 0.08757367 0.130155
2672 -29 -60 -0.99464858 0.083836138 0.060380042 0.097317256
2691 -82 -61 -0.87297004 -0.4855563 -0.046458147 0.12188002
2681 -69 -61 -0.93725401 -0.3486205 -0.0043273442 0.11020342
2705 19 -20 -0.52164096 0.63158238 0.57358027 0.10739788
2697 -88 -65 -0.82149523 -0.56350666 -0.087212034 0.11692095
2682 18 -65 -0.88298416 0.24205944 0.40217671 0.15809461
2675 -34 -64 -0.99936521 0.029544925 0.019905986 0.093967475
2674 -21 -64 -0.98675144 0.16021709 0.025535425 0.090211183
2673 -7 -64 -0.9621442 0.27175525 0.020679304 0.095276527
2675 5 -64 -0.9178282 0.39623258 -0.024312889 0.10830138
2680 -74 -64 -0.9190414 -0.3940199 -0.010541937 0.096198231
2707 -101 -65 -0.68871647 -0.70806682 -0.15591958 0.15405646
2676 -47 -64 -0.99072289 -0.13451037 0.019369218 0.11311348
2677 -60 -64 -0.97161967 -0.23498183 -0.027179157 0.10851225
2717 39 -47 -0.54518241 0.34046033 0.76606977 0.13341762
2689 12 -46 -0.81138575 0.56338573 0.15572312 0.14505973
2664 -40 -45 -0.99011242 -0.039485972 0.13460422 0.10031098
2670 -13 -45 -0.96681601 0.2219428 0.12652402 0.084920026
2669 0 -45 -0.93729454 0.32444051 0.12734732 0.087889224
2671 -27 -45 -0.9808116 0.097062588 0.16907826 0.099098131
2705 26 -46 -0.64952534 0.42347437 0.6314953 0.15622924
2675 -53 -45 -0.97370708 -0.15662432 0.16541879 0.12550169
2690 -91 -61 -0.84125102 -0.53688478 -0.063650578 0.097906046
2669 -50 -60 -0.98470628 -0.14061767 0.10285998 0.10759196
2667 -24 -60 -0.99268717 0.11839898 0.023533339 0.092817023
2660 2 -60 -0.94963694 0.3094795 0.049114633 0.08264745
2695 29 -60 -0.61512738 0.21749409 0.75783551 0.15710433
2668 -37 -60 -0.99674046 -0.030782996 0.074571185 0.092436515
2707 -105 -62 -0.67694467 -0.72218287 -0.14211902 0.15371062
2691 -78 -61 -0.88568074 -0.46334276 -0.029718116 0.11564591
2674 -10 -60 -0.96633911 0.25560805 0.029209912 0.09405411
2687 15 -60 -0.88862884 0.43936884 0.13150606 0.15444623
2673 -64 -61 -0.96129131 -0.26901323 0.059589759 0.097301364
2687 18 -27 -0.73456937 0.55830032 0.38562742 0.11256693
2666 -7 -27 -0.93305242 0.31560025 0.17265478 0.094919384
2716 32 -28 -0.5066793 0.39354095 0.76707345 0.1147261
2680 5 -27 -0.84989887 0.43722498 0.29411951 0.11063452
2683 20 -58 -0.83405715 0.22722073 0.50271207 0.15882351
2670 -46 -58 -0.99072027 -0.10374001 0.087814361 0.098088272
2684 7 -58 -0.88650751 0.46157575 0.032437354 0.12902021
2672 -32 -58 -0.99623942 0.055313069 0.066689976 0.095089063
2705 -114 -59 -0.67707849 -0.7027638 -0.21837516 0.10274468
2683 -99 -58 -0.82622784 -0.5596658 -0.064200364 0.091558181
2678 -72 -58 -0.93647069 -0.34999609 0.022920625 0.099218585
2678 -86 -58 -0.88942194 -0.45685664 0.014515924 0.092888214
2677 -59 -58 -0.97301352 -0.2211477 0.065866642 0.11056445
2671 -6 -58 -0.96043628 0.27325708 0.053783793 0.098626569
2674 -19 -58 -0.98394376 0.17092359 0.051378705 0.090119325
2669 -38 -56 -0.99427968 -0.031336833 0.10210758 0.096391402
2690 -91 -56 -0.84026843 -0.53859502 -0.062164783 0.1094634
2673 -64 -56 -0.96152556 -0.26084843 0.086178049 0.10470792
2673 -51 -56 -0.9834038 -0.14882028 0.10377643 0.10853016
2682 -104 -56 -0.7988174 -0.59589076 -0.082491778 0.092821226
2704 -118 -57 -0.66092175 -0.72089446 -0.20855115 0.093750246
2672 -77 -56 -0.92334944 -0.38071021 0.049855262 0.082693703
2694 -2 -16 -0.61194456 0.26687923 0.74451286 0.18010966
2682 19 -60 -0.87708956 0.24581435 0.41266128 0.16049586
2673 -7 -60 -0.96175146 0.26937139 0.049731083 0.10054233
2680 -20 -60 -0.97986621 0.1992168 0.013225181 0.11954577
2673 6 -60 -0.92601562 0.37738404 0.0087334467 0.11127639
2680 -73 -60 -0.92592591 -0.37649369 -0.030229818 0.10419919
2687 -100 -60 -0.80682665 -0.587161 -0.065365918 0.10022083
2699 -114 -60 -0.6993174 -0.69331121 -0.1739962 0.097809598
2678 -46 -60 -0.98803926 -0.11831202 0.098897748 0.10829042
2672 -33 -60 -0.99822879 0.052193504 0.028551141 0.092544071
2673 -60 -60 -0.96811867 -0.23322226 0.091398284 0.10015211
2676 -86 -60 -0.89837259 -0.43921682 -0.003911335 0.081060968
