# .PCD v0.7 - Point Cloud Data file format
VERSION 0.7
FIELDS x y z normal_x normal_y normal_z curvature
SIZE 4 4 4 4 4 4 4
TYPE F F F F F F F
COUNT 1 1 1 1 1 1 1
WIDTH 641
HEIGHT 1
VIEWPOINT 0 0 0 1 0 0 0
POINTS 641
DATA ascii
2493 -1505 -469 -0.95800012 -0.28178582 0.053221855 0.038156345
2501 -1534 -472 -0.922149 -0.38652787 0.015406808 0.036059469
2516 -1567 -529 -0.81943387 -0.54725289 -0.17041849 0.06448482
2494 -1433 -466 -0.91771162 0.29380032 0.26737002 0.067528948
2487 -1477 -467 -0.99725807 -0.028648192 0.068231545 0.04402237
2517 -1399 -467 -0.73640066 0.59121132 0.32891229 0.075601593
2514 -1567 -475 -0.90523171 -0.35463753 -0.23406798 0.073142141
2510 -1538 -526 -0.87977278 -0.38648015 -0.27682647 0.096928947
2503 -1415 -466 -0.82771116 0.45505032 0.32836479 0.082026809
2536 -1386 -470 -0.57253593 0.7863239 0.23215793 0.085792735
2492 -1456 -466 -0.97477812 0.17131172 0.14303827 0.051611178
2506 -1418 -453 -0.82061529 0.46092874 0.33783904 0.071442261
2517 -1400 -453 -0.72973502 0.61510265 0.29855588 0.07078889
2529 -1383 -454 -0.60734558 0.74199891 0.28384674 0.069835246
2491 -1458 -453 -0.97022349 0.15364371 0.18724316 0.055159774
2497 -1511 -457 -0.94048536 -0.31226495 0.13408169 0.044856824
2494 -1436 -452 -0.91474664 0.31173107 0.25702581 0.056735296
2511 -1543 -514 -0.88013381 -0.41963714 -0.22196661 0.063789047
2496 -1508 -509 -0.93251842 -0.23268487 -0.27616528 0.07062833
2490 -1482 -454 -0.97724265 -0.081466705 0.19585709 0.048558023
2505 -1541 -460 -0.92012924 -0.38829872 0.050855592 0.054730151
2537 -1574 -513 -0.80092579 -0.52224952 -0.29287073 0.073000915
2495 -1502 -503 -0.94735414 -0.19214371 -0.25612664 0.065241501
2484 -1452 -500 -0.99884552 -0.036032755 0.031770024 0.100813
2482 -1473 -501 -0.97340137 -0.069133811 -0.21842687 0.076950096
2487 -1432 -501 -0.93989962 0.059087716 0.3362996 0.13521032
2509 -1534 -507 -0.89619237 -0.39488468 -0.20225091 0.062246803
2498 -1429 -492 -0.91512895 0.23587981 0.32695517 0.12451959
2518 -1399 -496 -0.65181965 0.65114444 0.38876987 0.13211161
2494 -1447 -491 -0.99142915 0.1291264 0.019867461 0.10158562
2488 -1464 -490 -0.99520379 0.0286742 -0.093526907 0.067838244
2494 -1507 -490 -0.95425862 -0.27538338 -0.11642367 0.042513676
2526 -1567 -495 -0.84724277 -0.51393783 -0.13434106 0.052804906
2489 -1484 -490 -0.983347 -0.1125218 -0.14271538 0.053818021
2509 -1537 -493 -0.91781592 -0.38046145 -0.11341546 0.039787978
2539 -1393 -474 -0.57784826 0.79731339 0.17430682 0.10998766
2495 -1462 -470 -0.99078304 0.1134606 0.073997855 0.068820834
2521 -1407 -472 -0.76550996 0.58405668 0.26994842 0.076990418
2500 -1489 -472 -0.9868542 -0.15891303 0.029417049 0.054320421
2498 -1440 -469 -0.93590122 0.3002294 0.18425846 0.058462769
2512 -1544 -476 -0.90409869 -0.42728516 0.0057470477 0.042254824
2534 -1581 -535 -0.74619567 -0.65081418 -0.14011753 0.050815225
2508 -1423 -470 -0.84883732 0.46200496 0.25695646 0.071899824
2504 -1515 -474 -0.94553554 -0.3253637 0.01005278 0.044698339
2521 -1574 -478 -0.8757866 -0.3916916 -0.28209132 0.087537855
2509 -1541 -528 -0.87876445 -0.40788069 -0.24780308 0.090376042
2516 -1396 -491 -0.6367417 0.58942264 0.49713272 0.11314701
2492 -1431 -490 -0.93439811 0.18581703 0.30392799 0.10423462
2488 -1479 -493 -0.98284417 -0.075951993 -0.16807355 0.064969696
2523 -1551 -503 -0.86332148 -0.46663478 -0.19216655 0.044893745
2488 -1454 -491 -0.99738163 0.069567934 0.019754741 0.081198119
2496 -1509 -496 -0.95064646 -0.27445173 -0.1447324 0.045068812
2504 -1421 -464 -0.84901685 0.45599017 0.26691464 0.071635351
2488 -1459 -464 -0.9779259 0.12956205 0.16393508 0.048233684
2496 -1511 -520 -0.89116001 -0.1967926 -0.40878668 0.079493716
2500 -1538 -522 -0.89839655 -0.39232281 -0.19739959 0.078746393
2504 -1542 -470 -0.91029215 -0.4134855 0.019950086 0.042255566
2522 -1579 -475 -0.87145174 -0.39130455 -0.29572377 0.11020508
2493 -1511 -467 -0.94329619 -0.32254037 0.078485765 0.04416189
2495 -1439 -464 -0.92995965 0.28784013 0.22874223 0.05787031
2484 -1481 -464 -0.99249679 -0.079835847 0.092608549 0.043207359
2512 -1401 -464 -0.75262642 0.57582748 0.31933707 0.076587193
2534 -1585 -531 -0.81784981 -0.52274084 -0.2405488 0.12232514
2528 -1386 -465 -0.61427534 0.7276414 0.30529299 0.074805632
2515 -1544 -468 -0.9074297 -0.42005512 -0.011186582 0.047230195
2500 -1537 -519 -0.90171188 -0.38593239 -0.19486377 0.075303383
2502 -1433 -457 -0.8913663 0.35217828 0.28537095 0.061554618
2489 -1503 -514 -0.92427766 -0.16346174 -0.34495085 0.065296344
2490 -1477 -459 -0.98827392 -0.023200803 0.15091859 0.053720001
2478 -1471 -509 -0.95802969 -0.092775732 -0.27124113 0.071598053
2493 -1453 -457 -0.95955914 0.22379395 0.17077041 0.054571684
2500 -1509 -463 -0.94657433 -0.31146803 0.083573833 0.046847623
2523 -1395 -465 -0.69653028 0.64333683 0.31774727 0.072000802
2509 -1533 -471 -0.92102963 -0.38899261 0.019727781 0.039610885
2504 -1504 -521 -0.7176156 -0.022122081 -0.69608796 0.099176198
2504 -1529 -522 -0.90057725 -0.32137227 -0.29271224 0.088134125
2498 -1453 -465 -0.96350217 0.20980003 0.16627552 0.058447957
2518 -1563 -527 -0.82651943 -0.53521281 -0.17439289 0.074568681
2498 -1502 -467 -0.96176249 -0.26462919 0.070599824 0.047056861
2541 -1381 -467 -0.51465631 0.8363741 0.18869852 0.088929318
2504 -1433 -465 -0.90015447 0.36120731 0.24341562 0.060700115
2494 -1475 -465 -0.9948042 -0.027871927 0.097916812 0.053780679
2518 -1417 -466 -0.81176591 0.51526791 0.27483642 0.073465809
2518 -1564 -473 -0.90072078 -0.41675803 -0.1225353 0.077713825
2496 -1454 -472 -0.97631443 0.20218778 0.077007666 0.066582941
2513 -1413 -471 -0.80735266 0.50929838 0.29798794 0.078721941
2537 -1377 -471 -0.52548462 0.77554327 0.34985501 0.097396784
2527 -1578 -486 -0.88154131 -0.43569812 -0.18180232 0.10694019
2492 -1477 -473 -0.99878055 -0.04172698 0.026388071 0.05449827
2504 -1433 -471 -0.91174799 0.34646335 0.22063282 0.067515217
2498 -1507 -476 -0.9507789 -0.30980542 0.0063357325 0.045356724
2514 -1543 -482 -0.90573317 -0.4237251 -0.01022213 0.040275436
2527 -1396 -471 -0.66840887 0.68868798 0.2809599 0.081448793
2512 -1556 -524 -0.85393757 -0.50083888 -0.14124848 0.070442505
2512 -1417 -467 -0.82461375 0.50616086 0.25261295 0.065813862
2498 -1500 -467 -0.96441734 -0.25553504 0.067830682 0.046375472
2501 -1434 -465 -0.90207529 0.34174764 0.26356927 0.06016057
2498 -1455 -466 -0.96959275 0.19769807 0.14424075 0.062870808
2538 -1386 -470 -0.54935277 0.80240494 0.23314773 0.09239208
2521 -1400 -468 -0.73317355 0.61130077 0.29793942 0.070903905
2507 -1529 -469 -0.91742271 -0.39653382 0.033114497 0.04100756
2513 -1555 -471 -0.89765 -0.43839505 -0.045104127 0.042438377
2494 -1475 -466 -0.99657243 -0.024612142 0.078978561 0.053045016
2507 -1529 -522 -0.88025683 -0.30291274 -0.3652283 0.095312446
2531 -1394 -441 -0.6387561 0.65118724 0.40981191 0.083357744
2502 -1506 -488 -0.95744193 -0.26023173 -0.12483737 0.048147023
2514 -1535 -490 -0.91770589 -0.38680351 -0.090547241 0.052859504
2508 -1424 -437 -0.79071063 0.40870625 0.45578045 0.083974153
2496 -1438 -435 -0.87402797 0.32626423 0.36003703 0.072492547
2488 -1476 -485 -0.99582458 -0.042472608 -0.080804691 0.053422108
2487 -1454 -485 -0.9931249 0.10570739 0.05028829 0.06363795
2533 -1569 -494 -0.84018689 -0.5306735 -0.11167638 0.056257796
2518 -1408 -439 -0.73338526 0.54827785 0.40191722 0.076460674
2497 -1438 -487 -0.96034306 0.20028265 0.19397917 0.094177313
2494 -1458 -434 -0.92117679 0.19106607 0.33900899 0.078133702
2534 -1389 -476 -0.57699358 0.78412634 0.22852618 0.10361873
2530 -1388 -423 -0.55297709 0.67396867 0.48988011 0.075380519
2485 -1437 -474 -0.93878496 0.21909195 0.26586005 0.074025422
2483 -1462 -476 -0.99435991 0.098199837 0.040065404 0.047268465
2538 -1575 -493 -0.82727683 -0.55508864 -0.086543515 0.073040187
2490 -1492 -480 -0.98457038 -0.16774128 -0.049839981 0.040538419
2492 -1416 -473 -0.83358806 0.38592181 0.39521539 0.097056285
2504 -1527 -484 -0.93279833 -0.35794702 -0.041966815 0.042665992
2543 -1378 -455 -0.53367859 0.81044471 0.24159165 0.075150028
2502 -1525 -511 -0.92653137 -0.30161148 -0.22487809 0.070899144
2502 -1428 -452 -0.86727518 0.38189137 0.31936297 0.070542626
2513 -1410 -453 -0.78457534 0.53620249 0.31133333 0.074967504
2496 -1498 -456 -0.95844728 -0.22041422 0.18109743 0.046682376
2519 -1561 -516 -0.83016521 -0.50808209 -0.22951762 0.054487031
2500 -1451 -453 -0.92959863 0.24672848 0.27380913 0.075132847
2528 -1394 -454 -0.65764016 0.68206751 0.31983343 0.069373384
2514 -1560 -462 -0.90619034 -0.41380227 -0.087102063 0.054137643
2502 -1527 -458 -0.92989165 -0.35908091 0.079764463 0.052327532
2502 -1500 -509 -0.88891184 -0.11244059 -0.44406408 0.094231792
2490 -1470 -453 -0.98155814 0.054809138 0.18313795 0.054137062
2522 -1552 -507 -0.85983598 -0.47027299 -0.19880979 0.04859205
2489 -1483 -445 -0.96044838 -0.086628921 0.26463997 0.061215658
2509 -1421 -444 -0.80162966 0.42139515 0.42404708 0.081029914
2489 -1481 -496 -0.97375101 -0.090910055 -0.20867297 0.068260103
2519 -1403 -444 -0.70769042 0.59274566 0.38448244 0.078537017
2504 -1515 -501 -0.93023682 -0.30238768 -0.20789719 0.058669362
2499 -1464 -445 -0.92039216 0.12192917 0.37149909 0.088024579
2499 -1461 -497 -0.97622263 0.036002733 -0.21375975 0.097341314
2508 -1520 -450 -0.91350341 -0.34338939 0.21816325 0.060453344
2498 -1439 -443 -0.88198358 0.30034772 0.363175 0.072212853
2539 -1389 -446 -0.55016261 0.74011379 0.38672042 0.076362193
2507 -1394 -491 -0.57974035 0.49895066 0.64416558 0.12692921
2529 -1402 -443 -0.68045241 0.61009037 0.4059239 0.078893796
2534 -1386 -445 -0.58660215 0.74517745 0.31718841 0.072558872
2508 -1427 -438 -0.78997147 0.40523872 0.46013767 0.086587168
2514 -1412 -440 -0.72968388 0.51381171 0.45117512 0.084512942
2503 -1429 -489 -0.91579205 0.3105787 0.25468776 0.1119427
2528 -1569 -485 -0.84572977 -0.52613479 -0.089013524 0.072133809
2500 -1440 -435 -0.85132086 0.29700845 0.43247992 0.085067347
2516 -1544 -484 -0.8980962 -0.43954244 -0.015020421 0.043725714
2495 -1442 -487 -0.97538984 0.16245008 0.14907925 0.10064565
2480 -1469 -481 -0.99987763 0.011568096 -0.010526787 0.04203251
2476 -1449 -482 -0.98447365 0.067902975 0.16186686 0.065967456
2490 -1452 -432 -0.91160226 0.24166353 0.33253598 0.076249637
2483 -1489 -481 -0.98921061 -0.13819081 -0.048639536 0.033964094
2499 -1516 -483 -0.95005745 -0.306375 -0.059372846 0.040566977
2521 -1391 -470 -0.67502981 0.64752644 0.35361606 0.082899638
2503 -1499 -473 -0.96747524 -0.25179869 0.024271205 0.051266272
2534 -1396 -423 -0.53962225 0.57998329 0.61026806 0.087526135
2498 -1448 -470 -0.95716661 0.25874624 0.12993249 0.060711697
2497 -1471 -471 -0.99871737 0.037214871 0.034331322 0.065768905
2502 -1427 -469 -0.88950694 0.38729349 0.24244832 0.074309461
2506 -1524 -474 -0.93288141 -0.35940367 -0.023689881 0.046087742
2525 -1561 -479 -0.86907285 -0.49269915 -0.044272054 0.052360907
2528 -1576 -478 -0.85919422 -0.4425033 -0.25685835 0.11243953
2511 -1541 -473 -0.9044953 -0.42625788 0.013872579 0.04150432
2540 -1583 -534 -0.71341252 -0.66906977 -0.20829864 0.064914271
2505 -1534 -454 -0.90979421 -0.38929826 0.14394915 0.066532731
2493 -1501 -450 -0.93796527 -0.25166965 0.23850253 0.049149696
2507 -1533 -507 -0.90705889 -0.38034263 -0.18050958 0.055255834
2492 -1498 -502 -0.95056838 -0.1840083 -0.25012121 0.063479416
2501 -1432 -447 -0.86269361 0.36173925 0.35341832 0.075079426
2490 -1450 -447 -0.93465543 0.25079554 0.25203353 0.054511018
2486 -1472 -448 -0.96990883 0.024196494 0.24226291 0.058004167
2493 -1424 -497 -0.86936855 0.13676132 0.47486272 0.12890421
2513 -1414 -448 -0.77497154 0.50187433 0.38411096 0.078382522
2541 -1579 -516 -0.78659576 -0.51807392 -0.33595613 0.086192481
2523 -1396 -448 -0.68858749 0.64015651 0.34065643 0.072295018
2514 -1384 -467 -0.63687766 0.64035529 0.42933893 0.097901821
2492 -1472 -470 -0.998568 0.0089684473 0.052740149 0.052362982
2492 -1447 -468 -0.95925349 0.24073099 0.1479235 0.051888149
2500 -1426 -468 -0.88997573 0.37357566 0.26150414 0.08021494
2503 -1530 -476 -0.93082619 -0.36491913 -0.019917434 0.036145255
2497 -1400 -465 -0.72297615 0.53538048 0.43666136 0.10572392
2524 -1569 -482 -0.8627643 -0.4915354 -0.11845168 0.058597043
2493 -1498 -472 -0.97599167 -0.21591637 0.028643422 0.041829899
2510 -1537 -491 -0.91722494 -0.38556936 -0.10017308 0.042048328
2548 -1579 -497 -0.77322584 -0.6278379 -0.089113779 0.09613429
2494 -1508 -489 -0.95465374 -0.27905658 -0.10374781 0.040551092
2540 -1379 -454 -0.54529518 0.79845589 0.255189 0.067492716
2479 -1481 -487 -0.99193197 -0.10353249 -0.073157661 0.039322443
2487 -1464 -440 -0.95852721 0.10471184 0.26506779 0.07201504
2510 -1421 -447 -0.812913 0.42739004 0.39561388 0.08006005
2497 -1453 -492 -0.98909324 0.11436153 -0.092822596 0.096723832
2495 -1431 -443 -0.86229616 0.37482658 0.34051493 0.072655551
2484 -1444 -441 -0.92083967 0.28928897 0.26146922 0.059715085
2488 -1484 -440 -0.95672703 -0.083874315 0.2786369 0.068603016
2515 -1404 -448 -0.73772919 0.57615918 0.35184678 0.078129038
2478 -1461 -487 -0.99835885 0.044541158 0.035994586 0.048346501
2526 -1391 -451 -0.65592706 0.68282986 0.32171869 0.070030473
2485 -1487 -465 -0.98364806 -0.1437899 0.10844817 0.043036636
2518 -1587 -478 -0.85706192 -0.15742458 -0.49057347 0.14424932
2485 -1435 -461 -0.93385905 0.25534561 0.25041157 0.067255646
2495 -1519 -469 -0.94055021 -0.33737624 0.039277017 0.040598858
2507 -1552 -474 -0.89704043 -0.44147849 -0.020377543 0.038835585
2496 -1416 -460 -0.83525354 0.4374803 0.33311039 0.086113989
2481 -1458 -462 -0.98222661 0.13864391 0.12652594 0.045358751
2504 -1396 -460 -0.72513878 0.57412624 0.3802011 0.086553574
2536 -1370 -469 -0.50578499 0.76853305 0.3918398 0.09696611
2525 -1382 -467 -0.60929328 0.7007792 0.37103948 0.084194914
2525 -1401 -466 -0.73106802 0.62414986 0.27563834 0.067940153
2495 -1440 -459 -0.92694187 0.31012276 0.21119313 0.049305052
2490 -1456 -457 -0.97142792 0.16778089 0.16786113 0.051271249
2496 -1520 -508 -0.93062168 -0.30489415 -0.20244184 0.057391878
2491 -1474 -456 -0.98516643 0.010288442 0.17129274 0.056200083
2538 -1582 -513 -0.80132782 -0.51090091 -0.31121358 0.08707834
2490 -1498 -507 -0.93346697 -0.16317773 -0.3193939 0.069587827
2480 -1486 -453 -0.97468334 -0.13441128 0.1786785 0.051404268
2509 -1411 -463 -0.80093306 0.53282291 0.27314112 0.073834315
2493 -1511 -453 -0.92914736 -0.30917394 0.20272331 0.052730989
2505 -1427 -461 -0.869537 0.40068141 0.28872105 0.072124429
2507 -1538 -455 -0.91782576 -0.37943286 0.11673258 0.063002765
2514 -1549 -510 -0.85919249 -0.47251296 -0.19626436 0.049670164
2524 -1405 -435 -0.68770546 0.58780032 0.42608911 0.081239633
2504 -1419 -457 -0.83788186 0.45914796 0.29519001 0.071269192
2500 -1530 -511 -0.92133182 -0.35130113 -0.16653882 0.060774907
2506 -1556 -460 -0.91939217 -0.36905247 -0.13608156 0.085693635
2490 -1478 -456 -0.98387283 -0.037899211 0.17480837 0.053160127
2528 -1570 -517 -0.82262886 -0.5139941 -0.24308822 0.055749469
2494 -1458 -456 -0.96946448 0.15716432 0.18824984 0.059040725
2493 -1435 -456 -0.91685504 0.30405283 0.25870579 0.062620327
2495 -1503 -457 -0.94900715 -0.26649192 0.16842645 0.046248235
2501 -1530 -458 -0.92118651 -0.37529406 0.10281003 0.056407791
2484 -1449 -440 -0.92787707 0.25078365 0.2759558 0.064139962
2485 -1432 -441 -0.89179093 0.3263976 0.31332675 0.074043177
2499 -1423 -445 -0.84689116 0.40918025 0.33962771 0.069201581
2515 -1397 -450 -0.71561891 0.62777126 0.30625591 0.074477471
2536 -1373 -455 -0.54674554 0.79744101 0.25525922 0.069103695
2524 -1384 -453 -0.6392495 0.7152856 0.2823588 0.072159164
2506 -1410 -447 -0.77066255 0.52751923 0.35749504 0.077093609
2483 -1465 -438 -0.95694715 0.095670938 0.27404246 0.073984794
2492 -1499 -504 -0.94155228 -0.1789048 -0.28543377 0.064926431
2555 -1592 -513 -0.74499184 -0.56944269 -0.347451 0.10322416
2499 -1443 -456 -0.92101681 0.29760945 0.25130963 0.064079873
2498 -1520 -504 -0.9336347 -0.30876088 -0.18163982 0.049849492
2490 -1474 -452 -0.9808113 0.016204102 0.19428486 0.054740511
2501 -1516 -452 -0.92468119 -0.32314497 0.20135044 0.053920109
2525 -1383 -464 -0.61413234 0.71986055 0.32348439 0.0778291
2510 -1430 -459 -0.86099887 0.38901919 0.32763559 0.078107432
2511 -1412 -460 -0.80940276 0.52447659 0.26418069 0.068366587
2527 -1403 -464 -0.71717823 0.63556236 0.28585964 0.073758297
2514 -1549 -506 -0.86176229 -0.46329758 -0.20669091 0.045115191
2490 -1455 -453 -0.96238464 0.19472696 0.18946528 0.052731898
2482 -1487 -450 -0.97295749 -0.13176732 0.1897133 0.052496437
2487 -1442 -497 -0.97574848 0.020972714 0.21788795 0.10481608
2484 -1462 -497 -0.9935832 -0.022324428 -0.11087824 0.081219792
2546 -1388 -454 -0.50820422 0.7930162 0.33593723 0.088749491
2534 -1403 -452 -0.66223681 0.63738585 0.39393097 0.080800965
2555 -1594 -512 -0.7790733 -0.52192152 -0.34733668 0.12421735
2501 -1450 -448 -0.89789546 0.25772002 0.35688099 0.083067484
2498 -1514 -500 -0.93794668 -0.30576494 -0.16359647 0.046414629
2516 -1415 -450 -0.78200084 0.49962205 0.37262914 0.082671873
2523 -1552 -505 -0.85901451 -0.47037336 -0.20209648 0.047749531
2506 -1431 -448 -0.83826506 0.37604633 0.39484277 0.082399853
2486 -1485 -497 -0.97066844 -0.12411822 -0.20590647 0.064240091
2504 -1474 -449 -0.9453522 0.022617718 0.32526553 0.087557606
2531 -1401 -448 -0.67060095 0.6324665 0.38766009 0.076711953
2545 -1388 -450 -0.51570845 0.77856785 0.35759893 0.089572661
2505 -1430 -444 -0.82797998 0.38601184 0.40674806 0.078997888
2501 -1515 -495 -0.93978423 -0.31595573 -0.130298 0.045054458
2488 -1463 -493 -0.99335968 0.011641051 -0.11445935 0.073844321
2517 -1415 -445 -0.74144095 0.50095654 0.44643921 0.08399982
2515 -1545 -498 -0.88382953 -0.42703548 -0.1910131 0.052612972
2495 -1446 -442 -0.89551342 0.28733134 0.33984774 0.069498703
2484 -1483 -440 -0.95348501 -0.093153939 0.28668568 0.066704392
2493 -1467 -442 -0.95441961 0.070412561 0.29004335 0.065387681
2491 -1487 -493 -0.97274435 -0.12297989 -0.19658178 0.062911749
2553 -1591 -506 -0.75074422 -0.59169757 -0.29372972 0.11423276
2515 -1413 -447 -0.75197136 0.50058097 0.42890292 0.084073134
2492 -1505 -491 -0.95730817 -0.25539511 -0.13540423 0.040443409
2514 -1538 -495 -0.90717709 -0.39598131 -0.14222714 0.046234917
2533 -1571 -498 -0.84179717 -0.52166104 -0.13873462 0.064796604
2540 -1386 -452 -0.56060207 0.76472765 0.31767428 0.072659336
2491 -1460 -442 -0.94053996 0.15672962 0.30136418 0.071715742
2487 -1482 -491 -0.98571801 -0.10763811 -0.12951487 0.053103138
2499 -1444 -444 -0.89033395 0.30178496 0.34092712 0.071888581
2483 -1459 -490 -0.99933785 0.036382277 0.00043203626 0.066350043
2491 -1480 -441 -0.95621234 -0.052055579 0.28800726 0.070451669
2507 -1429 -446 -0.81718951 0.39026049 0.42414394 0.08510752
2503 -1451 -494 -0.98500156 0.12439474 -0.1195734 0.11329531
2529 -1401 -450 -0.69865829 0.63502568 0.32957384 0.0707203
2522 -1387 -449 -0.66057169 0.67917895 0.31993893 0.07522805
2511 -1407 -449 -0.77388686 0.54079616 0.32960364 0.070395418
2500 -1426 -449 -0.85240304 0.40374929 0.33225837 0.069526598
2541 -1373 -450 -0.50423127 0.82367283 0.25944951 0.071938828
2484 -1467 -451 -0.97667396 0.080766276 0.19895917 0.055579696
2495 -1526 -457 -0.92311537 -0.37282631 0.094120048 0.050459497
2487 -1494 -453 -0.96927369 -0.17079128 0.17702766 0.046378907
2505 -1558 -461 -0.92524409 -0.26373646 -0.27270228 0.12993613
2489 -1445 -450 -0.93006343 0.28816932 0.22790451 0.053988058
2490 -1470 -493 -0.98687088 -0.027443163 -0.15916279 0.068184674
2492 -1491 -493 -0.96519631 -0.14327595 -0.2187878 0.065297686
2500 -1451 -445 -0.88815981 0.26567993 0.37494847 0.085602328
2515 -1419 -449 -0.7922408 0.47989517 0.37690198 0.080300309
2553 -1590 -503 -0.74776304 -0.60087764 -0.28248295 0.099954076
2534 -1389 -452 -0.62045074 0.73195636 0.28156829 0.069905132
2522 -1403 -450 -0.70447063 0.6093635 0.36386427 0.074747078
2503 -1518 -494 -0.93806237 -0.31981277 -0.13326231 0.046809837
2518 -1548 -497 -0.87193596 -0.46791345 -0.14416897 0.043928437
2491 -1466 -443 -0.95519912 0.081393972 0.28455171 0.065640986
2506 -1434 -446 -0.84337646 0.35672858 0.40182194 0.084945321
2489 -1484 -442 -0.95635861 -0.094286688 0.27656493 0.065097719
2492 -1468 -479 -0.99753439 0.043626219 -0.05497171 0.056066766
2500 -1523 -484 -0.9313243 -0.35945484 -0.058542937 0.041010942
2485 -1414 -474 -0.79898793 0.31245321 0.51380086 0.12666662
2490 -1441 -477 -0.95996779 0.2096197 0.18579923 0.079382755
2493 -1494 -481 -0.98167992 -0.17554225 -0.074090764 0.046001215
2538 -1399 -429 -0.55879873 0.60491484 0.56729358 0.084958903
2532 -1391 -479 -0.56592751 0.77528912 0.2804513 0.1178892
2502 -1399 -475 -0.69667989 0.50664645 0.50788432 0.11041927
2528 -1567 -491 -0.84054536 -0.53139299 -0.10537993 0.049533784
2491 -1430 -468 -0.90738702 0.28665489 0.30737254 0.07991603
2536 -1380 -469 -0.55253011 0.77952957 0.29503256 0.085275732
2501 -1411 -467 -0.79945773 0.47172761 0.37194154 0.088495165
2511 -1391 -467 -0.67847526 0.60964704 0.4098801 0.093964368
2493 -1535 -477 -0.93020469 -0.3669425 -0.0085144062 0.030663256
2523 -1407 -459 -0.73670703 0.59722656 0.31714851 0.067714676
2539 -1393 -461 -0.59293878 0.77697837 0.21149048 0.083715953
2499 -1505 -457 -0.94189692 -0.29153943 0.16683809 0.04782081
2510 -1534 -512 -0.89564186 -0.38048992 -0.23033236 0.070428498
2537 -1574 -518 -0.77506411 -0.55886042 -0.2948741 0.072784886
2506 -1442 -457 -0.89542025 0.32181364 0.30766615 0.080108635
2508 -1421 -457 -0.82762688 0.46290284 0.31741863 0.075763501
2513 -1535 -460 -0.92179918 -0.37912896 0.080916472 0.056904949
2487 -1475 -454 -0.98283452 -0.0084632998 0.18429516 0.053104181
2499 -1505 -510 -0.91673046 -0.16960168 -0.36171868 0.08058162
2492 -1456 -455 -0.96746552 0.16935088 0.18796468 0.052988846
2529 -1399 -430 -0.625669 0.58835894 0.51222259 0.082708515
2545 -1391 -461 -0.53461295 0.81939322 0.20684271 0.094380923
2517 -1417 -456 -0.80436897 0.49145666 0.3338576 0.076356046
2529 -1403 -459 -0.7027815 0.63507938 0.32058135 0.074119754
2492 -1509 -500 -0.94737345 -0.27556458 -0.16293462 0.044454232
2496 -1446 -452 -0.92197144 0.2928164 0.25343084 0.064501807
2508 -1540 -503 -0.89372981 -0.4019058 -0.19929597 0.048814945
2476 -1459 -497 -0.99996567 -0.0077878437 0.0028387436 0.063381843
2490 -1483 -450 -0.97507817 -0.087631062 0.2038222 0.053522769
2492 -1448 -501 -0.99014932 0.024493441 -0.13785677 0.13261949
2486 -1486 -499 -0.96266025 -0.14105995 -0.23105681 0.066681534
2490 -1463 -451 -0.97099692 0.13758337 0.19553973 0.056542158
2543 -1582 -509 -0.78958786 -0.53413892 -0.3020705 0.093815409
2508 -1433 -454 -0.86184573 0.36812395 0.34886491 0.079203025
2545 -1388 -457 -0.52114022 0.82011867 0.23625875 0.096040726
2534 -1407 -457 -0.69562072 0.61774611 0.36674467 0.085491292
2507 -1439 -455 -0.87946671 0.34390762 0.32903779 0.078083277
2507 -1540 -461 -0.92006409 -0.38930288 0.043879483 0.050557327
2501 -1508 -510 -0.91067165 -0.19284844 -0.3653582 0.094750851
2515 -1420 -455 -0.80454105 0.48852167 0.33772799 0.079252593
2503 -1511 -458 -0.94282299 -0.31023493 0.12181613 0.045911431
2549 -1588 -524 -0.74810684 -0.56571239 -0.34685123 0.11702226
2500 -1460 -455 -0.95273924 0.16263044 0.25659195 0.077966534
2516 -1542 -515 -0.87617385 -0.4246788 -0.22796346 0.063908286
2490 -1479 -455 -0.98220879 -0.053116754 0.18012334 0.051580582
2520 -1544 -492 -0.88328582 -0.45083466 -0.12866366 0.054164991
2543 -1384 -443 -0.51920831 0.76235479 0.3863132 0.080402508
2484 -1457 -485 -0.99385756 0.10253703 0.041631907 0.055971913
2484 -1435 -485 -0.9279626 0.10376037 0.35793728 0.10242625
2502 -1425 -437 -0.81704289 0.41366497 0.40164933 0.073114701
2492 -1483 -487 -0.98639613 -0.077817164 -0.14480048 0.058026273
2523 -1394 -440 -0.66330737 0.6318447 0.40099341 0.073638871
2524 -1394 -492 -0.6001085 0.67433608 0.43027979 0.13731983
2515 -1411 -439 -0.73032904 0.5085426 0.45607451 0.08552178
2505 -1513 -489 -0.94557422 -0.30979353 -0.099585854 0.05123762
2545 -1581 -497 -0.78685015 -0.61429656 -0.059216138 0.10177753
2506 -1425 -466 -0.86094791 0.43748254 0.25957221 0.072463505
2531 -1383 -472 -0.58057457 0.73575264 0.3487137 0.093946002
2504 -1405 -466 -0.7578426 0.53539509 0.37286294 0.089898452
2515 -1393 -469 -0.69895691 0.61461329 0.36566338 0.085079864
2494 -1455 -462 -0.96447891 0.19416519 0.17910953 0.058924504
2499 -1440 -464 -0.92215902 0.32319346 0.21252945 0.051996611
2492 -1509 -458 -0.93827128 -0.31300068 0.14723268 0.046445355
2495 -1474 -461 -0.9891687 -0.0014237181 0.14677624 0.061132327
2499 -1537 -512 -0.91462249 -0.37212336 -0.15808243 0.060155418
2497 -1518 -513 -0.92851645 -0.27310762 -0.25153407 0.069840208
2491 -1490 -459 -0.97342372 -0.16619973 0.1575561 0.039879929
2510 -1556 -459 -0.90504074 -0.42421752 -0.030671911 0.055591956
2533 -1577 -517 -0.81246984 -0.50381148 -0.29337132 0.062090702
2501 -1532 -459 -0.92200464 -0.37219366 0.10667411 0.057837654
2535 -1372 -449 -0.54078496 0.79617262 0.27140516 0.067190796
2515 -1396 -443 -0.69073063 0.62124741 0.37005794 0.075315528
2527 -1385 -446 -0.62138003 0.72479415 0.29759079 0.074143402
2500 -1422 -438 -0.83071637 0.41770583 0.36801118 0.0670292
2489 -1434 -435 -0.87384611 0.34040749 0.34715363 0.07834477
2480 -1445 -432 -0.94104922 0.28233042 0.18632199 0.07545469
2508 -1410 -441 -0.75742364 0.50955623 0.40824258 0.077931859
2516 -1396 -459 -0.72203892 0.61823285 0.31056082 0.074590057
2486 -1475 -450 -0.97971261 -0.0011098561 0.20040445 0.055094536
2499 -1466 -502 -0.94550687 0.011515884 -0.32539839 0.096954413
2495 -1501 -500 -0.95341694 -0.19315918 -0.23170167 0.063697174
2531 -1385 -462 -0.61677027 0.72801238 0.29931983 0.0675245
2491 -1458 -452 -0.96977359 0.15315817 0.18995211 0.054859571
2511 -1413 -457 -0.80682749 0.51567465 0.28828645 0.071509205
2506 -1429 -456 -0.86215746 0.38220873 0.33256733 0.076399982
2496 -1443 -453 -0.9200812 0.30795941 0.24209803 0.055040661
2509 -1526 -452 -0.90066224 -0.37257135 0.22360259 0.061919834
2532 -1563 -506 -0.82272196 -0.51298094 -0.24490653 0.060283829
2488 -1495 -449 -0.96152121 -0.18394135 0.204065 0.049365334
2504 -1527 -501 -0.92637569 -0.33885941 -0.16432399 0.050148055
2529 -1385 -478 -0.58840597 0.70430493 0.39715621 0.099476181
2509 -1398 -476 -0.71183193 0.5474546 0.4399873 0.09671025
2493 -1414 -475 -0.82013428 0.38359126 0.42454392 0.099976718
2494 -1440 -477 -0.95229214 0.23873219 0.19012262 0.075409941
2523 -1559 -490 -0.86873776 -0.48623601 -0.094177082 0.038782094
2501 -1520 -484 -0.93090981 -0.35787505 -0.073022895 0.052499667
2491 -1463 -479 -0.99579829 0.091034688 -0.0099278232 0.057615936
2492 -1489 -481 -0.9882884 -0.13730544 -0.066582777 0.046566103
2488 -1475 -460 -0.98817068 -0.010175489 0.15301996 0.051488828
2543 -1385 -462 -0.52799076 0.83154207 0.17252146 0.082451262
2500 -1433 -459 -0.90096253 0.35243526 0.25309262 0.057944037
2507 -1413 -459 -0.80665523 0.51612872 0.28795582 0.072353855
2496 -1502 -515 -0.90332085 -0.13264857 -0.40794095 0.076590858
2498 -1457 -460 -0.96364331 0.1853517 0.19244847 0.067151971
2527 -1400 -461 -0.69718456 0.64926219 0.3039611 0.072542891
2522 -1571 -470 -0.89464176 -0.40982011 -0.17794296 0.11142724
2493 -1503 -462 -0.95519876 -0.27181149 0.11710604 0.043659747
2523 -1570 -524 -0.80665308 -0.55614269 -0.20004025 0.061614659
2509 -1536 -519 -0.88219893 -0.40349266 -0.24273199 0.077947065
2501 -1533 -465 -0.92550004 -0.37635693 0.042487327 0.0418429
2491 -1439 -496 -0.96593475 0.083283655 0.24501826 0.09830866
2501 -1426 -498 -0.91437751 0.23576805 0.32913107 0.15370746
2487 -1454 -494 -0.99919653 0.035838112 -0.017940804 0.084981672
2514 -1396 -502 -0.58985561 0.53835654 0.60186607 0.13451263
2496 -1514 -492 -0.94976407 -0.29649502 -0.10019426 0.039648522
2512 -1541 -494 -0.90488207 -0.40080157 -0.14334065 0.045029942
2488 -1473 -493 -0.98464394 -0.025555735 -0.17269383 0.070801757
2526 -1568 -495 -0.84623438 -0.51636481 -0.13135704 0.057215609
2490 -1492 -492 -0.9673081 -0.16047025 -0.19637795 0.059479378
2520 -1398 -502 -0.63567734 0.64513969 0.42392105 0.13671009
2496 -1481 -495 -0.96849066 -0.085647553 -0.23385945 0.07568942
2524 -1556 -498 -0.86057591 -0.48067418 -0.16840859 0.049472362
2491 -1459 -495 -0.99611121 0.021650434 -0.085402809 0.091216028
2496 -1424 -497 -0.86996228 0.15459588 0.4682582 0.12855317
2544 -1587 -501 -0.79057145 -0.55297375 -0.26309076 0.11324269
2493 -1441 -496 -0.98926592 0.098800793 0.10766351 0.12908146
2499 -1521 -494 -0.93658251 -0.32924971 -0.12003297 0.041532036
2492 -1498 -493 -0.95791507 -0.2087957 -0.19698496 0.054257214
2493 -1444 -490 -0.98182952 0.14081776 0.12720522 0.099099286
2510 -1530 -499 -0.91891915 -0.35709774 -0.16753739 0.047262944
2491 -1467 -492 -0.99075037 0.016102839 -0.13473834 0.076077402
2492 -1494 -494 -0.96143985 -0.17002855 -0.21615672 0.058666348
2499 -1398 -488 -0.65316814 0.38457659 0.6522823 0.12046184
2537 -1572 -506 -0.81268907 -0.50714916 -0.28694287 0.066123821
2525 -1388 -491 -0.56223273 0.68371379 0.46522006 0.12793188
2524 -1384 -481 -0.57777143 0.69403642 0.42952725 0.1016151
2488 -1440 -482 -0.9602344 0.17006858 0.22141935 0.085943483
2483 -1462 -483 -0.99796695 0.062506258 -0.012449646 0.048563924
2506 -1399 -480 -0.7013635 0.5113976 0.49654996 0.10258535
2536 -1574 -501 -0.83372927 -0.52377862 -0.17478989 0.074484281
2487 -1491 -486 -0.98338735 -0.15265217 -0.098217547 0.040488709
2493 -1417 -480 -0.84593582 0.32904181 0.41967142 0.10406569
2502 -1526 -492 -0.93705314 -0.33844832 -0.085931689 0.043271154
2498 -1518 -516 -0.92094392 -0.24280259 -0.3048102 0.074767523
2494 -1455 -467 -0.97317028 0.18307279 0.13936937 0.05215735
2501 -1439 -469 -0.92480451 0.32591137 0.19626114 0.062687248
2510 -1545 -517 -0.8639012 -0.45249134 -0.22119281 0.064019509
2491 -1494 -515 -0.85301071 -0.07557825 -0.51639199 0.079051577
2485 -1488 -464 -0.98349619 -0.14954339 0.10184356 0.041404825
2534 -1580 -522 -0.78735471 -0.51631457 -0.33688548 0.069457784
2507 -1423 -471 -0.85238075 0.45245975 0.26215878 0.072225846
2531 -1397 -476 -0.65204972 0.71774691 0.24427541 0.097138308
2519 -1410 -473 -0.77284938 0.56383091 0.29120195 0.081465475
2489 -1471 -466 -0.99504274 0.024614217 0.096354038 0.04531765
2503 -1538 -466 -0.91357726 -0.40349939 0.050643645 0.04434678
2496 -1514 -466 -0.94638878 -0.31542629 0.06967406 0.042583283
2517 -1536 -515 -0.88550407 -0.40607038 -0.22580846 0.070670851
2545 -1579 -522 -0.74931186 -0.55787373 -0.35680345 0.086791053
2535 -1398 -440 -0.59889877 0.63798636 0.48403898 0.087811902
2486 -1477 -483 -0.99663371 -0.054489084 -0.061254989 0.047802255
2517 -1410 -437 -0.72268748 0.5118838 0.46443272 0.080613762
2492 -1459 -484 -0.99381417 0.10294806 -0.041654855 0.074614495
2495 -1461 -433 -0.91840214 0.14835738 0.36677992 0.088141024
2507 -1425 -435 -0.80055904 0.41375518 0.43348798 0.08474727
2494 -1503 -485 -0.96040571 -0.26634043 -0.081753515 0.038888097
2516 -1538 -489 -0.91383523 -0.39842671 -0.078494422 0.059818029
2534 -1571 -492 -0.83669609 -0.54026139 -0.089762323 0.067576461
2498 -1441 -434 -0.86967587 0.29866198 0.39302036 0.083036222
2500 -1442 -485 -0.97044349 0.23619141 0.049528025 0.090007998
2495 -1494 -465 -0.97929418 -0.18453467 0.083246119 0.040183898
2532 -1389 -462 -0.62898415 0.72504252 0.28052136 0.070291065
2510 -1530 -521 -0.88841081 -0.33483019 -0.31403026 0.092257172
2503 -1524 -469 -0.93490964 -0.35442635 0.018056404 0.043014832
2519 -1407 -462 -0.7687493 0.58108509 0.26714146 0.068364322
2515 -1559 -524 -0.84051645 -0.52705133 -0.12549506 0.063431785
2509 -1554 -472 -0.89591545 -0.44222292 -0.042123649 0.039453257
2498 -1444 -462 -0.9360953 0.29090008 0.197744 0.057091694
2510 -1426 -462 -0.84901959 0.4454475 0.28415179 0.07733611
2501 -1472 -465 -0.99418938 0.030212278 0.10331842 0.069319367
2500 -1474 -452 -0.97540051 0.022511313 0.21928759 0.067640454
2525 -1415 -452 -0.72825569 0.5349986 0.42827576 0.089966856
2501 -1499 -454 -0.95258504 -0.2355206 0.19264403 0.048212197
2515 -1433 -451 -0.81752664 0.39374521 0.42025581 0.094674721
2509 -1529 -456 -0.91912395 -0.3774381 0.11292357 0.060983021
2540 -1399 -453 -0.59975433 0.69030529 0.4046891 0.087518789
2508 -1526 -509 -0.90715945 -0.33862829 -0.24978498 0.074108109
2507 -1453 -451 -0.89642239 0.25471202 0.36269632 0.091436319
2532 -1567 -515 -0.81907856 -0.51100951 -0.26072872 0.057364192
2499 -1496 -505 -0.9275139 -0.14555229 -0.34428558 0.07501217
2500 -1501 -499 -0.9486478 -0.17868073 -0.26103735 0.070022367
2538 -1397 -458 -0.6386863 0.71900946 0.27405331 0.082874425
2498 -1455 -450 -0.93100649 0.23256226 0.28132153 0.077629812
2503 -1438 -451 -0.87938023 0.34554073 0.32755461 0.076233715
2496 -1474 -449 -0.96492952 0.016985627 0.2619589 0.070566148
2490 -1475 -497 -0.97686964 -0.045321792 -0.20897746 0.068019971
2516 -1425 -453 -0.80245471 0.45943543 0.38076976 0.087872081
2524 -1409 -455 -0.73003632 0.57485533 0.36957863 0.079056598
2498 -1460 -499 -0.96701056 0.034567192 -0.25237998 0.10300042
2507 -1526 -500 -0.92341185 -0.34105453 -0.17604659 0.052634746
2532 -1562 -505 -0.82280207 -0.51356989 -0.24339828 0.061636262
2492 -1429 -485 -0.92927814 0.20502126 0.30725953 0.10624155
2507 -1399 -489 -0.65721411 0.46910214 0.58992606 0.1101908
2487 -1446 -484 -0.97688192 0.13744093 0.16374293 0.071979307
2520 -1387 -492 -0.58662552 0.62677765 0.51285511 0.1201342
2484 -1462 -483 -0.99742323 0.071334265 -0.0076403855 0.050920073
2484 -1481 -482 -0.99550641 -0.081393443 -0.048396412 0.044069901
2524 -1562 -486 -0.86114222 -0.50355375 -0.06976857 0.043552741
2503 -1530 -483 -0.93283987 -0.35915706 -0.028566336 0.039741348
2494 -1506 -483 -0.95860314 -0.27693388 -0.06623856 0.036105916
2535 -1407 -440 -0.62202102 0.53918743 0.56777346 0.095004991
2492 -1447 -481 -0.97517586 0.1932804 0.10805006 0.05981914
2494 -1489 -480 -0.98753297 -0.14262871 -0.066600159 0.046576813
2540 -1390 -441 -0.55949426 0.72012717 0.41034496 0.082765274
2497 -1430 -482 -0.92299539 0.29311037 0.24933086 0.10346664
2494 -1469 -481 -0.99561131 0.03085609 -0.088351034 0.060663719
2502 -1393 -483 -0.58993953 0.46857592 0.6575774 0.11638276
2514 -1538 -528 -0.87629026 -0.38453066 -0.29026109 0.092896074
2542 -1579 -535 -0.73771805 -0.62797534 -0.24782857 0.085898817
2502 -1506 -524 -0.77248514 -0.071454525 -0.63099992 0.098971643
2492 -1446 -445 -0.90941978 0.29002336 0.2980639 0.062181126
2522 -1397 -449 -0.68529105 0.63532454 0.35600421 0.078563891
2496 -1492 -498 -0.95177889 -0.15000366 -0.26761118 0.06958513
2487 -1464 -496 -0.98988414 -0.007148562 -0.14169785 0.076435544
2536 -1384 -451 -0.58336198 0.75353229 0.30311367 0.068678379
2491 -1467 -445 -0.95655465 0.076564528 0.28131995 0.063743696
2506 -1432 -447 -0.8398512 0.37515214 0.39231476 0.080186784
2511 -1413 -448 -0.77861947 0.51467425 0.35897371 0.073767766
2527 -1555 -504 -0.84962201 -0.48416713 -0.20910457 0.04932921
2505 -1519 -500 -0.93482655 -0.30910736 -0.17479111 0.049884107
2488 -1487 -444 -0.95634878 -0.12105116 0.26597685 0.064173229
2491 -1477 -462 -0.99199218 -0.035700671 0.1211484 0.053673793
2513 -1414 -460 -0.80604148 0.51982528 0.28298202 0.071425341
2538 -1378 -460 -0.55188435 0.79062855 0.26519841 0.069351792
2496 -1455 -461 -0.96221894 0.19990166 0.18486227 0.057146166
2521 -1394 -459 -0.69237435 0.6567772 0.29876652 0.068743683
2503 -1434 -460 -0.90083808 0.34536478 0.26308519 0.067804128
2494 -1505 -465 -0.9542051 -0.28877565 0.078110464 0.046622504
2544 -1586 -529 -0.74705344 -0.59146738 -0.30344281 0.080563307
2510 -1541 -470 -0.90556437 -0.42409259 0.0099306656 0.040775757
2509 -1538 -519 -0.88299775 -0.40349793 -0.23980105 0.077237263
2512 -1569 -472 -0.90662634 -0.30736625 -0.28905827 0.078962386
2521 -1392 -463 -0.68549806 0.64857322 0.330825 0.074362524
2515 -1409 -462 -0.78428674 0.55368805 0.27986404 0.069333106
2533 -1378 -465 -0.58323145 0.74745661 0.31804046 0.074000955
2510 -1551 -459 -0.91158593 -0.40999857 0.030204147 0.068860777
2510 -1427 -461 -0.84736633 0.42612365 0.31684208 0.081549004
2503 -1443 -459 -0.91298211 0.30670705 0.26906219 0.070415132
2502 -1525 -458 -0.93084413 -0.35696086 0.078154579 0.047919314
2494 -1500 -457 -0.95573938 -0.23912379 0.17141178 0.044497013
2532 -1570 -514 -0.80952203 -0.52014482 -0.27225631 0.056070495
2493 -1479 -457 -0.98716658 -0.042181104 0.15402251 0.051435735
2505 -1512 -509 -0.91035962 -0.21107407 -0.35593969 0.093655914
2508 -1534 -510 -0.89596277 -0.39017358 -0.21216819 0.067173526
2494 -1459 -458 -0.97029603 0.14847066 0.19100288 0.057899468
2492 -1502 -451 -0.94390738 -0.25115147 0.21438715 0.043778375
2513 -1418 -458 -0.80607229 0.5042907 0.30973911 0.073324278
2526 -1386 -462 -0.61902118 0.72382259 0.30478427 0.072456926
2516 -1400 -459 -0.74363238 0.59452087 0.30586895 0.073003866
2500 -1430 -456 -0.88542449 0.35565034 0.29922608 0.065884732
2503 -1451 -455 -0.9232769 0.25657344 0.28588438 0.077495553
2498 -1508 -501 -0.95064497 -0.23208784 -0.2059352 0.059075177
2493 -1464 -453 -0.97105235 0.11606812 0.20877174 0.056617901
2509 -1534 -503 -0.90797848 -0.38418755 -0.16725689 0.048963126
2508 -1530 -453 -0.91201997 -0.37137076 0.17407875 0.06727872
2489 -1481 -451 -0.97700322 -0.072136015 0.20065178 0.052932877
2542 -1573 -508 -0.80854875 -0.49665236 -0.31557134 0.074577168
2527 -1394 -458 -0.66794997 0.68364608 0.2940594 0.067376852
2513 -1427 -455 -0.8338052 0.42239907 0.35545465 0.084548347
2502 -1441 -453 -0.89649045 0.32310382 0.30316481 0.071226187
2496 -1457 -451 -0.95092285 0.18166912 0.25048345 0.070646524
2541 -1381 -460 -0.5447647 0.81096464 0.21346627 0.074332014
2516 -1407 -455 -0.77032536 0.56791776 0.28994521 0.073395871
2491 -1475 -450 -0.97698551 0.0014204088 0.21330096 0.057383865
2530 -1565 -506 -0.82773811 -0.50101715 -0.25264877 0.06070514
2503 -1523 -451 -0.91494334 -0.35926622 0.18386537 0.061157018
2498 -1505 -501 -0.95161557 -0.21317787 -0.22132112 0.062147241
2506 -1530 -502 -0.91866177 -0.35918108 -0.16446716 0.051083993
2490 -1494 -449 -0.96210355 -0.18118121 0.20378959 0.048580363
2537 -1395 -427 -0.54771078 0.62685537 0.55413467 0.076872103
2517 -1553 -483 -0.87939173 -0.47467002 -0.036857609 0.036578435
2499 -1415 -470 -0.81204307 0.43852231 0.385077 0.089607224
2502 -1518 -478 -0.94245756 -0.33355013 -0.022761462 0.03968415
2496 -1489 -475 -0.9878518 -0.15518549 -0.008142408 0.05495403
2498 -1439 -472 -0.94107425 0.28631189 0.18001312 0.064014532
2491 -1460 -472 -0.99061531 0.12423231 0.056988861 0.053034324
2515 -1399 -471 -0.73317367 0.58574754 0.3454797 0.080389306
2537 -1386 -473 -0.5459125 0.80953938 0.21592955 0.10155135
2502 -1426 -463 -0.87547702 0.39869186 0.27310222 0.072202429
2519 -1390 -464 -0.67484289 0.6584484 0.33321574 0.07620275
2509 -1408 -463 -0.7779572 0.54165208 0.31842682 0.080618665
2539 -1379 -467 -0.54179484 0.79874909 0.26164535 0.084170491
2496 -1513 -464 -0.94830447 -0.30860862 0.074023336 0.045828842
2507 -1543 -519 -0.87451535 -0.42649379 -0.23092391 0.072416753
2513 -1570 -468 -0.90329516 -0.3454302 -0.25443241 0.098426424
2502 -1540 -465 -0.91258085 -0.40466759 0.058654636 0.045698885
2490 -1487 -462 -0.98335677 -0.14023951 0.11550841 0.040910199
2497 -1468 -463 -0.98829818 0.066338971 0.1373532 0.061683126
2494 -1444 -462 -0.94149679 0.28666118 0.17722628 0.048668161
2515 -1525 -520 -0.8352707 -0.22514476 -0.50163013 0.11632641
2529 -1400 -429 -0.62598842 0.59523076 0.50382417 0.088554494
2505 -1437 -429 -0.79119325 0.32169345 0.52012157 0.10346379
2532 -1402 -482 -0.64303255 0.74044383 0.19558178 0.11573893
2496 -1509 -487 -0.95461738 -0.27905577 -0.10408486 0.040781848
2483 -1450 -479 -0.9854272 0.13254286 0.10660998 0.058323439
2522 -1552 -494 -0.86855048 -0.47442982 -0.14330558 0.049696054
2484 -1476 -482 -0.99793392 -0.052719433 -0.036720976 0.043148011
2488 -1427 -478 -0.90140539 0.23303539 0.3649148 0.10079846
2507 -1540 -470 -0.9073602 -0.41980633 0.021448959 0.04075506
2492 -1452 -470 -0.97029549 0.21475318 0.11138977 0.048184432
2514 -1563 -471 -0.91785306 -0.34768122 -0.19147742 0.080618925
2499 -1515 -470 -0.94918609 -0.3136895 0.025390022 0.043138806
2504 -1400 -474 -0.72999972 0.53876507 0.4205147 0.095734313
2494 -1434 -471 -0.92118251 0.2650736 0.2848838 0.068991005
2493 -1492 -469 -0.98076057 -0.18062599 0.074047297 0.041636281
2538 -1396 -431 -0.55718553 0.6115002 0.56179339 0.085267216
2534 -1580 -525 -0.76631773 -0.58090854 -0.27441299 0.061983515
2493 -1473 -470 -0.99934977 -0.0013705321 0.036030669 0.055286806
2524 -1408 -428 -0.66229868 0.50924832 0.54956943 0.088746317
2522 -1588 -471 -0.74763292 -0.070133232 -0.66039854 0.16074748
