# .PCD v0.7 - Point Cloud Data file format
VERSION 0.7
FIELDS x y z normal_x normal_y normal_z curvature
SIZE 4 4 4 4 4 4 4
TYPE F F F F F F F
COUNT 1 1 1 1 1 1 1
WIDTH 777
HEIGHT 1
VIEWPOINT 0 0 0 1 0 0 0
POINTS 777
DATA ascii
2612 -841 -181 -0.87603492 0.4157123 0.24443039 0.11501455
2617 -856 -182 -0.91076213 0.047026519 0.41024485 0.13113618
2566 -834 -311 -0.94106984 -0.25972247 0.21663757 0.13803591
2607 -852 -225 -0.97723287 0.17553575 -0.11917651 0.066031799
2617 -794 -269 -0.5811944 0.26044565 0.77096111 0.087919258
2648 -792 -228 -0.61792952 0.69541013 0.36683482 0.12837985
2618 -827 -226 -0.81443721 0.57460326 -0.080765076 0.090510301
2618 -837 -270 -0.71959305 0.14601703 0.67887032 0.12884903
2567 -848 -311 -0.9375667 -0.33951584 0.075482927 0.099143066
2611 -849 -269 -0.81119657 0.050798964 0.58256304 0.14049304
2634 -803 -227 -0.592709 0.78579831 0.17668353 0.10713101
2629 -816 -227 -0.68329078 0.7299394 0.017381392 0.10163426
2644 -807 -184 -0.5268603 0.84995162 -0.00072733633 0.13002555
2559 -817 -310 -0.97583091 0.02653252 0.21691014 0.13946514
2606 -804 -268 -0.58819604 0.3520115 0.7280888 0.097149909
2629 -817 -183 -0.66137427 0.74980927 0.019237148 0.1130971
2615 -865 -270 -0.91154587 0.22141193 0.34649798 0.12621024
2562 -804 -310 -0.90051419 0.31071326 0.30418983 0.13836975
2611 -878 -269 -0.92403382 0.31429952 0.21766336 0.095558271
2593 -944 -315 -0.90693814 -0.15231377 -0.39276415 0.097570762
2582 -911 -267 -0.94744539 0.30376512 0.10036916 0.093960531
2595 -915 -315 -0.94071561 0.10877241 -0.32128295 0.10134505
2585 -927 -314 -0.95876622 -0.00096058549 -0.28419429 0.078420691
2598 -873 -315 -0.90834349 -0.40074679 -0.11964112 0.11062397
2601 -864 -225 -0.99671441 0.046806719 -0.066102095 0.067547791
2617 -884 -226 -0.97307235 -0.19313526 0.12581335 0.11176258
2595 -901 -315 -0.98681098 0.06373281 -0.1488025 0.10707523
2605 -891 -269 -0.91097528 0.37459731 0.17262921 0.084772304
2603 -976 -317 -0.77511996 -0.51533586 -0.36553806 0.068944819
2596 -902 -268 -0.92408293 0.34607109 0.1621899 0.079760775
2595 -959 -316 -0.88233 -0.36649045 -0.29526031 0.084510781
2641 -880 -391 -0.5662604 -0.745821 -0.35085618 0.08093968
2562 -821 -330 -0.95146465 -0.04614494 -0.30427879 0.13151145
2583 -833 -288 -0.75974524 -0.088177681 0.64421403 0.083771281
2591 -815 -288 -0.68428957 0.12245037 0.7188558 0.08983358
2596 -857 -291 -0.8092097 -0.17573886 0.56062061 0.085288346
2584 -849 -335 -0.83905613 -0.33387002 -0.42955279 0.079255678
2602 -799 -287 -0.57020485 0.32762843 0.75334316 0.091065735
2595 -877 -292 -0.90633821 -0.037174366 0.42091465 0.10743494
2593 -918 -295 -0.97708344 0.14888863 -0.15211904 0.08021006
2588 -937 -296 -0.98242474 -0.080877177 -0.16822791 0.072010703
2599 -899 -294 -0.96225893 0.27111644 -0.023528792 0.1111249
2614 -879 -340 -0.71024895 -0.52622694 -0.46758062 0.08161094
2614 -864 -403 -0.64188135 -0.69049305 -0.33347812 0.054330099
2628 -818 -221 -0.67588484 0.73299736 -0.076775484 0.076647222
2611 -843 -220 -0.93066537 0.32455903 -0.16888876 0.080687821
2602 -864 -355 -0.71231091 -0.60228097 -0.36037579 0.063693702
2629 -832 -266 -0.76909721 0.2134224 0.6024453 0.15684278
2621 -851 -174 -0.82498533 0.16337648 0.54102439 0.14304018
2603 -855 -219 -0.98114532 0.1210947 -0.15063198 0.068380646
2614 -842 -265 -0.84218538 0.13504334 0.52200282 0.1545957
2594 -908 -307 -0.97151434 0.12884283 -0.19889563 0.10078846
2652 -815 -176 -0.50493038 0.85877043 -0.08694084 0.15407655
2630 -786 -265 -0.66696781 0.20226377 0.71710765 0.10604715
2609 -872 -220 -0.99763882 -0.062856443 -0.027674796 0.078539215
2569 -839 -303 -0.90583742 -0.27766359 0.31993982 0.12272523
2611 -827 -220 -0.84314388 0.52867323 -0.098046534 0.077009298
2608 -901 -264 -0.89875925 0.39733925 0.18534668 0.083907366
2622 -799 -265 -0.66588002 0.31807357 0.67485774 0.12329515
2621 -835 -174 -0.81105423 0.56711876 0.14341341 0.12044129
2637 -806 -222 -0.56351173 0.82498497 0.043062009 0.082679607
2566 -823 -302 -0.92684358 -0.010165776 0.37531009 0.13665164
2571 -839 -350 -0.8438558 -0.21865645 -0.48999673 0.077328585
2610 -886 -264 -0.91366231 0.36564633 0.17754942 0.085098587
2575 -811 -303 -0.88043606 0.1922749 0.43343136 0.13290778
2616 -812 -264 -0.65803045 0.44259879 0.60918152 0.15565437
2617 -858 -265 -0.94954228 0.19785978 0.24335338 0.1423886
2564 -853 -303 -0.92326784 -0.34336665 0.17226699 0.089722887
2631 -824 -175 -0.64871413 0.76099962 0.0070398706 0.10470906
2652 -795 -223 -0.58537126 0.7988382 0.13855666 0.093340687
2616 -873 -265 -0.92674655 0.30472079 0.2197409 0.10619559
2633 -896 -222 -0.77874571 -0.58500624 0.2265456 0.099541605
2596 -939 -307 -0.94108462 -0.068293482 -0.3312034 0.091442734
2604 -957 -308 -0.87282425 -0.35225075 -0.33778268 0.10878453
2593 -923 -307 -0.94526041 0.076116562 -0.31731528 0.099513859
2601 -971 -308 -0.81562203 -0.44936356 -0.3644627 0.084690124
2580 -921 -262 -0.95334566 0.29582074 0.060184427 0.1070499
2594 -911 -263 -0.91980791 0.35894185 0.15847407 0.086967446
2609 -852 -383 -0.6755411 -0.67634648 -0.29359779 0.059601467
2647 -885 -390 -0.57158834 -0.74521989 -0.34341538 0.080090418
2570 -837 -316 -0.95289636 -0.30048588 0.04119217 0.13817984
2616 -826 -230 -0.84078974 0.53927028 -0.047540821 0.10259891
2618 -890 -231 -0.95807362 -0.13472147 0.25287354 0.13631789
2608 -872 -184 -0.89214373 -0.28283644 0.35225418 0.08589384
2624 -829 -185 -0.72317982 0.6538679 0.22241314 0.088086084
2597 -910 -275 -0.95433772 0.28961334 0.073236622 0.084417708
2638 -818 -186 -0.5784542 0.79575068 0.17936434 0.095242776
2613 -873 -230 -0.99984866 0.016026057 0.006779565 0.079356797
2603 -897 -276 -0.91450816 0.38208938 0.13297532 0.091804586
2631 -886 -369 -0.61559218 -0.74446166 -0.25850162 0.05446659
2573 -854 -317 -0.91263998 -0.40530774 -0.053046729 0.09848126
2583 -922 -274 -0.98122382 0.19266696 -0.0089004571 0.087215334
2598 -815 -274 -0.5988943 0.17660515 0.78111213 0.072580993
2626 -850 -415 -0.50934213 -0.67623711 -0.53223479 0.068206131
2607 -866 -276 -0.84452182 0.12270323 0.52127415 0.10538587
2613 -842 -185 -0.90058309 0.3472515 0.26146981 0.11725722
2633 -815 -231 -0.67840558 0.73210251 0.061577398 0.10805552
2644 -803 -232 -0.58722532 0.78417701 0.20058127 0.10940804
2622 -791 -276 -0.51201576 0.20205295 0.83487391 0.089286566
2595 -830 -274 -0.67764741 0.057620697 0.73312616 0.065775238
2561 -818 -315 -0.9973188 0.0071911076 0.072825246 0.15689589
2614 -864 -366 -0.6722905 -0.69034046 -0.26731181 0.057662815
2608 -839 -229 -0.92813307 0.35746926 -0.10384926 0.093607612
2601 -880 -276 -0.90914494 0.2484809 0.3342346 0.091445237
2608 -855 -229 -0.97882468 0.17485397 -0.10643487 0.069805965
2609 -856 -184 -0.95453346 0.032747317 0.29629952 0.10825668
2602 -960 -322 -0.80375105 -0.3490625 -0.48180869 0.093232676
2584 -937 -319 -0.93571448 -0.10871723 -0.33558741 0.074552529
2575 -935 -273 -0.9933176 0.039059617 -0.10860213 0.082885988
2574 -832 -290 -0.80259222 -0.093715899 0.58912063 0.095353387
2612 -871 -249 -0.96709907 0.23488158 0.097724326 0.096924402
2627 -824 -202 -0.70623446 0.7024135 0.088589035 0.070406817
2618 -853 -385 -0.66949838 -0.67819911 -0.30301473 0.06025764
2583 -849 -337 -0.83250302 -0.3484892 -0.43069026 0.078489996
2614 -980 -305 -0.72836602 -0.56868827 -0.38219962 0.076597996
2585 -911 -297 -0.98253638 0.15230733 -0.10688706 0.073230386
2597 -954 -302 -0.91838032 -0.27064243 -0.28866994 0.084830031
2563 -824 -333 -0.93282568 -0.12096594 -0.33941647 0.12631734
2587 -799 -289 -0.67671978 0.31292459 0.6664297 0.073363699
2622 -855 -249 -0.95647216 0.28764954 -0.049180157 0.11118322
2592 -902 -250 -0.8965683 0.36545417 0.25021672 0.070540778
2591 -932 -299 -0.97037131 -0.0010830669 -0.24161619 0.08346504
2640 -880 -390 -0.56939065 -0.74603695 -0.34528723 0.079833753
2588 -893 -296 -0.98215961 0.074862309 0.17250568 0.099866353
2581 -816 -290 -0.75534886 0.086301789 0.64961529 0.090566963
2655 -809 -248 -0.57626534 0.80156678 0.15940171 0.14792228
2629 -881 -206 -0.84879363 -0.49841249 0.17644954 0.071813256
2611 -838 -202 -0.90784359 0.41881442 0.020361802 0.092829213
2632 -840 -249 -0.90452385 0.41360098 -0.10378282 0.12073135
2586 -918 -251 -0.90438062 0.38617066 0.18157087 0.095718272
2611 -856 -203 -0.99473476 0.10036325 0.020736961 0.10672855
2646 -825 -249 -0.7676897 0.64079249 0.0061243586 0.15375847
2604 -887 -250 -0.92814851 0.30474648 0.21370515 0.079013743
2585 -854 -293 -0.84888208 -0.22699679 0.47735906 0.080953538
2636 -886 -400 -0.57625675 -0.72692651 -0.37350512 0.075812988
2604 -855 -394 -0.64512259 -0.6991908 -0.3081381 0.056044925
2604 -854 -375 -0.69800693 -0.66547412 -0.2644437 0.058962103
2644 -888 -382 -0.58013487 -0.77501446 -0.25059164 0.091973759
2637 -851 -415 -0.51102287 -0.62174922 -0.59353483 0.062099669
2619 -869 -368 -0.66270107 -0.70264089 -0.25908133 0.060980782
2568 -835 -308 -0.93475747 -0.22664431 0.27360693 0.13610144
2597 -811 -266 -0.63487446 0.34626865 0.69067538 0.09252581
2606 -849 -268 -0.82981777 0.029808013 0.55723774 0.12118329
2613 -861 -407 -0.63127422 -0.70690304 -0.31903118 0.063416265
2561 -816 -307 -0.94954985 0.041601524 0.31084481 0.13401689
2611 -798 -267 -0.60882229 0.31955972 0.72609711 0.093611628
2631 -786 -269 -0.64048856 0.18873814 0.74441415 0.099653877
2603 -830 -267 -0.73478621 0.15311158 0.66079205 0.13200137
2612 -863 -361 -0.69091159 -0.66083848 -0.29314438 0.052642014
2583 -912 -266 -0.94516647 0.30809107 0.10835291 0.093199752
2603 -954 -315 -0.86037469 -0.28743878 -0.42087322 0.10143284
2588 -931 -313 -0.9475956 -0.05349433 -0.31496182 0.087130874
2576 -927 -266 -0.96872723 0.24376963 -0.046302434 0.092877686
2597 -863 -267 -0.88702136 0.053685289 0.45859686 0.099276341
2566 -852 -309 -0.92516524 -0.36370647 0.10856684 0.090286136
2600 -900 -268 -0.91619235 0.36628008 0.16257453 0.078379959
2602 -883 -268 -0.91885895 0.31982508 0.23110646 0.082860492
2611 -819 -176 -0.76954174 0.59169018 -0.24022563 0.1445393
2630 -898 -228 -0.81072432 -0.50157654 0.30190563 0.12668709
2602 -831 -176 -0.86510545 0.47302622 0.16684973 0.093180247
2601 -842 -223 -0.94922024 0.27374285 -0.15506683 0.070022538
2636 -792 -222 -0.59931618 0.76064289 0.24948458 0.11314586
2603 -874 -225 -0.99968606 0.017768161 -0.017663017 0.080804937
2666 -786 -224 -0.51897466 0.78315139 0.34254813 0.15244578
2623 -804 -222 -0.59227204 0.79547888 0.12816867 0.085094661
2601 -858 -224 -0.99126393 0.084975444 -0.10087154 0.062791251
2611 -864 -178 -0.88545972 -0.1778781 0.42932567 0.10237262
2618 -817 -223 -0.72964585 0.683393 -0.024309985 0.091347747
2598 -845 -177 -0.93995404 0.24592336 0.23666036 0.097134784
2610 -830 -223 -0.86147082 0.49897486 -0.094298273 0.081157327
2619 -849 -401 -0.6131267 -0.72814983 -0.30638781 0.065586507
2639 -876 -405 -0.54000235 -0.70639241 -0.45761031 0.076643348
2604 -861 -198 -0.98983693 -0.055494547 0.1309323 0.094637029
2624 -883 -201 -0.8437447 -0.48447421 0.23104011 0.066906229
2639 -811 -198 -0.56015527 0.8238858 0.086245298 0.072263002
2600 -844 -197 -0.96006763 0.2583169 0.10743634 0.089946151
2613 -818 -197 -0.71674854 0.68228388 0.14408448 0.064852409
2605 -831 -197 -0.85463506 0.51035917 0.095563747 0.079290345
2638 -788 -264 -0.6974653 0.21795361 0.68267 0.13367084
2620 -856 -400 -0.63813406 -0.69937831 -0.3219547 0.058037885
2590 -936 -308 -0.94419849 -0.063650779 -0.32316813 0.091848731
2566 -811 -303 -0.88758457 0.172692 0.42704946 0.12728414
2611 -813 -262 -0.6766153 0.41484958 0.60835159 0.15315007
2603 -895 -262 -0.90335882 0.37883422 0.20106588 0.07150466
2639 -807 -219 -0.54459381 0.83869404 -0.0031584711 0.067144074
2594 -921 -309 -0.92754704 0.13250066 -0.34942827 0.10119746
2601 -861 -216 -0.99284148 0.012687509 -0.11876349 0.069662347
2618 -884 -218 -0.93599224 -0.31445718 0.15822515 0.099131837
2586 -868 -307 -0.92617685 -0.36711541 0.086155534 0.093677387
2628 -836 -264 -0.85381007 0.22372375 0.47005966 0.15993208
2644 -882 -404 -0.53783017 -0.69690382 -0.47440886 0.073879436
2653 -794 -220 -0.56917661 0.81119096 0.1341909 0.10192665
2612 -875 -355 -0.69006854 -0.62934226 -0.35739848 0.057635766
2582 -920 -260 -0.94183964 0.32264253 0.094020866 0.10571133
2591 -851 -352 -0.79847509 -0.4217307 -0.42962876 0.068359353
2608 -879 -262 -0.92394346 0.31711119 0.21393669 0.087266639
2616 -798 -262 -0.67096126 0.34517202 0.65625244 0.12317764
2615 -833 -217 -0.83727568 0.52208084 -0.16248392 0.076364011
2597 -956 -309 -0.88325238 -0.32031432 -0.3424381 0.09373872
2617 -849 -263 -0.93023366 0.17482916 0.32264528 0.16247131
2571 -846 -305 -0.90851557 -0.33641252 0.24784292 0.1099553
2590 -907 -261 -0.91711354 0.33929202 0.20924519 0.082581893
2564 -827 -303 -0.92695069 -0.089543216 0.36434102 0.1332729
2607 -847 -217 -0.96119875 0.22401105 -0.16098478 0.080519885
2612 -864 -263 -0.95312947 0.23691657 0.1881884 0.12747571
2629 -820 -218 -0.67024273 0.73565269 -0.097928092 0.071676709
2603 -857 -371 -0.70289505 -0.66189158 -0.26045734 0.05718293
2641 -883 -391 -0.57931358 -0.73693413 -0.34831569 0.077646233
2574 -824 -332 -0.93830913 -0.073047735 -0.33799413 0.13801777
2607 -876 -340 -0.73609751 -0.47773448 -0.47951031 0.06981986
2584 -848 -335 -0.83534181 -0.35714617 -0.41791239 0.080662638
2627 -870 -410 -0.57249242 -0.66260099 -0.48292074 0.064343721
2586 -939 -313 -0.942783 -0.1159152 -0.31260824 0.07768178
2624 -875 -362 -0.64958334 -0.71091747 -0.26951408 0.071724281
2559 -836 -308 -0.95213151 -0.26074851 0.15954886 0.12473667
2559 -818 -307 -0.95478904 0.064084813 0.29029489 0.13430148
2592 -959 -315 -0.89547861 -0.33615366 -0.29175115 0.074812926
2570 -858 -309 -0.92210478 -0.376744 0.088241905 0.085962892
2594 -923 -314 -0.91489369 0.092270352 -0.39300835 0.11273354
2629 -808 -234 -0.67973465 0.71365732 0.16927469 0.12303006
2656 -799 -236 -0.54351097 0.80187136 0.24818979 0.11562888
2618 -823 -235 -0.80797559 0.58666688 0.054748684 0.12148277
2589 -841 -280 -0.70061988 -0.055714455 0.71135622 0.04748122
2619 -877 -239 -0.9929021 0.080084279 0.087932043 0.10893784
2607 -855 -236 -0.98101997 0.17964327 -0.072994448 0.080800705
2618 -957 -338 -0.56601477 -0.1842811 -0.80353451 0.11573602
2612 -866 -284 -0.82507211 0.041038357 0.56353521 0.10366756
2585 -930 -287 -0.99203426 0.057074316 -0.11229694 0.074687213
2622 -882 -194 -0.81974548 -0.48890743 0.29830673 0.063699126
2594 -807 -278 -0.59076458 0.18338078 0.78572816 0.062233709
2563 -829 -321 -0.98217976 -0.13205281 -0.13373448 0.13526769
2615 -861 -192 -0.94893676 -0.081568174 0.30473855 0.10347977
2574 -850 -324 -0.90412033 -0.37044734 -0.21292068 0.097594693
2598 -898 -285 -0.95530742 0.28871942 0.063473217 0.093432061
2630 -880 -377 -0.5932126 -0.7498638 -0.29292175 0.062268663
2623 -828 -190 -0.72672224 0.65948832 0.19222395 0.077968076
2608 -837 -235 -0.94250643 0.33142757 -0.042864494 0.10935555
2628 -861 -375 -0.65230846 -0.70446748 -0.27967697 0.07195393
2621 -896 -240 -0.92039579 0.094807871 0.37931907 0.12876436
2593 -915 -286 -0.97822398 0.20042098 -0.053938612 0.077000909
2588 -873 -328 -0.81153613 -0.44016686 -0.38426843 0.072539836
2588 -823 -279 -0.65547276 0.068914637 0.75206792 0.054712776
2583 -817 -322 -0.78588045 0.52997512 -0.31861937 0.18259744
2617 -844 -191 -0.90567797 0.35584429 0.23048268 0.11588562
2600 -881 -284 -0.91469955 0.1479097 0.37609512 0.10257616
2644 -817 -191 -0.52959281 0.82386398 0.2019396 0.081037357
2592 -802 -285 -0.63556623 0.31998 0.70261532 0.070874006
2592 -908 -287 -0.96755683 0.25255844 -0.0069233747 0.076376908
2611 -855 -381 -0.67191267 -0.67700034 -0.30033952 0.057036974
2596 -873 -332 -0.78091633 -0.45203367 -0.43108609 0.074195422
2634 -881 -385 -0.59962541 -0.73959553 -0.30569232 0.064269669
2587 -889 -286 -0.9564212 0.13429976 0.25927219 0.1086532
2573 -831 -283 -0.75327677 -0.019174768 0.65742415 0.071589656
2581 -816 -284 -0.71137655 0.094485581 0.6964308 0.070858046
2603 -966 -289 -0.8618263 -0.50720322 -0.000487351 0.10387779
2565 -828 -327 -0.9636873 -0.15564211 -0.21698482 0.1310063
2587 -925 -287 -0.98869377 0.10367329 -0.10833508 0.079007588
2607 -860 -287 -0.80179483 -0.070472024 0.59342968 0.096802771
2588 -943 -287 -0.98209488 -0.098062165 -0.16085228 0.07032752
2581 -850 -330 -0.86625409 -0.35060459 -0.3559218 0.088590994
2562 -822 -305 -0.94404376 -0.034054488 0.3280575 0.1355063
2599 -889 -263 -0.91031885 0.35604733 0.21106873 0.070568226
2608 -972 -312 -0.79750383 -0.50362152 -0.33219424 0.086040907
2654 -790 -222 -0.58977693 0.77002907 0.24334835 0.12012283
2571 -858 -307 -0.91795599 -0.36960065 0.14405566 0.086371794
2575 -809 -306 -0.89987636 0.22872657 0.37135789 0.14378543
2621 -795 -264 -0.67492926 0.30278909 0.67289615 0.11792205
2616 -844 -265 -0.86754525 0.15268874 0.4733406 0.15369231
2612 -859 -264 -0.95654202 0.1439964 0.2535595 0.13194925
2589 -902 -263 -0.91435951 0.35438022 0.19586091 0.071829714
2608 -843 -219 -0.93832701 0.29577404 -0.17905352 0.080089077
2614 -826 -264 -0.76315558 0.23235364 0.602997 0.15227929
2618 -851 -402 -0.61918211 -0.72162068 -0.30964038 0.062968522
2621 -830 -220 -0.80750662 0.57618326 -0.12627746 0.072645709
2585 -845 -353 -0.81920636 -0.35833436 -0.44776928 0.078232564
2648 -906 -222 -0.61707085 -0.75446564 0.22361812 0.063192181
2594 -950 -311 -0.91722637 -0.20585258 -0.34105778 0.091747075
2633 -817 -220 -0.62744379 0.77626187 -0.061087072 0.071493298
2609 -875 -264 -0.93321884 0.27463326 0.23168775 0.097835749
2606 -807 -263 -0.64164925 0.41131189 0.64738613 0.12380641
2597 -900 -310 -0.99119133 0.09588784 -0.091351956 0.12516268
2588 -914 -310 -0.98082846 0.062398475 -0.18461311 0.079838566
2567 -840 -306 -0.92058057 -0.30062589 0.24931009 0.12792796
2601 -857 -218 -0.98601806 0.076556511 -0.14801177 0.066213444
2579 -915 -262 -0.94197708 0.31665179 0.11140407 0.092540883
2647 -805 -221 -0.53500783 0.844289 0.03070295 0.079922758
2611 -870 -357 -0.70151776 -0.63400489 -0.32543913 0.054974928
2587 -930 -310 -0.9560827 -0.045380704 -0.28956252 0.081158653
2618 -879 -220 -0.96730387 -0.24241324 0.074558295 0.093569271
2613 -867 -401 -0.64808053 -0.68417215 -0.33451495 0.051423077
2607 -851 -199 -0.97849065 0.1823163 0.096524037 0.10797597
2623 -829 -200 -0.75429988 0.65137494 0.082112089 0.074153222
2608 -837 -199 -0.89986312 0.43182787 0.061409641 0.087672077
2593 -913 -245 -0.88250941 0.3808744 0.27588367 0.07580658
2619 -882 -200 -0.85705614 -0.45983958 0.23238422 0.067242838
2597 -900 -245 -0.9019953 0.33535898 0.27191687 0.075660422
2627 -869 -248 -0.97511369 0.21958975 -0.030556379 0.10966894
2653 -822 -250 -0.69675469 0.71730292 0.0030559096 0.14196955
2639 -832 -249 -0.86766225 0.49524397 -0.043539017 0.12923397
2631 -843 -248 -0.90117985 0.41492194 -0.12535819 0.11206551
2652 -907 -203 -0.52493376 -0.7516275 0.39937556 0.061406706
2641 -820 -201 -0.57549661 0.81184316 0.098561749 0.059045304
2649 -807 -249 -0.62608749 0.73636615 0.25647482 0.15600029
2620 -881 -247 -0.96827918 0.15935451 0.19246182 0.11966305
2608 -890 -246 -0.9281894 0.25633758 0.26973224 0.096418649
2629 -856 -248 -0.94351369 0.30655357 -0.12572528 0.10475755
2608 -865 -199 -0.98008704 -0.14203162 0.1387675 0.088089488
2653 -794 -229 -0.57111502 0.77289766 0.27650851 0.11654428
2602 -898 -280 -0.92529875 0.37036893 0.081542477 0.090661794
2635 -810 -186 -0.59400403 0.80441982 0.0082416944 0.11683308
2580 -937 -281 -0.99383295 0.0050200392 -0.11077403 0.074153155
2614 -828 -229 -0.8632983 0.49874377 -0.077269889 0.094910011
2614 -880 -189 -0.83668047 -0.42312154 0.34775561 0.071651235
2593 -833 -274 -0.68377203 0.025965726 0.72923356 0.060881995
2599 -865 -277 -0.80699229 0.035582416 0.5894891 0.088562369
2597 -849 -276 -0.74843901 -0.053503186 0.66104192 0.068535991
2599 -881 -278 -0.90578324 0.23495413 0.35263765 0.098267235
2622 -821 -186 -0.72809142 0.67910546 0.093266405 0.094992086
2616 -890 -233 -0.96723104 -0.056519855 0.24752708 0.13056965
2625 -816 -229 -0.72050828 0.69249856 0.036241058 0.10602375
2601 -860 -187 -0.96038288 -0.099640876 0.26026225 0.089804016
2606 -846 -186 -0.93480277 0.24671832 0.25548756 0.11123985
2608 -872 -231 -0.99858975 0.051816501 0.01155184 0.076902017
2609 -832 -186 -0.82212216 0.54295772 0.17120749 0.085459664
2604 -805 -273 -0.5514046 0.27616453 0.78720146 0.081579685
2600 -838 -229 -0.9599821 0.26877886 -0.078691579 0.086347006
2627 -801 -228 -0.61522305 0.76531732 0.18918245 0.10660431
2600 -854 -230 -0.98676962 0.1301607 -0.096663721 0.062488742
2594 -818 -273 -0.61889923 0.15325765 0.77037382 0.060604695
2615 -794 -273 -0.52633619 0.25162047 0.81219292 0.08146964
2586 -924 -280 -0.99292278 0.1151043 -0.029245352 0.080662034
2597 -912 -280 -0.96385741 0.26457712 0.031269774 0.079049341
2603 -842 -181 -0.9235248 0.33174303 0.19247994 0.093320921
2603 -853 -228 -0.98156279 0.15371561 -0.11360477 0.065744318
2601 -868 -229 -0.99875951 0.041032389 -0.028211027 0.070624925
2610 -887 -231 -0.98708981 0.0022030128 0.16015303 0.11362991
2619 -817 -180 -0.74165344 0.65527672 -0.14339653 0.13488412
2631 -801 -227 -0.60152751 0.77823955 0.18029943 0.10737344
2595 -836 -226 -0.94153392 0.32018009 -0.10487394 0.07753066
2610 -825 -227 -0.85284448 0.5202437 -0.044752274 0.093091361
2642 -790 -227 -0.62819165 0.67360401 0.38940066 0.12797339
2635 -807 -181 -0.57700777 0.80051458 -0.16198251 0.14155588
2604 -827 -180 -0.82201469 0.53300947 0.20048094 0.092752017
2599 -856 -181 -0.96389532 0.018262137 0.26565418 0.097869076
2614 -811 -226 -0.69422144 0.71374762 0.092848703 0.093850821
2642 -890 -376 -0.56263834 -0.80249822 -0.19858171 0.090925388
2586 -926 -277 -0.99115574 0.1292655 -0.030012581 0.084552824
2592 -811 -276 -0.58619738 0.15014969 0.79613292 0.056371167
2593 -912 -277 -0.96122038 0.27106366 0.050792933 0.08225517
2619 -872 -234 -0.99814224 0.060505494 -0.0071565402 0.09742517
2590 -945 -277 -0.9910326 -0.11780163 -0.063064881 0.076916128
2576 -835 -321 -0.95666468 -0.29050756 -0.019950664 0.13723211
2597 -944 -325 -0.89219159 -0.18500869 -0.41202667 0.10359147
2650 -916 -237 -0.61254942 -0.70489937 0.35763121 0.080189683
2571 -850 -320 -0.9234271 -0.36749282 -0.11059605 0.10011426
2593 -895 -277 -0.93792033 0.30438241 0.16630328 0.08663182
2643 -812 -235 -0.63913894 0.75837409 0.12794547 0.11250017
2622 -866 -372 -0.65732455 -0.70009512 -0.27891082 0.065695591
2621 -889 -234 -0.96047896 -0.11344713 0.25418487 0.13340917
2589 -827 -276 -0.66446972 0.041266747 0.74617499 0.058405615
2620 -838 -234 -0.89599645 0.42647493 -0.12373181 0.095414214
2617 -968 -328 -0.63628274 -0.40359998 -0.65745819 0.12191297
2618 -854 -234 -0.96397078 0.23375568 -0.12695917 0.085152663
2630 -825 -234 -0.76807302 0.63990045 -0.024315402 0.10918474
2662 -801 -237 -0.52629501 0.83512968 0.15991245 0.1254001
2565 -815 -319 -0.99881512 0.030373735 0.038023274 0.16033982
2597 -880 -277 -0.88962322 0.21930782 0.40059286 0.098738641
2620 -813 -264 -0.67226249 0.43834957 0.59658426 0.15555607
2630 -797 -264 -0.69825166 0.31463045 0.64300251 0.12970357
2570 -812 -305 -0.90018159 0.12898694 0.41597542 0.13448064
2623 -833 -266 -0.79919237 0.20671706 0.56441075 0.1557844
2571 -831 -281 -0.74720043 -0.053640585 0.66243052 0.0624572
2581 -923 -329 -0.96713907 -0.032174524 -0.25220391 0.075476795
2578 -851 -327 -0.88014436 -0.39584899 -0.26201043 0.095948294
2615 -971 -334 -0.6457293 -0.48759872 -0.58760625 0.10016794
2582 -870 -328 -0.82583189 -0.42333516 -0.37254408 0.068599001
2629 -881 -381 -0.61120194 -0.73112112 -0.30314031 0.058408123
2593 -856 -283 -0.77857113 -0.10089916 0.61939192 0.063607983
2596 -804 -282 -0.58053416 0.28301173 0.76346868 0.090849914
2589 -873 -283 -0.85178059 -0.017838651 0.5235948 0.084772579
2586 -907 -284 -0.96387714 0.26634553 -0.00092148158 0.074977055
2581 -817 -281 -0.69113696 0.087995596 0.71734679 0.06425266
2569 -919 -282 -0.97953016 0.17929581 -0.091508582 0.074220188
2567 -829 -325 -0.97518939 -0.12864687 -0.18015423 0.13581464
2607 -950 -333 -0.71371037 -0.24893545 -0.65471274 0.10906176
2614 -858 -379 -0.67303979 -0.67004198 -0.31314725 0.064571425
2595 -893 -284 -0.943389 0.30448768 0.13154675 0.096997313
2613 -854 -392 -0.64134556 -0.6973573 -0.31995085 0.059400089
2650 -886 -398 -0.53607279 -0.74163699 -0.40323746 0.082425475
2604 -833 -190 -0.86050344 0.49106932 0.13559033 0.079997927
2599 -858 -189 -0.97858685 -0.016418923 0.20517839 0.08856529
2607 -847 -190 -0.94074929 0.25898725 0.21889807 0.11068502
2596 -872 -189 -0.94671386 -0.24825405 0.20518972 0.070246585
2634 -814 -192 -0.60381812 0.78694582 0.12696414 0.083627403
2618 -823 -191 -0.72603315 0.66620636 0.17042543 0.071917392
2640 -900 -193 -0.60599566 -0.70792931 0.36277452 0.053253412
2621 -828 -223 -0.79212868 0.60193181 -0.10104574 0.080712058
2634 -823 -177 -0.60220742 0.7961551 0.059018772 0.10677264
2608 -841 -223 -0.9247089 0.35049516 -0.14854857 0.074666023
2619 -835 -177 -0.79181373 0.56428164 0.23370352 0.11415929
2614 -805 -266 -0.62160075 0.37021762 0.69032705 0.13369128
2609 -875 -226 -0.9997856 -0.0093299672 0.018485656 0.083381794
2620 -882 -364 -0.63469923 -0.70167619 -0.32373986 0.047601867
2570 -852 -309 -0.92599934 -0.35739782 0.12162248 0.098009683
2646 -802 -223 -0.55388671 0.82914478 0.075686686 0.091373108
2616 -839 -268 -0.77083111 0.13345049 0.62290478 0.13959584
2607 -870 -270 -0.91525739 0.19507647 0.35248992 0.10665836
2607 -857 -224 -0.986498 0.11755972 -0.11402362 0.066916361
2600 -858 -360 -0.72442919 -0.61219591 -0.31688887 0.065816365
2564 -833 -307 -0.94616944 -0.18916894 0.26263765 0.13818112
2671 -792 -224 -0.50749904 0.84223247 0.18190448 0.13083887
2607 -853 -269 -0.83568305 0.0089397896 0.54913932 0.12753263
2624 -791 -265 -0.65753961 0.25247836 0.70985657 0.11312742
2568 -818 -306 -0.94094992 0.063553758 0.33252677 0.14206393
2632 -815 -223 -0.6350317 0.77214611 -0.022914959 0.08034946
2614 -850 -178 -0.90468055 0.19373123 0.37950137 0.13148554
2621 -824 -268 -0.71299875 0.24027734 0.6587106 0.14588585
2600 -903 -272 -0.92245114 0.36236274 0.13333097 0.084174022
2576 -929 -272 -0.98263991 0.17201333 -0.069500111 0.089544065
2594 -930 -317 -0.93556529 -0.049030494 -0.34973356 0.091516979
2588 -916 -272 -0.96722925 0.2486258 0.05150469 0.087955385
2592 -946 -318 -0.9009074 -0.16595177 -0.40103102 0.1028067
2609 -889 -271 -0.9137131 0.35546529 0.19690789 0.08483462
2641 -885 -394 -0.5704658 -0.74125755 -0.35370326 0.080757827
2615 -857 -389 -0.64390171 -0.69219714 -0.32596576 0.052822456
2652 -894 -406 -0.52825618 -0.68650389 -0.49965781 0.077596083
2589 -855 -349 -0.79335827 -0.42964154 -0.43126649 0.06610395
2615 -883 -354 -0.66328067 -0.61668825 -0.42397445 0.049196891
2610 -861 -398 -0.63622028 -0.69549125 -0.33393958 0.054370027
2658 -810 -243 -0.5477742 0.83089083 0.097795017 0.12624687
2604 -963 -283 -0.87879556 -0.47533444 0.042136494 0.09835241
2592 -944 -281 -0.9890486 -0.091501869 -0.11580296 0.07468053
2624 -830 -196 -0.7478559 0.6489175 0.14006281 0.082905427
2599 -903 -282 -0.94539779 0.32223487 0.048864167 0.084474333
2604 -852 -194 -0.98156518 0.091503553 0.16780011 0.099405296
2624 -886 -241 -0.96912736 0.047184821 0.24200335 0.12786509
2587 -855 -327 -0.82966501 -0.48353338 -0.2790187 0.090834573
2603 -908 -239 -0.87613446 0.29884988 0.37825537 0.097115301
2586 -869 -327 -0.817065 -0.46424392 -0.34188071 0.077612922
2605 -838 -194 -0.90642589 0.40378338 0.12389932 0.091635145
2628 -844 -241 -0.90141648 0.40181381 -0.1612265 0.088379487
2632 -905 -196 -0.64223498 -0.69839329 0.31588146 0.047283456
2638 -833 -241 -0.8186723 0.57019156 -0.068245314 0.11372256
2628 -873 -241 -0.99874198 0.048009235 0.014473876 0.12332882
2614 -884 -195 -0.83225852 -0.47540835 0.28518885 0.0603236
2585 -841 -280 -0.70274347 -0.076223545 0.70734835 0.047961224
2594 -916 -282 -0.97681898 0.21320674 -0.019172752 0.078117125
2595 -931 -282 -0.99280304 0.074084125 -0.09409415 0.086495996
2595 -815 -280 -0.59386164 0.14064898 0.79217815 0.07511095
2595 -888 -281 -0.93888307 0.26062763 0.22488198 0.10445617
2641 -819 -242 -0.70515811 0.69789898 0.12525623 0.12565035
2607 -867 -195 -0.95681942 -0.19380558 0.21664712 0.082612962
2588 -828 -280 -0.68029016 -0.0031413937 0.73293614 0.054967348
2625 -858 -240 -0.95999718 0.25431308 -0.11717644 0.095039576
2565 -833 -324 -0.96672481 -0.17840573 -0.1833427 0.12798062
2609 -896 -239 -0.93437999 0.16995722 0.31312698 0.11682131
2646 -822 -197 -0.53768462 0.82113791 0.19138402 0.071195677
2641 -817 -202 -0.56212473 0.82307869 0.080976404 0.058210529
2627 -827 -201 -0.72472775 0.68215245 0.097148217 0.072087079
2604 -833 -199 -0.87576294 0.47746852 0.071155824 0.081068456
2606 -862 -200 -0.99186069 -0.082933225 0.096614771 0.092241675
2626 -896 -202 -0.70429045 -0.63847846 0.3103548 0.05409101
2612 -877 -200 -0.92779213 -0.33163449 0.17093942 0.069501832
2609 -848 -200 -0.96598506 0.25197497 0.058149498 0.1112816
2634 -809 -255 -0.74688542 0.50340408 0.4344497 0.16291879
2571 -816 -295 -0.83913374 0.11328046 0.53199822 0.108427
2598 -898 -299 -0.97079021 0.2331271 -0.056728274 0.11713191
2620 -877 -254 -0.94310474 0.30266872 0.13764115 0.11220847
2647 -842 -256 -0.85337752 0.47512847 -0.21447545 0.1357895
2604 -900 -253 -0.89706391 0.34479254 0.27639556 0.07299912
2570 -831 -296 -0.87782168 -0.12880172 0.46134502 0.12507035
2608 -848 -210 -0.96435249 0.23724903 -0.11720558 0.09657836
2588 -937 -299 -0.9726311 -0.06693393 -0.22250536 0.07663352
2582 -921 -251 -0.90537304 0.40104085 0.13952059 0.10900346
2608 -862 -210 -0.99894571 -0.034229103 -0.030592473 0.082744829
2617 -880 -210 -0.93290377 -0.33595374 0.1297138 0.080817901
2569 -844 -296 -0.88347846 -0.2688908 0.38361898 0.098803416
2598 -970 -300 -0.85616922 -0.43649271 -0.27649298 0.081579529
2620 -837 -210 -0.86598134 0.49041861 -0.097805917 0.090178937
2594 -954 -300 -0.93820196 -0.24464403 -0.24479853 0.078740969
2600 -811 -298 -0.70122153 0.17870483 0.69018328 0.11750034
2625 -825 -211 -0.73500985 0.67646593 -0.04641591 0.070773959
2590 -910 -251 -0.89225346 0.38109538 0.24217768 0.076688975
2619 -862 -254 -0.97078222 0.2386895 0.024681129 0.1189246
2598 -912 -300 -0.9473114 0.20706736 -0.24438541 0.10348593
2626 -850 -255 -0.9414171 0.3368803 -0.015667655 0.12938365
2595 -925 -299 -0.96972305 0.066728629 -0.23491357 0.090873301
2632 -899 -212 -0.71565175 -0.64941519 0.25710398 0.069275677
2651 -829 -257 -0.79800701 0.58878529 -0.12851724 0.17405835
2608 -887 -253 -0.91873628 0.33514255 0.20881362 0.084903486
2646 -817 -212 -0.51646507 0.85596472 -0.024254465 0.05830982
2573 -856 -313 -0.91581589 -0.40152413 -0.007717758 0.089867294
2610 -854 -272 -0.79852211 0.022101093 0.60155964 0.11809032
2569 -837 -311 -0.93325627 -0.30016723 0.19731253 0.13736044
2563 -817 -309 -0.96264023 0.038426224 0.26804328 0.14153259
2649 -807 -179 -0.51064861 0.85393143 -0.10019518 0.15279099
2601 -887 -273 -0.91124123 0.33977857 0.23278733 0.084129363
2644 -802 -224 -0.54469687 0.83113319 0.11190567 0.097108647
2615 -802 -268 -0.59483868 0.34064698 0.72809798 0.11637467
2616 -850 -180 -0.91206229 0.20157199 0.3570869 0.13182883
2601 -905 -275 -0.92927909 0.36495581 0.05698771 0.085258082
2600 -869 -272 -0.87073243 0.12240884 0.47627839 0.097859398
2606 -861 -225 -0.99511123 0.061114557 -0.077580318 0.066730224
2611 -837 -270 -0.70705545 0.1373463 0.69369203 0.12238218
2609 -960 -325 -0.73984998 -0.36357424 -0.56607044 0.10232977
2633 -816 -224 -0.64484614 0.76335913 -0.038161449 0.083961867
2622 -834 -179 -0.77586585 0.59033012 0.22258139 0.10260659
2580 -934 -275 -0.99572533 0.048048932 -0.078881443 0.082667366
2608 -844 -224 -0.94909966 0.27936 -0.14549187 0.076067783
2611 -880 -227 -0.99278438 -0.082901955 0.086640142 0.098797023
2627 -886 -365 -0.61026287 -0.72663736 -0.31555876 0.057492193
2616 -868 -181 -0.85416132 -0.26830634 0.44544372 0.093430556
2646 -910 -231 -0.64322656 -0.7205013 0.25910893 0.076182067
2607 -856 -409 -0.60408628 -0.71674311 -0.34836614 0.080311567
2638 -822 -179 -0.58272976 0.80610365 0.10306755 0.10140455
2586 -919 -275 -0.9777419 0.20895387 0.018948862 0.087984659
2632 -790 -269 -0.61523151 0.21450253 0.75860322 0.11172666
2602 -816 -268 -0.62529445 0.27080005 0.73189765 0.10104477
2608 -861 -361 -0.69551969 -0.65522873 -0.29483509 0.055655833
2623 -831 -224 -0.81047785 0.57204252 -0.12606765 0.079637818
2609 -865 -399 -0.6427353 -0.68924797 -0.33440772 0.053890459
2605 -865 -353 -0.74029422 -0.55230838 -0.38330141 0.067361958
2648 -802 -234 -0.57531583 0.79240251 0.20275582 0.1148015
2636 -814 -233 -0.66763121 0.73996395 0.081987604 0.11573686
2601 -878 -278 -0.90166706 0.18831818 0.38927218 0.097377755
2608 -853 -231 -0.97237384 0.20263037 -0.11588812 0.072865359
2611 -870 -232 -0.997545 0.068995014 -0.011987356 0.079474919
2612 -839 -232 -0.92329013 0.37027219 -0.1021462 0.097526699
2587 -873 -321 -0.86965656 -0.43243343 -0.23811527 0.089254603
2608 -896 -278 -0.90496641 0.41621181 0.088337585 0.10285052
2612 -856 -187 -0.95381129 0.042113658 0.29744005 0.11285861
2602 -815 -277 -0.58605778 0.18917485 0.78787631 0.078533202
2579 -854 -319 -0.89335299 -0.43802151 -0.10028753 0.097650938
2608 -860 -367 -0.68997449 -0.66379565 -0.28863576 0.053223651
2585 -936 -321 -0.93707573 -0.11429229 -0.32988858 0.077389307
2625 -827 -233 -0.81558037 0.5764671 -0.050143778 0.10571413
2563 -817 -317 -0.99860281 0.013334162 0.051132992 0.16036373
2597 -909 -277 -0.95278758 0.29765034 0.060001645 0.08346989
2645 -818 -189 -0.52509409 0.8205564 0.22575097 0.081296213
2613 -871 -187 -0.88637459 -0.30533233 0.34801185 0.085010275
2627 -829 -188 -0.70166999 0.6822353 0.20546116 0.085386179
2582 -935 -276 -0.99675262 0.030721167 -0.074434429 0.079791926
2606 -864 -278 -0.8101058 0.036548749 0.58514327 0.091916017
2570 -835 -318 -0.96337014 -0.26780665 0.014056062 0.14302899
2598 -957 -323 -0.84374166 -0.35183766 -0.405352 0.086095609
2585 -920 -276 -0.98083842 0.19454159 -0.010467069 0.086110294
2615 -888 -232 -0.97418004 -0.06584429 0.21595781 0.12386838
2617 -841 -187 -0.88373077 0.40033373 0.2423901 0.11546312
2596 -829 -276 -0.66581982 0.06029062 0.74367273 0.064776704
2612 -850 -278 -0.70714229 -0.0046390388 0.70705599 0.097861774
2634 -885 -371 -0.58520508 -0.76625115 -0.26531911 0.06328012
2592 -812 -285 -0.66039026 0.16657402 0.73221427 0.090907559
2605 -798 -285 -0.54880196 0.35158619 0.75842178 0.09017659
2647 -823 -198 -0.52433395 0.82511467 0.21037996 0.067899324
2629 -832 -242 -0.8624264 0.5049684 -0.03503656 0.12536
2624 -834 -197 -0.78296363 0.61034989 0.12017011 0.090634011
2636 -816 -242 -0.74003488 0.64952409 0.17454772 0.13371032
2573 -820 -328 -0.96330678 0.06220245 -0.26109558 0.15580733
2585 -827 -285 -0.73221731 -0.012839639 0.68095005 0.078124568
2662 -806 -243 -0.5244295 0.84291351 0.12029322 0.13112672
2588 -942 -294 -0.9760049 -0.12319777 -0.17954579 0.07413625
2612 -867 -198 -0.97383559 -0.169407 0.15147763 0.091360882
2622 -885 -246 -0.96270949 0.15196779 0.22382207 0.12520531
2581 -859 -332 -0.83112389 -0.40306535 -0.38310742 0.079124369
2613 -849 -197 -0.96009254 0.24907699 0.12721241 0.11691102
2648 -893 -387 -0.57411736 -0.77415061 -0.26660824 0.081366055
2608 -899 -246 -0.89378834 0.26485142 0.36193404 0.097019672
2590 -923 -293 -0.98627728 0.089408264 -0.13879231 0.078892924
2620 -847 -243 -0.94918758 0.30719993 -0.068346798 0.10151871
2582 -845 -286 -0.78351527 -0.14871989 0.60331267 0.072257139
2627 -891 -201 -0.75866783 -0.59717643 0.26039073 0.057636376
2591 -905 -292 -0.97053242 0.23878266 -0.032398723 0.084397018
2621 -866 -244 -0.98404628 0.17684454 -0.01946855 0.093304828
2609 -861 -379 -0.67280895 -0.67751807 -0.297149 0.057405971
2588 -885 -290 -0.94817388 0.037806243 0.31549481 0.10635244
2579 -840 -330 -0.89979386 -0.31007454 -0.3069607 0.10400437
2644 -887 -403 -0.55485767 -0.69899911 -0.45114654 0.07467103
2611 -856 -397 -0.6277836 -0.70317066 -0.3338244 0.056481261
2650 -821 -253 -0.73846644 0.66649604 0.1022271 0.16992672
2594 -799 -292 -0.66253114 0.36177519 0.65587437 0.096645251
2607 -851 -206 -0.98134303 0.18234695 -0.060954161 0.093160622
2591 -943 -303 -0.95270252 -0.12931795 -0.27501768 0.084422678
2588 -851 -295 -0.84809214 -0.22621776 0.47912979 0.088597469
2610 -880 -255 -0.93909812 0.30231881 0.16339538 0.089198872
2598 -927 -302 -0.95770931 0.047393605 -0.28380746 0.096167475
2559 -816 -333 -0.94354278 0.0087999785 -0.33113381 0.13316509
2586 -908 -255 -0.90327859 0.35804182 0.2364188 0.078567661
2595 -864 -341 -0.7525236 -0.50717467 -0.42009777 0.06963098
2578 -841 -337 -0.86312181 -0.28699049 -0.41552049 0.079537578
2637 -897 -210 -0.6977573 -0.65864027 0.28165206 0.063873641
2618 -873 -208 -0.9650535 -0.25112954 0.074871391 0.084826559
2602 -965 -305 -0.86157203 -0.425906 -0.2762202 0.086547799
2595 -907 -300 -0.97134066 0.19494919 -0.1359859 0.097450785
2616 -836 -205 -0.87522358 0.48340192 -0.017501168 0.091833413
2632 -824 -205 -0.67588872 0.73582041 0.041746676 0.069846876
2598 -890 -299 -0.98061121 0.088408403 0.1748877 0.12242139
2641 -836 -254 -0.8896358 0.44967142 -0.079647288 0.14081343
2627 -849 -254 -0.93639475 0.34710905 -0.051771417 0.1264751
2620 -865 -254 -0.96921855 0.24293147 0.039996747 0.11777315
2574 -828 -292 -0.81663483 -0.044389963 0.57544506 0.10933051
2638 -874 -395 -0.56333232 -0.73995304 -0.3675952 0.078979827
2599 -894 -255 -0.91156518 0.34202677 0.22818097 0.068701558
2582 -813 -292 -0.76117682 0.15582341 0.62954652 0.093582965
2599 -856 -357 -0.74670321 -0.56654882 -0.34850645 0.069376647
2620 -883 -361 -0.63488972 -0.6982705 -0.33065602 0.044937264
2658 -894 -413 -0.50957811 -0.62764192 -0.58855402 0.076253608
2611 -859 -405 -0.62231171 -0.71608561 -0.31614789 0.063647062
2638 -811 -253 -0.75713211 0.56401819 0.32959738 0.1593737
2644 -817 -207 -0.53006715 0.84674853 0.045229148 0.055439971
2621 -825 -206 -0.74672264 0.66486537 0.018956229 0.073670231
2640 -827 -254 -0.89410388 0.41719908 0.16285902 0.15306032
2604 -865 -207 -0.99382097 -0.10853637 0.023231156 0.079426117
2605 -893 -256 -0.90941399 0.35209024 0.22135629 0.073950805
2630 -839 -254 -0.93303567 0.35897538 0.024103355 0.14994489
2622 -867 -255 -0.96009231 0.27562165 0.047493532 0.11392538
2609 -836 -206 -0.89460987 0.44588068 -0.029385507 0.084168158
2601 -849 -206 -0.98274004 0.18253164 -0.030070882 0.086163633
2584 -917 -256 -0.91910046 0.36096758 0.1579766 0.092351116
2653 -913 -213 -0.53529626 -0.7720263 0.34268555 0.049912259
2620 -851 -254 -0.96740806 0.24535215 0.062642038 0.13354056
2610 -879 -255 -0.94269425 0.2930133 0.15959568 0.090713151
2623 -887 -209 -0.83710444 -0.49753812 0.22740246 0.080148898
2591 -904 -256 -0.90564245 0.35346809 0.23424791 0.070562899
2622 -868 -380 -0.65146941 -0.68762505 -0.32056126 0.05940637
2647 -889 -390 -0.56086534 -0.75612807 -0.33719477 0.081556313
2607 -855 -383 -0.66241956 -0.68515432 -0.30292535 0.059170708
2569 -838 -286 -0.81551909 -0.14324816 0.5607214 0.079020038
2573 -822 -287 -0.79704672 0.050587535 0.60179514 0.088192292
2574 -838 -332 -0.91524976 -0.24834822 -0.31723964 0.10362709
2587 -807 -288 -0.71204841 0.27060953 0.64788699 0.086432353
2655 -898 -392 -0.51070899 -0.7837525 -0.35342371 0.094005264
2616 -865 -385 -0.63706911 -0.69819063 -0.32660791 0.055172157
2589 -862 -334 -0.80060887 -0.43347269 -0.41367468 0.080352291
2590 -901 -290 -0.97487557 0.22035524 0.032575741 0.088273823
2592 -920 -291 -0.98776847 0.1135809 -0.10683064 0.078352049
2593 -939 -291 -0.98336828 -0.070108145 -0.16754591 0.073292129
2596 -814 -270 -0.63186133 0.2484383 0.73418641 0.081856504
2618 -804 -272 -0.56236476 0.33784178 0.75472432 0.11084192
2571 -835 -314 -0.95495558 -0.26633874 0.13085715 0.14687239
2614 -838 -227 -0.89960867 0.41282627 -0.14240296 0.083289839
2568 -817 -314 -0.98333549 0.039239146 0.17751512 0.15892735
2590 -828 -270 -0.71397948 0.066405296 0.69701046 0.073502325
2624 -824 -228 -0.76588917 0.64194733 -0.036294308 0.093498208
2638 -811 -229 -0.60812068 0.78926337 0.085162617 0.10196838
2624 -864 -411 -0.58081019 -0.66514581 -0.46929786 0.06583339
2659 -801 -230 -0.54024929 0.82486475 0.16652009 0.099473871
2610 -863 -365 -0.69280887 -0.65870231 -0.29347423 0.051888101
2609 -868 -272 -0.89716804 0.1975697 0.39503893 0.10716433
2607 -965 -321 -0.7764464 -0.39683023 -0.48954743 0.098677151
2618 -889 -228 -0.94756174 -0.22240409 0.22948429 0.12931345
2645 -915 -231 -0.65668058 -0.66914505 0.34787288 0.082910433
2571 -851 -315 -0.91583091 -0.4014158 -0.010915886 0.101543
2582 -943 -271 -0.99423909 -0.090562195 -0.057332899 0.085023291
2599 -898 -272 -0.91959095 0.35777298 0.16233 0.085411161
2587 -928 -271 -0.99007279 0.14052767 0.0027935959 0.097416803
2577 -870 -316 -0.90597969 -0.40537271 -0.12195781 0.078741476
2592 -913 -271 -0.955392 0.28711522 0.069216862 0.085938007
2600 -946 -320 -0.8785156 -0.1733772 -0.44514126 0.10254738
2609 -869 -227 -0.99923754 0.019972324 -0.033545952 0.071864873
2603 -883 -272 -0.9161368 0.3077105 0.25691959 0.083534114
2629 -886 -368 -0.61029547 -0.74957317 -0.25628012 0.053912159
2610 -853 -227 -0.97424221 0.18942834 -0.12234839 0.069492221
2650 -812 -242 -0.63514394 0.75731128 0.15189409 0.12857135
2565 -826 -321 -0.99119544 -0.065033071 -0.11533581 0.15247059
2615 -862 -239 -0.98252457 0.17239335 -0.070185639 0.083387397
2587 -821 -281 -0.67015636 0.079174228 0.73798501 0.061809
2607 -798 -282 -0.50290227 0.25699583 0.82525295 0.073833279
2577 -860 -323 -0.87462884 -0.43371353 -0.21660326 0.081488021
2647 -816 -195 -0.50327444 0.8436318 0.18708344 0.068121701
2579 -846 -323 -0.90152413 -0.40607497 -0.14952382 0.11170105
2601 -852 -374 -0.70397955 -0.66218907 -0.2567459 0.058941133
2630 -877 -378 -0.59488797 -0.74232006 -0.30833295 0.062476914
2629 -826 -194 -0.68299222 0.70393413 0.19493161 0.074616954
2614 -851 -193 -0.95668411 0.2120989 0.19942316 0.12124427
2638 -824 -241 -0.78855842 0.61305839 0.048321687 0.12830393
2621 -834 -240 -0.90046287 0.43419358 -0.025348408 0.11831735
2588 -818 -324 -0.76577312 0.51641136 -0.38328946 0.18265405
2594 -839 -281 -0.70094723 -0.038722914 0.71216124 0.051654756
2596 -809 -281 -0.58080953 0.17603745 0.79477739 0.080330282
2615 -847 -239 -0.9504993 0.29292235 -0.10367095 0.097438417
2614 -836 -193 -0.85286146 0.49454597 0.1674863 0.096933708
2611 -964 -329 -0.69832695 -0.36787078 -0.61401188 0.10801105
2580 -940 -281 -0.99339461 -0.052661091 -0.10195024 0.071871907
2641 -906 -195 -0.58593154 -0.73032796 0.35114846 0.056873463
2596 -900 -282 -0.94550914 0.32230145 0.046198443 0.083327189
2609 -865 -192 -0.95427275 -0.16510279 0.24920796 0.089315034
2592 -914 -282 -0.97097778 0.23883656 -0.012616466 0.081192821
2616 -882 -193 -0.83666313 -0.46702293 0.28615436 0.066124655
2592 -929 -282 -0.9931801 0.084728338 -0.080090106 0.083312087
2602 -887 -283 -0.93558079 0.29545105 0.19338366 0.10641639
2616 -893 -240 -0.94537234 0.14550228 0.29171929 0.12060928
2619 -879 -240 -0.98827922 0.064496867 0.13836312 0.10521826
2603 -836 -212 -0.90420139 0.41764379 -0.089406498 0.080775112
2613 -824 -212 -0.79411471 0.60570914 -0.049982298 0.070347935
2639 -802 -212 -0.54102123 0.84099758 -0.0043689301 0.071175829
2669 -795 -214 -0.50247824 0.85847056 0.10268318 0.10008042
2626 -813 -212 -0.62662876 0.7793169 -0.0012238394 0.061332483
2600 -865 -213 -0.99585164 -0.082062691 -0.039309409 0.067495562
2613 -885 -215 -0.92127258 -0.3490527 0.17151974 0.094201311
2642 -910 -219 -0.62872267 -0.73121357 0.2646403 0.066898994
2603 -851 -213 -0.9791708 0.15324424 -0.133194 0.084667005
2594 -948 -322 -0.88987887 -0.20985422 -0.40506399 0.09930031
2611 -870 -349 -0.70631486 -0.6100713 -0.35907137 0.063017741
2628 -872 -397 -0.62494195 -0.70464957 -0.33603051 0.059602857
2581 -840 -343 -0.8330155 -0.30148551 -0.46388757 0.07279332
2612 -864 -385 -0.64206398 -0.68887901 -0.3364515 0.049911294
2595 -874 -320 -0.88289487 -0.42098093 -0.20801876 0.10189617
2589 -820 -273 -0.6376912 0.11447664 0.76173818 0.056496151
2605 -855 -368 -0.71609384 -0.63926566 -0.2802659 0.058605727
2604 -860 -276 -0.79915988 -0.0044108415 0.60110229 0.098947428
2605 -878 -276 -0.91223454 0.21766286 0.34706059 0.098605193
2566 -812 -315 -0.98000926 0.15338604 0.1267066 0.15694368
2619 -878 -371 -0.61585504 -0.73316228 -0.28843644 0.046527099
2602 -842 -275 -0.71993273 0.0037612007 0.69403362 0.073810197
2566 -847 -316 -0.94195259 -0.33466932 -0.02686868 0.099018358
2568 -830 -316 -0.9854064 -0.16724321 0.031684402 0.15236692
2599 -806 -274 -0.53119504 0.21478823 0.81957179 0.065764338
2617 -857 -416 -0.58375275 -0.6631152 -0.46851999 0.075033367
2586 -907 -275 -0.95253104 0.30262691 0.033189319 0.074478947
2594 -945 -322 -0.88741446 -0.17901176 -0.42479458 0.10846752
2592 -909 -321 -0.96517295 0.051714499 -0.25645021 0.10313667
2569 -919 -273 -0.97192359 0.2291434 -0.053459272 0.077135481
2595 -893 -275 -0.92691904 0.33234033 0.17427266 0.086297959
2599 -965 -323 -0.82212764 -0.41923127 -0.38516387 0.068095714
2589 -926 -321 -0.93152797 -0.0026677544 -0.36365992 0.10278555
2621 -835 -206 -0.82403678 0.56620818 -0.019277975 0.088613771
2643 -807 -253 -0.71420527 0.58454102 0.38499683 0.17177625
2569 -827 -337 -0.89825255 -0.082080945 -0.43174651 0.11629526
2585 -817 -294 -0.76122022 0.10258275 0.64032859 0.11006925
2640 -839 -253 -0.88127863 0.44886231 -0.14788719 0.12855037
2598 -804 -295 -0.67133981 0.38877514 0.63099658 0.10987274
2653 -826 -254 -0.74633199 0.66193223 -0.069529757 0.164684
2643 -825 -208 -0.59288132 0.8050465 -0.019793902 0.064409159
2627 -858 -389 -0.62996382 -0.70736682 -0.32058975 0.057863381
2578 -831 -294 -0.80952066 -0.13299929 0.57182831 0.10408837
2601 -906 -297 -0.93997735 0.29219794 -0.17624687 0.1103632
2615 -883 -206 -0.88896644 -0.39988366 0.2232303 0.074001156
2588 -850 -340 -0.82535648 -0.34841013 -0.44429383 0.076564349
2578 -931 -295 -0.98782623 -0.014798861 -0.15485556 0.069044933
2618 -883 -252 -0.94157827 0.26504466 0.20780231 0.10726671
2584 -916 -296 -0.97871345 0.14371346 -0.14651386 0.073420405
2590 -885 -296 -0.95850611 -0.008358025 0.28494936 0.11039614
2625 -868 -252 -0.96672451 0.25502688 0.020121399 0.11376154
2615 -849 -206 -0.96325588 0.26337263 -0.052658398 0.11162889
2608 -874 -298 -0.92647994 -0.06671232 0.37038401 0.14510585
2611 -897 -251 -0.88963342 0.27944064 0.36119977 0.097931877
2579 -848 -294 -0.84500998 -0.24756946 0.47399101 0.085519485
2630 -853 -253 -0.93204075 0.34165969 -0.12070087 0.1231025
2591 -867 -340 -0.76829344 -0.47219363 -0.43215549 0.060070958
2626 -903 -207 -0.67245263 -0.66281307 0.32937267 0.064447209
2608 -864 -206 -0.99482423 -0.091293894 0.044611737 0.088138677
2640 -880 -392 -0.56686395 -0.74608332 -0.34932062 0.079290092
2620 -881 -365 -0.62437886 -0.72491294 -0.2909506 0.044853061
2657 -888 -418 -0.51577955 -0.56823426 -0.64115608 0.060743984
2621 -857 -412 -0.57487673 -0.6604771 -0.48299769 0.067201257
2604 -972 -320 -0.78286487 -0.48656094 -0.38778999 0.073135726
2566 -846 -312 -0.93310481 -0.35323828 0.067365028 0.10453724
2590 -910 -316 -0.96558762 0.077116229 -0.24838193 0.096759476
2582 -870 -314 -0.92011601 -0.38568735 -0.068057284 0.090971619
2570 -810 -311 -0.94531411 0.1957628 0.26087973 0.15684305
2561 -826 -311 -0.98678511 -0.064448185 0.14866599 0.14848506
2600 -952 -319 -0.87422788 -0.27806184 -0.39800397 0.096611939
2587 -928 -316 -0.94500023 -0.031876974 -0.32551265 0.084854394
2603 -857 -362 -0.72338456 -0.62332875 -0.2969445 0.065008424
2621 -818 -179 -0.72718155 0.67404264 -0.12989795 0.12746882
2621 -848 -180 -0.88264757 0.30542523 0.35727966 0.13188335
2618 -832 -179 -0.78850049 0.5885058 0.17868365 0.10327995
2648 -811 -180 -0.52369612 0.85166943 0.020039055 0.12414972
2630 -805 -223 -0.58345133 0.80898488 0.071610212 0.093082234
2621 -816 -222 -0.70346302 0.70996302 -0.033048999 0.084531747
2627 -820 -176 -0.68494505 0.70614547 -0.17946815 0.12651002
2643 -795 -224 -0.5725311 0.79394346 0.20460199 0.10292421
2609 -880 -222 -0.98647338 -0.14101075 0.083584137 0.0885396
2623 -832 -176 -0.7567358 0.63895124 0.13817474 0.11084881
2620 -829 -222 -0.80374217 0.58262926 -0.12058855 0.075777121
2609 -839 -222 -0.91341579 0.37635028 -0.15502281 0.077886991
2608 -853 -222 -0.97682947 0.16768156 -0.13299312 0.070343532
