# .PCD v0.7 - Point Cloud Data file format
VERSION 0.7
FIELDS x y z normal_x normal_y normal_z curvature
SIZE 4 4 4 4 4 4 4
TYPE F F F F F F F
COUNT 1 1 1 1 1 1 1
WIDTH 416
HEIGHT 1
VIEWPOINT 0 0 0 1 0 0 0
POINTS 416
DATA ascii
2560 -1185 385 -0.96463823 0.017865594 -0.26297113 0.12112428
2568 -1170 339 -0.69718796 0.5415597 -0.46972561 0.12119445
2640 -1113 303 -0.76247364 0.034372251 -0.64610559 0.17857262
2598 -1128 343 -0.71055818 0.43293643 -0.55468291 0.11152402
2540 -1230 334 -0.98092574 -0.11143987 0.15926675 0.083052978
2616 -1098 346 -0.82936811 0.40282193 -0.38714719 0.17996886
2566 -1132 386 -0.64801073 0.76162422 -0.0032888548 0.12249438
2564 -1204 435 -0.94379568 0.092006758 0.31746578 0.12780651
2546 -1178 336 -0.90611887 0.41288212 -0.092070542 0.11040883
2540 -1157 382 -0.90539306 0.21512657 -0.36603835 0.087250933
2535 -1209 334 -0.97671038 0.15241539 0.15101789 0.081038028
2542 -1194 335 -0.93028468 0.34577346 0.12252025 0.077200465
2612 -1114 345 -0.73554474 0.50356579 -0.45320582 0.1041205
2602 -1148 344 -0.6394673 0.42349693 -0.64166343 0.10693721
2582 -1158 341 -0.64432257 0.40751633 -0.64713126 0.084551238
2575 -1165 348 -0.68236715 0.45715967 -0.57042092 0.11077607
2546 -1187 343 -0.94488227 0.32632893 -0.026587695 0.098025449
2582 -1150 349 -0.64983493 0.42724633 -0.62862945 0.074554726
2593 -1119 351 -0.70495945 0.48296326 -0.51940227 0.11163989
2558 -1175 345 -0.87048775 0.42480335 -0.24858224 0.12024526
2542 -1203 342 -0.95483571 0.25127575 0.15858494 0.08450377
2589 -1135 350 -0.66419673 0.46796679 -0.58296633 0.089268714
2538 -1218 341 -0.98253202 0.019074691 0.18511331 0.07707075
2542 -1237 341 -0.96376806 -0.18611327 0.19108364 0.081751525
2639 -1104 310 -0.73709595 0.42450508 -0.52581823 0.20997207
2626 -1117 308 -0.81386739 0.08234863 -0.5751856 0.14792758
2603 -1106 353 -0.75235438 0.4865638 -0.44409302 0.14060694
2568 -1170 343 -0.72283858 0.50431228 -0.47241241 0.12348201
2602 -1118 342 -0.75410491 0.48141176 -0.44673088 0.12286092
2601 -1140 343 -0.69559878 0.45667613 -0.55460733 0.098733485
2618 -1103 342 -0.83028078 0.42049953 -0.36580572 0.14727202
2554 -1186 343 -0.93084526 0.36541346 0.00034612772 0.12404337
2592 -1159 344 -0.63749051 0.35305586 -0.68480462 0.07853622
2542 -1203 343 -0.95172471 0.26133698 0.16100647 0.084110402
2539 -1225 344 -0.97539502 -0.045191742 0.21578278 0.068732135
2529 -1178 406 -0.96966434 -0.059432037 -0.23710518 0.12138297
2531 -1200 407 -0.92501909 -0.3586705 -0.12528044 0.11986333
2544 -1164 407 -0.96207613 0.077314101 -0.26159513 0.14168824
2531 -1200 416 -0.93075591 -0.35488594 0.088031091 0.12581111
2530 -1178 415 -0.91018486 0.22986624 0.34456515 0.17025734
2552 -1232 367 -0.90034395 -0.14097974 0.41171041 0.078154333
2545 -1211 367 -0.9894948 0.090305328 0.1128935 0.10551557
2595 -1146 328 -0.64738554 0.3405591 -0.68184412 0.06873101
2548 -1160 368 -0.87859607 0.31793895 -0.35634765 0.092751034
2585 -1123 374 -0.61904323 0.60874826 -0.4961966 0.09681648
2541 -1210 319 -0.97564596 0.14455593 0.16498029 0.10290477
2613 -1118 331 -0.80623209 0.3819114 -0.45181128 0.11945513
2547 -1196 321 -0.93665379 0.3280535 0.12272134 0.13363898
2565 -1186 371 -0.95740956 0.1161932 -0.26432189 0.1290639
2550 -1196 368 -0.98760796 0.11145117 -0.11049497 0.10821556
2607 -1133 330 -0.69802541 0.23778255 -0.67544055 0.10458419
2572 -1135 372 -0.68247104 0.52515811 -0.50837225 0.09319929
2556 -1145 370 -0.81677419 0.36022305 -0.45068759 0.1014701
2637 -1091 334 -0.53337979 0.82776302 0.17411037 0.18437096
2541 -1193 414 -0.94210654 -0.32787746 -0.07022503 0.18283807
2538 -1171 413 -0.99125695 0.13149148 0.010938869 0.15810373
2637 -1087 329 -0.5169403 0.83676255 0.18055809 0.17729223
2606 -1105 344 -0.76933992 0.4072136 -0.49223292 0.15878972
2583 -1150 340 -0.61851013 0.47121817 -0.62880743 0.067107908
2541 -1165 383 -0.93229198 0.15006118 -0.32910976 0.088155843
2633 -1117 301 -0.66605854 -0.18884623 -0.72159761 0.13762541
2536 -1181 382 -0.96490997 0.0063019223 -0.26250568 0.089057446
2543 -1222 333 -0.98251474 -0.057388376 0.17711934 0.082731903
2546 -1205 334 -0.95847774 0.2439266 0.1477171 0.110833
2566 -1179 338 -0.77332175 0.54884022 -0.31740803 0.13958555
2553 -1191 336 -0.89584351 0.4387762 0.070284791 0.10139925
2579 -1166 340 -0.60720015 0.46262863 -0.64597434 0.11168509
2554 -1153 385 -0.87492913 0.30098563 -0.37935042 0.12303265
2612 -1137 313 -0.65756661 0.0906009 -0.74792886 0.085000575
2580 -1118 356 -0.67538178 0.44203889 -0.59030586 0.089218855
2544 -1147 354 -0.75838286 0.45499846 -0.46672463 0.088578366
2617 -1117 312 -0.82707214 0.19795679 -0.52608442 0.13273084
2596 -1102 356 -0.74103409 0.46634743 -0.48310307 0.18017074
2563 -1133 355 -0.67018509 0.48917034 -0.55817956 0.06239295
2539 -1216 312 -0.99726903 0.069205813 0.025787676 0.10085087
2532 -1175 403 -0.9683044 0.02087057 -0.24889958 0.11828512
2542 -1201 405 -0.9531185 -0.28986835 -0.086841904 0.12749423
2540 -1158 403 -0.94388419 0.2989634 -0.14036942 0.11874875
2546 -1139 396 -0.70440024 0.6930331 0.1533802 0.081752367
2539 -1157 395 -0.94179612 0.27249882 -0.19688687 0.11077503
2537 -1176 396 -0.95799345 -0.010114035 -0.28661177 0.11221622
2555 -1205 378 -0.99073476 -0.085750684 -0.10531567 0.11789116
2558 -1139 373 -0.81366247 0.4186731 -0.40331906 0.11317119
2542 -1197 425 -0.96946061 -0.17830364 0.16838615 0.1377829
2579 -1126 374 -0.62593502 0.62643611 -0.46452469 0.088349074
2559 -1184 377 -0.9647646 0.10492737 -0.24128731 0.098245852
2528 -1168 421 -0.74050719 0.40836552 0.53374779 0.12878215
2546 -1155 373 -0.87128288 0.29831839 -0.38970801 0.08715298
2553 -1138 390 -0.76933664 0.637887 0.03494649 0.1025041
2546 -1157 391 -0.9263624 0.19952805 -0.31943896 0.11430939
2549 -1181 393 -0.96206391 -0.040509719 -0.26979989 0.1215844
2542 -1191 417 -0.93914425 -0.3354761 -0.073917635 0.18998072
2539 -1168 415 -0.87076384 0.3624101 0.33230889 0.15496582
2538 -1203 329 -0.97243893 0.20314999 0.1144231 0.095342748
2551 -1209 427 -0.86122447 -0.50818551 -0.0063206591 0.11197416
2575 -1202 381 -0.96476269 -0.25980166 -0.041665457 0.18785264
2548 -1153 377 -0.86466485 0.29692689 -0.4052026 0.09106259
2621 -1093 341 -0.84380543 0.48510519 -0.22948925 0.19814825
2534 -1182 424 -0.69288474 0.2625429 0.67155194 0.15590614
2559 -1140 379 -0.8219437 0.442168 -0.35902083 0.11993697
2617 -1109 340 -0.80856895 0.46445945 -0.36123914 0.12154333
2545 -1188 330 -0.93484956 0.33484545 0.11804605 0.09237197
2613 -1126 339 -0.72117496 0.38960877 -0.57281029 0.10770052
2610 -1144 339 -0.68808204 0.31299976 -0.65465581 0.11844167
2572 -1183 334 -0.70168966 0.65628475 -0.27734807 0.14182313
2576 -1129 381 -0.6384331 0.74326253 -0.19991013 0.1102469
2539 -1222 328 -0.98246056 -0.026717057 0.18454674 0.077115238
2567 -1180 380 -0.95009905 0.1139052 -0.29040897 0.11232629
2581 -1131 380 -0.65610307 0.63218218 -0.41215825 0.1093639
2553 -1155 376 -0.86375356 0.33623767 -0.37533197 0.10462178
2609 -1128 335 -0.72420561 0.357169 -0.58987844 0.11135695
2566 -1143 378 -0.8066361 0.44704023 -0.38664359 0.1283002
2611 -1110 335 -0.81839228 0.38328511 -0.42816651 0.15286152
2614 -1093 336 -0.84040982 -0.058066897 -0.53883165 0.19467708
2536 -1220 323 -0.99713331 -0.0069325557 0.075346097 0.081134267
2600 -1142 333 -0.65235311 0.35627091 -0.6689592 0.084403396
2548 -1191 325 -0.88915539 0.43992275 0.1259785 0.11859166
2548 -1207 422 -0.82098103 -0.55798674 -0.12099931 0.12935258
2549 -1209 325 -0.9534263 0.24685907 0.17331748 0.11903454
2556 -1192 376 -0.9826889 0.028807135 -0.18301 0.099950254
2553 -1173 375 -0.92722762 0.21245821 -0.30840001 0.089187928
2552 -1209 375 -0.99908781 -0.0056734257 -0.042324606 0.12283434
2533 -1182 420 -0.72030693 0.31295457 0.61904556 0.1778221
2549 -1200 426 -0.94320148 -0.30826598 0.12386659 0.14026685
2562 -1151 381 -0.86454439 0.29976371 -0.40336683 0.1201518
2597 -1146 336 -0.6567052 0.39447379 -0.64275086 0.080096237
2545 -1201 330 -0.95445228 0.27872899 0.10644718 0.10859218
2566 -1192 382 -0.9785136 -0.04764482 -0.20060153 0.13443269
2538 -1216 329 -0.98709577 0.060593143 0.14822394 0.08283329
2551 -1165 380 -0.91681159 0.18115714 -0.35586333 0.097595289
2565 -1133 381 -0.74080068 0.63246709 -0.22627358 0.12853394
2554 -1185 331 -0.87987316 0.47272006 -0.048569422 0.12270983
2604 -1130 337 -0.71767563 0.38069609 -0.58310568 0.11549688
2613 -1095 338 -0.89226311 0.19428645 -0.40757725 0.19492616
2621 -1118 339 -0.7647571 0.46967828 -0.44107696 0.12769742
2539 -1184 415 -0.92718208 -0.31524581 -0.20236963 0.20320712
2544 -1208 417 -0.83646268 -0.5371536 -0.10861025 0.15104544
2546 -1165 415 -0.56817317 0.58509892 0.57865226 0.15988943
2557 -1208 433 -0.95290649 -0.24874274 0.17348284 0.12062833
2543 -1188 334 -0.94380969 0.31274295 0.10684222 0.095401824
2606 -1127 335 -0.71636826 0.38180327 -0.58398873 0.11110333
2541 -1233 337 -0.97153765 -0.15738143 0.17704701 0.080406822
2564 -1127 380 -0.65497667 0.75002354 -0.092034101 0.10282478
2537 -1208 335 -0.97705138 0.13105987 0.16791044 0.085108802
2571 -1178 336 -0.68853289 0.60657924 -0.39747208 0.13429412
2556 -1169 383 -0.92384708 0.16887511 -0.34349352 0.10859895
2620 -1110 336 -0.82442874 0.46838468 -0.31769976 0.11944911
2585 -1140 335 -0.64929503 0.39120099 -0.65220994 0.065500975
2556 -1147 381 -0.84829468 0.34590995 -0.40092695 0.11219007
2550 -1150 370 -0.8390708 0.35309952 -0.41386095 0.087067939
2532 -1185 420 -0.83185959 0.13004661 0.53953451 0.18211395
2535 -1164 418 -0.69112647 0.5232293 0.49857327 0.13829802
2562 -1178 373 -0.9442265 0.20890777 -0.25454643 0.10204539
2568 -1136 371 -0.71301049 0.47166651 -0.51879352 0.094065435
2549 -1217 375 -0.99888182 -0.0080143958 0.046592265 0.13718891
2582 -1120 371 -0.64169443 0.55693859 -0.52730221 0.079008266
2545 -1193 373 -0.98193753 0.076945536 -0.17285249 0.087397769
2538 -1176 399 -0.96823549 -0.030080955 -0.24822392 0.11910366
2541 -1155 398 -0.93188077 0.3219837 -0.16710718 0.1109619
2546 -1168 406 -0.97552431 0.078948297 -0.20523028 0.15240768
2568 -1182 362 -0.91327196 0.26350841 -0.31064075 0.13706711
2539 -1188 406 -0.95072442 -0.2333892 -0.20408949 0.14351606
2556 -1199 362 -0.97799414 0.20847909 -0.0079963403 0.12350612
2548 -1219 363 -0.96821541 0.0093009099 0.24994498 0.083902963
2568 -1137 358 -0.666682 0.49374616 -0.55834568 0.068470933
2584 -1122 358 -0.67512023 0.50149721 -0.54102975 0.090709634
2566 -1159 359 -0.76405019 0.39896691 -0.50700366 0.10070898
2595 -1104 357 -0.75205672 0.43764791 -0.49282345 0.18056789
2635 -1106 312 -0.7720623 0.26716542 -0.57666481 0.20060769
2624 -1124 313 -0.76185828 0.17829849 -0.62272108 0.13544105
2581 -1159 350 -0.65806484 0.40266451 -0.63624841 0.088266477
2599 -1122 348 -0.70266932 0.46407372 -0.5393436 0.11070561
2550 -1162 396 -0.92797154 0.19702192 -0.31630871 0.13383241
2591 -1141 349 -0.65795511 0.47867987 -0.58134389 0.083521321
2545 -1234 352 -0.95059758 -0.16241801 0.26454625 0.079819895
2614 -1106 348 -0.77257061 0.50068378 -0.39044878 0.12159336
2547 -1183 397 -0.96738988 -0.11399227 -0.22619149 0.12539957
2626 -1089 348 -0.59289485 0.80068856 -0.085869148 0.14268197
2575 -1179 351 -0.75678682 0.42015782 -0.50074059 0.16339926
2648 -1106 313 -0.71310866 0.54738671 -0.43799973 0.2057754
2549 -1165 379 -0.91537368 0.19287038 -0.3534005 0.097022273
2547 -1200 331 -0.93905294 0.32775569 0.10370991 0.11090103
2539 -1231 329 -0.97969687 -0.14760633 0.13567019 0.084092714
2543 -1216 330 -0.98248726 0.06549795 0.17443882 0.082641341
2566 -1209 381 -0.9538793 -0.29904324 -0.02621785 0.17706724
2555 -1186 332 -0.88714588 0.46084353 -0.024404777 0.12167993
2572 -1194 383 -0.97384179 -0.17491668 -0.14503877 0.16186571
2612 -1140 341 -0.70216513 0.36887649 -0.60901088 0.11874945
2552 -1149 380 -0.85268396 0.36055344 -0.37806249 0.1098422
2595 -1151 339 -0.63869542 0.33759078 -0.69144827 0.076050177
2565 -1136 382 -0.78005707 0.56145018 -0.27619684 0.12966596
2608 -1120 341 -0.73387122 0.45213059 -0.50696254 0.10272213
2615 -1105 342 -0.79219478 0.43306947 -0.42997468 0.14708921
2631 -1093 344 -0.58447719 0.81125379 0.015928846 0.15858284
2611 -1099 339 -0.84748304 0.31660318 -0.42606905 0.17438141
2538 -1208 327 -0.97423548 0.18180558 0.13346173 0.094792753
2610 -1134 339 -0.70908219 0.38386357 -0.59148222 0.11002301
2617 -1119 340 -0.75854075 0.47039011 -0.45094237 0.11604558
2543 -1227 327 -0.9836055 -0.08608602 0.15845913 0.088588431
2546 -1194 329 -0.92141658 0.362708 0.1394072 0.10041584
2599 -1148 337 -0.62643898 0.3494063 -0.69677073 0.092611335
2542 -1201 417 -0.90856057 -0.41745082 -0.01588656 0.18042
2536 -1176 415 -0.99714601 0.068595357 0.031535279 0.17046963
2544 -1228 339 -0.97043324 -0.091459267 0.22337088 0.086276598
2555 -1158 383 -0.87912208 0.28816471 -0.37961236 0.11821533
2640 -1089 336 -0.51179457 0.85033071 0.12249103 0.14588457
2606 -1142 338 -0.69676054 0.38092619 -0.60779923 0.10785507
2573 -1143 383 -0.77939212 0.51059395 -0.36310008 0.14301892
2560 -1189 337 -0.89341736 0.44291648 0.075037055 0.10987468
2610 -1099 334 -0.86760199 0.15338191 -0.47301254 0.18664879
2567 -1170 336 -0.70514756 0.54519886 -0.45334876 0.1207043
2552 -1179 385 -0.95174104 0.049116451 -0.30294639 0.10289267
2605 -1119 335 -0.74050808 0.41345337 -0.52981514 0.11662327
2538 -1184 390 -0.95865095 -0.044727702 -0.28104791 0.10575154
2550 -1149 390 -0.88398516 0.40124857 -0.2399372 0.11780694
2545 -1167 390 -0.93671197 0.075110853 -0.34194881 0.10989404
2543 -1228 368 -0.93049484 -0.094888054 0.35380158 0.081718244
2601 -1118 365 -0.69126451 0.53391171 -0.48692062 0.10661625
2582 -1132 364 -0.62598664 0.57417566 -0.52769601 0.076756574
2562 -1168 365 -0.87286311 0.3225686 -0.36614156 0.1032513
2627 -1110 317 -0.83627832 0.20059277 -0.51029509 0.15781979
2541 -1173 409 -0.96576011 -0.11481142 -0.23264942 0.15651822
2630 -1134 319 -0.71564138 0.077230014 -0.69418508 0.095893964
2546 -1199 412 -0.90800005 -0.40827692 -0.094052479 0.1706592
2557 -1189 366 -0.97753417 0.15502276 -0.14281066 0.11786725
2563 -1146 363 -0.7478466 0.40899673 -0.52292174 0.083087109
2545 -1206 367 -0.99396783 0.081089035 0.073841341 0.10884482
2619 -1094 353 -0.74909174 0.65790242 -0.07762754 0.16991052
2545 -1219 356 -0.96268731 0.014565661 0.27022403 0.079166479
2549 -1148 398 -0.86377388 0.49636391 -0.086703777 0.10698349
2644 -1111 307 -0.72977477 0.47483891 -0.491891 0.20468102
2546 -1169 400 -0.95331037 0.062825553 -0.29538497 0.13573645
2575 -1164 355 -0.69357657 0.37781206 -0.61335921 0.11102249
2560 -1203 357 -0.96114969 0.25624254 0.10262091 0.12909544
2566 -1182 355 -0.92008913 0.32209438 -0.22291532 0.14329362
2585 -1146 354 -0.64799988 0.43283775 -0.62669575 0.088854432
2595 -1128 354 -0.69545573 0.47445628 -0.53965968 0.10004821
2610 -1112 354 -0.7381174 0.53553724 -0.41034439 0.12193025
2542 -1190 401 -0.95356715 -0.2079871 -0.21783258 0.1244022
2546 -1160 390 -0.92452204 0.1862812 -0.33250287 0.10495751
2604 -1145 347 -0.6783132 0.43544421 -0.59184432 0.10306608
2564 -1172 346 -0.81857109 0.45352861 -0.35249573 0.13112961
2540 -1179 391 -0.94884479 -0.025800817 -0.31468716 0.1082686
2549 -1234 350 -0.94119394 -0.17906468 0.28651312 0.088067159
2606 -1123 346 -0.73273367 0.47024629 -0.49190435 0.10473126
2555 -1141 390 -0.81709445 0.56423491 -0.11830269 0.11420382
2548 -1210 348 -0.96672541 0.15150358 0.20612766 0.088851482
2582 -1158 346 -0.667588 0.39683178 -0.62996101 0.085022971
2625 -1109 346 -0.74553949 0.58995116 -0.31004611 0.16485526
2633 -1090 345 -0.52545506 0.84931266 0.050647214 0.15579844
2544 -1211 322 -0.980003 0.14902091 0.13185935 0.11468294
2630 -1115 322 -0.80944258 0.31333435 -0.49661279 0.13596754
2621 -1134 323 -0.70590281 0.15618151 -0.69087517 0.098818876
2560 -1138 358 -0.70128971 0.45627663 -0.54772657 0.073746689
2561 -1192 358 -0.96096975 0.26147005 -0.090390526 0.13638349
2541 -1148 356 -0.78002924 0.43090895 -0.45373106 0.093700252
2572 -1126 360 -0.64011443 0.52889752 -0.55724394 0.072437033
2534 -1216 306 -0.99475771 0.074138798 -0.070431545 0.11080429
2542 -1194 403 -0.96699768 -0.21446046 -0.13755769 0.13759431
2541 -1171 401 -0.96736491 0.043519452 -0.24962215 0.12522036
2555 -1182 327 -0.83658713 0.54076499 -0.087722681 0.13125435
2598 -1147 334 -0.6400972 0.33867738 -0.68961811 0.069979563
2534 -1225 323 -0.99544626 -0.082880825 0.047089268 0.077858277
2603 -1130 335 -0.71562386 0.35693038 -0.60040253 0.11321157
2582 -1137 381 -0.70376712 0.63993162 -0.30854386 0.12684871
2566 -1148 379 -0.84509271 0.35059822 -0.40360767 0.1290347
2542 -1211 325 -0.98234695 0.12738888 0.13699113 0.086158298
2551 -1160 376 -0.89152306 0.27902159 -0.35683826 0.09609019
2614 -1117 336 -0.78720921 0.46995068 -0.39930934 0.11427374
2550 -1197 326 -0.92726117 0.36476502 0.084457397 0.12864585
2551 -1178 376 -0.95140338 0.1586971 -0.26390678 0.085911825
2624 -1103 338 -0.83618444 0.47825521 -0.26845413 0.14142013
2546 -1187 415 -0.90067816 -0.38161987 -0.20771427 0.18900894
2556 -1201 368 -0.99424928 0.10307322 -0.029055638 0.12246373
2561 -1180 367 -0.92929411 0.23084435 -0.28831133 0.10748281
2549 -1196 416 -0.88529009 -0.459032 -0.074505471 0.18293585
2535 -1167 412 -0.9235633 0.32199275 0.20821004 0.14454958
2558 -1134 363 -0.69542706 0.48096576 -0.5339036 0.074075073
2576 -1120 364 -0.65118057 0.5397802 -0.53348023 0.083280273
2546 -1151 363 -0.82412314 0.35927537 -0.43788385 0.082982831
2539 -1227 330 -0.98546952 -0.090427391 0.14378011 0.087846413
2614 -1125 329 -0.7739619 0.32879633 -0.54118025 0.12305105
2549 -1197 422 -0.85929835 -0.50946915 -0.045248792 0.16783838
2568 -1141 372 -0.75187474 0.45851147 -0.47376314 0.1064745
2625 -1107 329 -0.8764891 0.28405792 -0.38868743 0.14810885
2548 -1185 328 -0.90646422 0.41232088 0.091181219 0.10976246
2600 -1141 329 -0.6454916 0.31945923 -0.69374812 0.072051555
2557 -1158 372 -0.85068154 0.33010083 -0.40911406 0.096321091
2570 -1210 378 -0.96179634 -0.23349541 0.14292566 0.18583028
2545 -1206 329 -0.95832962 0.2491841 0.1396842 0.10551879
2581 -1124 372 -0.61836857 0.5849973 -0.52478433 0.077786364
2629 -1117 313 -0.81348658 0.187234 -0.55062062 0.14162435
2549 -1160 404 -0.93768948 0.25329182 -0.23786895 0.14400817
2551 -1214 363 -0.98072058 0.076831184 0.17967749 0.094885923
2640 -1099 313 -0.76993394 0.42993253 -0.47155032 0.23535457
2556 -1194 362 -0.97265577 0.20897479 -0.10134239 0.12823999
2606 -1103 360 -0.74249625 0.51991946 -0.42235428 0.12754613
2595 -1121 360 -0.69364429 0.51670885 -0.50186592 0.09746588
2578 -1136 359 -0.6543929 0.49436358 -0.57216662 0.07066825
2545 -1235 364 -0.89261812 -0.2099137 0.39896008 0.079796515
2616 -1134 314 -0.7025876 0.031081092 -0.71091813 0.088190019
2574 -1157 361 -0.72628719 0.39797989 -0.56046319 0.099622369
2562 -1174 361 -0.87925392 0.31593579 -0.35650685 0.11617263
2543 -1180 405 -0.96545118 -0.12353786 -0.22943932 0.14596038
2574 -1172 348 -0.71064574 0.44355193 -0.54611748 0.13880156
2547 -1230 342 -0.96414846 -0.11118936 0.24094544 0.082675949
2589 -1144 351 -0.64331943 0.46590891 -0.60751039 0.083098762
2593 -1127 351 -0.68999016 0.46800134 -0.55216694 0.095942892
2608 -1097 354 -0.75997365 0.49287927 -0.42368633 0.19892378
2585 -1159 350 -0.6658619 0.3871282 -0.63777715 0.082313471
2636 -1111 310 -0.81773168 0.17549203 -0.54819483 0.16887259
2647 -1097 311 -0.70941836 0.70210958 0.061381467 0.2197592
2563 -1185 346 -0.94456005 0.32572433 -0.041351255 0.14611907
2546 -1212 343 -0.96679491 0.1223658 0.22435279 0.087057389
2605 -1114 353 -0.72921038 0.51390141 -0.45183787 0.10552803
2559 -1210 366 -0.97620898 0.14141028 0.16437544 0.12151711
2559 -1192 367 -0.97588652 0.16579202 -0.14198051 0.11830654
2584 -1131 371 -0.62652045 0.59831142 -0.4994953 0.088786706
2572 -1144 369 -0.73862714 0.43613806 -0.51401711 0.093055405
2542 -1184 412 -0.96727359 -0.20242941 -0.15298438 0.18564576
2558 -1156 367 -0.8445636 0.35218927 -0.40332997 0.1008607
2612 -1127 326 -0.75682414 0.25072724 -0.60361665 0.1116356
2568 -1178 368 -0.89193058 0.28215671 -0.3533375 0.11299225
2543 -1167 412 -0.98936903 0.10275554 -0.10290939 0.15418975
2599 -1140 324 -0.6570068 0.30342126 -0.69012862 0.072317451
2545 -1221 364 -0.96443802 -0.035676256 0.2618905 0.082224034
2620 -1112 327 -0.83637941 0.37669656 -0.39820743 0.12458971
2562 -1207 374 -0.99707723 -0.076249011 0.0048087495 0.15731157
2560 -1138 368 -0.75129205 0.42414749 -0.50562757 0.091448829
2545 -1202 323 -0.95441979 0.2754395 0.11496063 0.11489175
2618 -1122 323 -0.80521005 0.29090649 -0.51673025 0.12256961
2573 -1121 368 -0.62341142 0.63074529 -0.46208087 0.08124353
2553 -1195 418 -0.86608601 -0.49163723 -0.090486459 0.18122685
2548 -1155 368 -0.84767097 0.3321287 -0.41369596 0.086782925
2557 -1182 372 -0.95439321 0.16052116 -0.25172722 0.090900175
2540 -1222 324 -0.99242121 -0.037106268 0.11714718 0.084768191
2560 -1201 434 -0.955841 -0.11814727 0.26908967 0.120823
2561 -1181 382 -0.95532507 0.087218665 -0.28239504 0.10379378
2552 -1154 379 -0.86698896 0.30135474 -0.39688221 0.110517
2561 -1136 379 -0.77063274 0.56202644 -0.30041879 0.12853776
2556 -1185 336 -0.90128303 0.43187174 -0.034290213 0.11816221
2611 -1138 345 -0.72702539 0.38957965 -0.56538647 0.11193299
2541 -1230 332 -0.9812516 -0.11222667 0.15668617 0.086297795
2584 -1162 341 -0.62878692 0.36581454 -0.68615359 0.099258065
2610 -1120 345 -0.73969829 0.45663217 -0.49430105 0.1065959
2549 -1199 334 -0.93937284 0.32223096 0.11724249 0.10919765
2596 -1150 343 -0.6566475 0.39834273 -0.64041948 0.091432042
2545 -1215 334 -0.98018837 0.078275785 0.18194386 0.0800917
2562 -1170 337 -0.72367239 0.54774636 -0.41984794 0.11084888
2629 -1092 348 -0.55673796 0.82871795 0.057178896 0.15581043
2623 -1107 347 -0.77498025 0.51913393 -0.36042407 0.15094188
2540 -1165 397 -0.95342982 0.14408426 -0.26497394 0.11888871
2544 -1145 396 -0.83817297 0.54471034 -0.027507428 0.10181359
2539 -1190 416 -0.93591619 -0.33659917 -0.10373953 0.19440742
2541 -1170 415 -0.9917953 0.12768686 0.0061673159 0.16473117
2532 -1191 411 -0.96147102 -0.26067707 -0.087297656 0.15965258
2536 -1171 410 -0.99135035 0.12627505 -0.03576313 0.15376137
2543 -1223 340 -0.97188532 -0.041725773 0.23172803 0.078722857
2539 -1199 337 -0.94000113 0.31385115 0.1337733 0.079266071
2610 -1141 339 -0.69533318 0.39553887 -0.60005069 0.11471481
2607 -1095 335 -0.89461559 0.17158313 -0.41257992 0.20685081
2572 -1169 338 -0.6477319 0.52824384 -0.54900074 0.12685753
2618 -1122 339 -0.75960141 0.40933341 -0.50542259 0.12873085
2550 -1181 337 -0.90689176 0.41519651 -0.071827583 0.11046735
2546 -1194 325 -0.92188329 0.36428297 0.13201959 0.11125918
2612 -1135 335 -0.71348345 0.34167689 -0.61171752 0.11520332
2541 -1226 323 -0.98949581 -0.085455455 0.11659912 0.089567922
2593 -1145 333 -0.64614564 0.35288632 -0.67673266 0.065168172
2540 -1208 323 -0.97610742 0.16921578 0.13631013 0.098222069
2636 -1090 339 -0.51492071 0.85186058 0.095865488 0.151474
2616 -1119 336 -0.78622049 0.42459562 -0.44897214 0.11789982
2542 -1213 357 -0.9692421 0.11408192 0.21807134 0.082191586
2607 -1136 318 -0.66261488 0.17174326 -0.72900325 0.077612355
2540 -1176 405 -0.96600121 -0.10083202 -0.23806415 0.14284134
2585 -1124 365 -0.65792447 0.54532403 -0.51938152 0.088845193
2558 -1202 360 -0.96557772 0.25531456 0.049739748 0.12416615
2567 -1188 361 -0.9582265 0.22663231 -0.17447008 0.15039729
2574 -1138 363 -0.66854137 0.49776298 -0.55252552 0.069839731
2632 -1110 322 -0.81943434 0.36750537 -0.43984908 0.15711915
2543 -1231 356 -0.95769334 -0.13004932 0.25673053 0.084997915
2609 -1116 368 -0.69845635 0.58060986 -0.41839093 0.1415972
2564 -1151 361 -0.76307654 0.40427741 -0.50425571 0.088394202
2619 -1123 320 -0.78530002 0.24115947 -0.5702157 0.11634823
2540 -1194 404 -0.95380086 -0.25117597 -0.1648469 0.13156337
2566 -1170 361 -0.82985723 0.36614263 -0.42104226 0.10897446
2536 -1196 409 -0.94973528 -0.28647304 -0.12623797 0.14723921
2554 -1209 365 -0.97447646 0.13497832 0.17937797 0.10681968
2618 -1132 319 -0.72208011 0.097032666 -0.68497074 0.091167115
2548 -1157 407 -0.85716474 0.50245959 0.11315033 0.13436154
2558 -1233 367 -0.85523033 -0.1913735 0.48161927 0.076480381
2591 -1134 363 -0.65061074 0.52660233 -0.54717064 0.081024133
2563 -1190 364 -0.9582119 0.21247713 -0.19152914 0.13505936
2549 -1180 409 -0.94731396 -0.17831288 -0.26608407 0.17097129
2607 -1119 363 -0.6980809 0.58819288 -0.40830418 0.13593793
2572 -1149 362 -0.71899575 0.40351403 -0.56588119 0.089121014
2628 -1114 319 -0.8314181 0.23788519 -0.50214994 0.14221841
2567 -1189 371 -0.96894032 0.086321644 -0.23173961 0.14446074
2556 -1224 370 -0.93974143 -0.056801304 0.3371346 0.095431358
2535 -1175 416 -0.91997254 0.24349099 0.30718496 0.16134495
2539 -1197 417 -0.92151701 -0.38651878 -0.037543774 0.17583837
2551 -1201 369 -0.99602783 0.077965058 -0.043011624 0.10766516
2577 -1133 371 -0.65395278 0.54281157 -0.52697384 0.089154109
2564 -1147 370 -0.78713369 0.39139363 -0.47668803 0.10152026
2551 -1161 368 -0.87380457 0.31634626 -0.36931106 0.092770986
2551 -1153 399 -0.90704775 0.39445418 -0.14720836 0.133605
2541 -1190 400 -0.9644745 -0.17730135 -0.19583981 0.12241779
2539 -1168 398 -0.95994079 0.083641388 -0.26742798 0.11901231
2547 -1189 416 -0.90545613 -0.38669857 -0.17496677 0.19556995
2544 -1166 415 -0.88727474 0.35813519 0.29065898 0.16430461
2533 -1169 413 -0.88630199 0.34528702 0.30861893 0.14567718
2547 -1197 416 -0.90779781 -0.41040209 -0.086448304 0.18254554
2545 -1161 383 -0.91339993 0.20675081 -0.35064894 0.10267989
2568 -1131 385 -0.64045042 0.76787746 -0.013690966 0.1125513
2546 -1204 434 -0.95886534 -0.20140205 0.200036 0.10299626
2559 -1147 384 -0.85782546 0.36231533 -0.36450386 0.1235559
2573 -1195 388 -0.96027327 -0.2230816 -0.16765973 0.16827823
